-3.05756474 -0.32808936 -15.36741161
1.31391203 3.99415874 -15.76123428
0.93182713 -4.92763567 -13.54240990
-2.71484852 -3.81281686 -16.75756454
3.09698367 1.54953849 -16.67708206
2.52597737 -3.81035161 -10.19523335
-3.86534333 -2.62065005 -12.68847084
-0.43777519 -0.53501952 -10.33005524
-3.02014160 -3.86881161 -13.87997150
0.24351241 -1.62932920 -15.48722839
3.86666465 -3.52258253 -9.20314217
-2.50371528 2.50351000 -16.79212570
-3.25948977 -4.18177176 -12.92830372
1.01509452 -3.79647779 -15.23071861
2.70392299 3.45337892 -8.82444954
0.49379167 -5.19931650 -11.87821293
2.41696811 1.30400932 -14.89424706
4.13802147 0.03275390 -8.94664669
3.82883787 2.52240586 -14.73886871
-3.92298317 3.19532537 -9.01753426
-1.92063749 0.82800853 -14.48887634
-2.38410425 -1.73066270 -13.95040226
-2.88237524 -1.17900944 -16.94040871
-3.01523995 1.94259870 -14.67028427
1.46058214 -5.01701021 -13.24784851
-0.61386824 1.85058510 -10.34481144
-1.72643435 -0.97607088 -11.58676910
1.28090322 2.60634398 -9.31045532
2.33014607 3.93558717 -15.15800190
-3.99568677 -0.63123053 -16.93980026
2.11782503 1.66305411 -13.90812206
-1.61489642 3.75300241 -8.93328094
2.14721131 -3.87910461 -10.68747330
-1.80628371 0.15698905 -14.92457676
0.52864647 3.93106389 -10.80111313
2.05008936 -2.49635768 -16.72488213
-3.88000655 3.41102576 -14.29751873
2.10650492 -0.44515619 -10.38351059
0.92901725 -3.75773454 -11.28769398
-4.16947269 -2.79886651 -16.15564346
0.35321707 -4.15776634 -14.46128368
2.35057259 -3.87295127 -10.93585205
-1.44813609 -2.76013446 -16.93818665
-2.65006471 -3.99038911 -12.40117455
2.99750328 2.55661416 -8.67069340
-3.77228808 -2.85386539 -12.33070946
2.82613015 4.10918045 -11.15141010
-3.15101099 -1.42112339 -8.98569298
-1.24456847 0.99122286 -10.38258457
1.48593903 -3.90199685 -9.57517815
-1.35301995 4.04376745 -16.55176544
1.21386313 -1.96964645 -9.88883495
3.81162500 2.41676426 -16.41261292
-4.16211843 -2.25955129 -15.44861412
3.21245241 3.71521997 -13.51100636
-1.31000412 1.06507730 -15.53028297
2.10504508 -2.67259312 -16.91865158
-4.02011728 -0.50838697 -15.49004650
2.31932664 3.32344031 -16.82515526
-2.32726026 2.43452883 -16.88382530
-0.99614835 0.14105333 -15.60368347
4.02859306 0.13675065 -9.89488125
1.93350077 -3.85815096 -14.07801151
2.16878057 2.51444602 -9.00214958
-3.48801017 1.43008721 -9.19228077
0.70926011 0.80481958 -10.06033516
1.49976420 -0.24758129 -12.56128120
-1.36811316 4.02248240 -14.55278683
4.23906708 3.50149775 -14.28483772
-2.01752925 3.81140971 -16.79993057
-2.99155283 3.26571035 -16.84675980
-3.92699385 4.00099993 -15.03259659
3.48250914 -4.39075184 -11.40881634
-0.87610954 -1.70226121 -15.63838482
1.25003707 1.45432413 -15.60175133
-1.65237093 4.34709740 -10.18538380
3.83243942 3.66943192 -8.85900688
-1.98161471 4.07332468 -13.32767868
-2.17144704 0.57884687 -15.01440620
1.90463221 -4.10215473 -11.85795021
-3.84239173 2.57407546 -13.85882568
3.76301837 -0.14253396 -9.60806084
3.96808982 -3.81537318 -12.83020401
-1.13910854 4.83298826 -12.33614063
-2.75165105 3.88310432 -14.97528553
3.32479405 0.51156878 -10.47219944
-3.70338297 3.58569980 -15.17610931
-3.25585103 -1.82427752 -10.91406059
-3.17830801 1.54091024 -14.76021862
-2.55620289 -2.12570000 -13.05569839
3.79539275 -2.58038116 -15.02348900
-0.30601546 2.87291431 -8.78743649
3.93893862 -0.97110939 -16.28633881
3.95960331 -1.57793641 -9.80888557
3.74893880 3.99239731 -9.46853638
4.07570362 -3.67138219 -13.98719311
1.39705360 -5.15828657 -12.56146049
3.62069464 -0.11781833 -17.00853348
-0.29471287 4.14845800 -16.79612923
-2.61468315 -2.14203215 -11.71452713
-2.26625276 -3.89552188 -16.86060524
1.80474484 -3.50817823 -17.04157257
1.38278830 4.15730619 -14.88061810
-0.22766934 1.25715053 -10.33204460
-0.95737845 0.82420015 -10.18730640
-3.58562088 -4.00118065 -10.91771698
3.50971150 -1.04807663 -10.58999157
1.25923216 -1.71553540 -15.70258141
-4.05175066 3.32749891 -14.93388557
-3.98289084 2.52182627 -8.87027359
-3.25385642 3.72716284 -10.47907066
4.01342964 -1.27348912 -9.44628525
-2.89764690 -3.71961355 -10.58519936
-1.25184822 0.45983350 -15.23335266
0.87188035 -4.45707989 -11.73379421
2.56234837 0.03182026 -9.55799675
3.81569314 0.78185844 -10.16447830
-3.07703257 -0.86924225 -10.79786205
-1.75957024 -0.00963942 -15.63129425
2.93706346 2.51675010 -16.86818314
-2.54039121 -3.76143432 -13.65480804
0.22485882 4.07193089 -15.88784981
2.18033576 -3.05516076 -9.10868454
0.58674705 -2.73794460 -16.82685471
0.71384358 -2.24410868 -15.94151688
-1.03670609 -0.68733871 -10.30536842
1.82228804 3.94909430 -10.24608612
-3.92448640 3.57606411 -9.96066475
3.70221400 1.25009573 -16.84899521
-4.03298807 -0.48935685 -16.50493813
3.81794024 3.04217196 -16.92467880
1.86846185 3.89295912 -16.06938553
-4.12036085 2.87599039 -10.96153545
-3.22938228 -2.50154591 -16.71055222
1.46590889 0.08503851 -15.54027557
-1.07570410 3.64428353 -9.05069733
1.43367803 -3.98227501 -9.45870209
0.82324284 1.26173151 -10.29549980
-1.27028060 2.14955425 -10.00360489
2.15116048 -1.72513223 -11.10144806
4.06535339 -3.14041376 -11.89894867
-0.38128516 -0.14440167 -15.57953262
-1.07458830 -3.70595741 -11.47862816
-0.45218652 -5.46023655 -12.67761326
2.29132509 2.04792070 -13.78518009
-1.31581867 -4.32658577 -11.92539978
0.04685094 0.69165671 -10.28064728
2.44529128 -3.91732788 -14.13102436
3.48212838 2.36035228 -13.84030819
-3.72410512 -1.91006386 -15.12568283
3.68753791 3.88012505 -16.16955376
-3.42377710 -1.58383226 -10.76736259
-3.92383313 -2.04259324 -11.02554035
4.19870043 -1.86641002 -16.30203629
3.00572848 0.70685548 -9.08897018
3.96960926 -3.93061805 -9.48607731
-3.99148774 3.55106902 -11.32692814
3.64106297 2.54487705 -13.25196171
1.82334113 2.15580201 -13.30751228
-2.88368726 3.98746753 -14.51282883
-2.48605609 4.30568695 -16.57529259
4.05749989 4.08648014 -14.02347660
2.35470748 -3.97211361 -9.66376686
-4.06798601 -3.07346392 -9.59505844
4.08776808 -0.37137741 -16.11698532
0.83473325 4.17310143 -16.54759789
2.01801348 3.91481161 -13.81377506
0.12436067 -1.16291654 -15.55806828
-4.02013254 -3.52621317 -8.87587929
2.83181548 -3.74973345 -8.85383797
-1.29301524 2.35049176 -16.61663055
-0.17024918 -1.13486230 -10.42574024
4.04402065 -1.75513053 -9.65554333
3.98835158 -3.58728695 -10.82306957
-3.27933502 2.28985620 -8.82020378
1.27664900 -2.33905935 -16.22776794
-1.78576636 3.89416718 -14.29583549
3.27755618 3.73035169 -17.04012489
-3.52308631 3.22648811 -16.91738129
-3.20039964 3.60690928 -17.05530167
4.06958723 -3.76336813 -11.76968193
-2.63161278 -0.01108275 -14.99590492
-0.16495544 1.78225493 -10.32577133
-0.85164106 -3.89204431 -15.64288616
3.02239966 -2.63149953 -16.73435402
3.76511312 -1.86342919 -15.81461620
1.69778466 -0.81505436 -11.30694389
0.89890373 -1.33307683 -15.48458862
-3.57696176 -1.71577811 -11.01456451
0.90772802 -1.15460455 -10.23525238
2.77205372 0.45786232 -9.10661316
-2.25472164 -1.24611425 -16.26948166
1.26549745 -4.43727493 -13.50407028
-3.30006337 -1.12059629 -8.81838036
-3.66196513 3.29016376 -17.26982307
-0.77453947 -3.96006012 -14.71588135
1.93698120 -4.12023354 -10.12984657
-0.58035421 -0.00223324 -15.42343712
-2.31575513 -1.02241135 -15.83089638
-3.78208160 -0.61814916 -16.39616776
-1.90921998 1.49117184 -10.15116978
-2.93822718 -2.26321840 -13.05536556
-1.40507913 0.88067937 -10.11829090
2.07367158 2.05423355 -12.52853584
-0.80154210 -2.84569263 -16.77403641
1.76656806 -3.94061399 -16.18556976
-0.06721807 5.47032309 -13.03022385
3.46182561 2.41244006 -11.73145866
3.90446091 2.79765916 -9.64575195
-3.75284219 4.06872082 -14.27491951
-1.94043803 -1.65762806 -16.32603264
-1.47537196 -1.03166282 -13.32211304
-2.46537042 0.81648624 -16.35946274
-0.77771062 -0.10144248 -10.55936813
-2.81112361 -1.12592375 -15.00032997
-2.51530600 4.02367592 -10.59821987
3.08505464 -3.80326009 -13.16883564
-2.99637532 -4.05346775 -15.89755058
-3.65265703 -1.70839334 -9.00704193
3.35608196 2.12528968 -16.86496544
1.41681874 2.42431903 -9.47208881
-2.45323038 1.34193814 -14.63477898
2.61413240 3.59622359 -8.77777004
2.81871605 2.68507934 -16.71753120
3.18005919 4.17310953 -16.83898354
0.84430367 -3.83301759 -10.81002808
-4.13556051 3.40766764 -8.78808689
-2.95486355 -3.90951419 -9.68760777
2.02461886 -3.04016733 -8.79343796
-0.97643167 4.66255474 -13.95488071
-3.80208182 -3.65446877 -9.90572357
1.52357543 -4.26954746 -13.48602772
-0.24132536 2.30956697 -10.17079353
-0.57906097 -3.97066212 -9.25939751
1.62033236 3.86467409 -16.94247437
3.47034717 -0.77101600 -10.42185593
-1.19860840 3.80674887 -9.60999680
4.02226448 -1.58975506 -15.88772678
1.73608601 1.57351243 -10.13041496
-0.46520093 2.53274798 -9.43615341
-3.96239996 1.92658055 -16.19353485
-3.68702078 2.32434678 -14.47163868
-0.58793473 4.99926949 -14.18863392
3.47074461 2.03816271 -11.47210026
1.03259313 2.22890401 -9.87094021
-2.20747399 0.80755877 -15.17467213
-3.99377084 -1.21338332 -15.98204803
-0.03090737 5.21535254 -12.86783981
1.31185508 -2.22952032 -9.38013554
-4.03506851 -2.39783692 -10.87758636
4.00069904 2.65567040 -12.34038258
4.08185244 0.99961901 -8.91916370
2.60451531 2.27351093 -12.45872498
2.82203150 1.60759997 -14.42698002
-2.39063144 -1.53824472 -14.15187550
3.86939406 -0.36511129 -16.70160484
-3.17320299 -4.23373842 -13.26957321
-1.94083989 -1.30874467 -15.57979965
0.94538873 -4.53835058 -13.90705872
-2.15552449 -3.98625374 -9.54356766
-0.32620719 -0.33153382 -15.61069870
3.46816039 1.23024809 -16.76029968
0.37397873 -4.44385290 -14.46916771
-1.90367067 -2.44911599 -16.84317017
-3.46679950 -1.16567504 -10.51924992
0.83525920 -4.58553982 -11.61026764
-3.85209513 -3.23537159 -16.85051346
3.96801710 2.68064427 -16.70574188
-1.52267778 2.62130713 -9.05716419
-1.94912374 -0.08027252 -15.58909798
3.90889716 3.29204059 -11.10810184
3.28066230 1.34881628 -14.64562798
2.18657517 0.87581283 -9.85777855
2.58214355 -1.36811936 -9.23762894
2.23125315 0.86009967 -10.84238148
0.92919374 2.04998803 -9.84074974
3.37840581 -0.12650400 -8.96557140
-0.43921074 -3.99457455 -9.73923302
3.60736227 -3.26856399 -8.88443565
-1.82603276 0.29930967 -12.91774464
-2.36503196 0.39506859 -14.77092838
3.08864903 4.02797461 -15.86186314
-0.65998107 4.21740246 -9.28690815
2.52233028 1.56196439 -9.26367283
3.98493171 -2.71704698 -15.62648296
-3.93435979 -2.84788656 -8.71540070
3.79145956 -1.63015783 -10.84888458
2.82548070 -1.92684507 -11.45163155
-1.70918238 -0.06584666 -12.74479198
1.92435777 -1.52657664 -15.89284515
4.18801212 3.58865547 -9.89124107
-4.02708387 2.77445054 -15.54954910
0.29274198 -2.57377028 -16.39934921
0.82941133 0.73571521 -15.71698189
3.97178483 -3.09238505 -16.31731415
1.90454268 3.77398968 -10.10121536
-2.34477878 4.15373516 -11.57768631
-3.88787031 3.01831007 -9.02983475
1.28233814 -1.98245800 -9.64191818
-3.46469378 4.03266764 -15.61820889
-3.30863714 -1.18896043 -16.63453484
-4.10634756 -3.44051147 -12.75622272
-2.87666678 3.82737446 -11.55804634
-3.27882719 -1.20910811 -10.55824089
-1.56930530 4.07381630 -13.68553543
-2.75191927 0.10136539 -15.35839176
-3.96331763 1.24849129 -9.74318600
-3.78110075 3.14552212 -15.75810432
-2.99510980 1.26206744 -15.05579948
3.49305582 -2.50621367 -12.09244633
4.16364908 -3.99344492 -13.83188343
-0.10926974 4.11838579 -10.14028168
-1.81403220 0.38536251 -11.80690193
3.88790703 1.86020005 -15.66602898
-0.11399587 4.17351007 -14.48054123
-1.52303481 -4.04877567 -12.02828884
3.01593065 -3.88335276 -13.73237705
-3.59900594 1.40704334 -15.47425461
3.60860348 3.87550378 -14.81564236
1.29052532 -4.08923483 -10.10961819
-1.94021761 0.77925259 -14.70016384
0.00647398 -4.18655014 -10.95724487
3.95213771 -0.86357290 -10.29597855
0.37415427 3.93204927 -10.24037933
1.83876574 1.06066239 -13.67234230
0.78026956 0.63707453 -15.44658375
2.35429311 1.78889453 -13.62820530
1.16453087 -2.77320385 -16.71502304
-0.83172494 -4.53479004 -11.44994831
-0.31444499 3.91522574 -14.58554649
-3.38279414 0.24614763 -9.02058220
-2.46128869 -0.93070418 -16.30748749
-3.81886530 -2.40707493 -11.88890457
-2.23414564 -3.99004722 -14.92301941
-0.84893644 0.32388130 -15.64783859
-1.46306479 -0.60103226 -11.91042328
1.19102049 -0.24583347 -15.31473160
4.11429644 2.52732182 -11.70889473
1.01596391 0.25619254 -10.23120308
2.97331953 3.73960233 -16.95106888
3.81897259 1.45190501 -15.24254322
-3.96148610 0.25899887 -9.30728722
3.62882423 3.96996951 -14.14371586
-3.29482508 -3.13154340 -8.93119335
3.53177404 1.76275086 -14.79210663
-2.28569627 -1.31581092 -14.79491997
1.16927302 3.84899211 -11.73332405
3.47889638 2.03431869 -14.42496014
1.19625568 3.01083565 -8.75854111
1.56102622 -4.01920748 -15.59066677
2.83322859 4.14150143 -9.09629250
-3.73071241 -2.65392303 -16.91613197
1.49020994 4.02442646 -10.73829365
3.24645448 -3.13204169 -16.74949074
2.51585698 -0.08984090 -9.55408478
-1.78285313 -1.65607238 -12.51576519
1.92014194 -3.88035321 -8.87016869
3.48372269 -0.04870941 -8.74572182
-2.19112873 3.91842580 -16.70795250
-3.46524906 -1.93160808 -11.03715611
2.64417100 3.77971482 -14.79519653
-0.77449769 -1.17268574 -10.28796005
-0.36151075 0.46096972 -15.43661690
-0.44875321 -4.28774309 -16.24256516
-0.57178533 -4.20846272 -11.48575783
-1.55118132 0.77176946 -11.20556641
-3.59205675 -4.08702230 -9.54694271
0.23295903 -3.12957454 -16.75732231
4.07242584 3.56078434 -15.82685566
-3.28330660 -4.03864813 -16.41593361
3.73631716 -1.58269918 -16.73824501
0.58101279 -4.62829018 -14.26573086
1.88514161 -0.35131794 -11.09931660
-1.96089923 -0.30505782 -13.26289368
2.92595220 3.78892684 -10.51109219
3.77809978 2.54337335 -13.72903252
-3.75288105 -2.87978435 -13.57304955
-3.76982975 -2.66537595 -12.35601044
-2.12762856 4.05552483 -9.13162994
2.42082548 1.93593478 -13.89963627
-2.48385644 -3.89393783 -13.37346840
3.75416160 1.71279991 -8.86002159
-1.83124161 -1.00641644 -14.41127682
1.61891222 -3.42280149 -16.71861839
-1.81119084 -0.85628134 -11.37692451
-3.95125771 1.24012542 -15.59890366
-3.24296784 -0.00609091 -15.61438465
-0.19790840 3.90461469 -9.67208481
-2.20823932 0.30681142 -14.86215973
-3.77155089 4.17272568 -10.94594002
1.65833497 4.30251789 -13.36282921
1.75293207 -0.07778654 -11.09439182
-0.56881702 -2.03156233 -15.51140594
3.79481578 1.92252243 -15.01840210
0.31482938 3.93215847 -14.62998295
-4.07445240 -1.62962043 -8.81228542
-1.60239458 -2.47459197 -16.78584862
1.79162967 0.29305080 -13.22138977
-4.23700380 -0.86300337 -16.37765694
-3.16120529 -0.59688556 -14.97919464
-1.70567310 1.75756848 -10.08233356
2.96770048 -0.80561435 -9.03262234
2.10262251 1.65871954 -11.48303413
3.91502404 3.86914039 -13.28620529
-3.21153069 -4.02610970 -11.53841782
-2.07151127 0.99166012 -15.80712986
1.52378559 -4.55103064 -13.35008144
-3.53509903 1.66967571 -15.21881294
0.85033578 -3.50922894 -8.88944244
4.18224096 2.86388588 -13.53250790
-3.79683828 -3.98336101 -11.78943825
3.08314514 -3.95014787 -15.65823364
3.72990298 2.52477574 -13.82744980
3.99942827 -0.93897021 -16.09155655
3.54293084 1.82721293 -10.90559769
3.83554173 -3.47415113 -13.79991150
1.96764624 0.50125462 -10.80348492
-2.10280061 3.13214421 -16.79095650
-2.54004622 -1.54510736 -16.69851875
-1.64165866 1.56932926 -16.00604630
2.47456336 4.10182667 -12.08700657
-2.75180221 -0.67731422 -15.23816490
0.34408882 4.42105579 -15.06775856
4.17427778 -2.70137668 -10.87070847
3.11446977 -0.81211734 -10.46274185
1.41759169 3.71777916 -10.93904686
-1.77688801 -1.08182251 -13.08615494
-3.24354529 4.06873465 -12.68538570
-0.78806478 1.25195265 -15.46664810
1.37053716 2.23695135 -9.51346397
-0.50482434 -2.53352714 -15.71790886
1.98131216 -2.13718891 -16.91182709
-2.84650040 -3.84069276 -11.06857681
1.50399745 1.63103473 -10.04983521
-1.71640241 1.21796250 -12.15245247
-2.43458772 4.14273214 -13.29239273
-0.71692997 4.13697863 -10.47538471
-3.92805839 3.51882339 -12.11596966
1.96739769 -2.31037474 -16.48400307
-2.01874614 -1.63269353 -11.93591309
-1.92790592 3.91357565 -11.08925629
-3.42508864 0.02700110 -17.09964371
3.97036290 3.89364910 -11.53635025
-2.93110538 1.21127713 -16.49064636
3.82663703 2.61801100 -12.63398457
-2.32089162 4.18193579 -10.39052582
-2.24984074 3.39500952 -16.86935806
1.19953895 -3.65313792 -8.92010689
0.55786526 -0.84614444 -15.70109749
2.22342038 2.13576078 -9.41593075
-1.07936597 1.89491260 -15.80866718
-3.09683084 -1.88020325 -9.06403732
2.03046751 1.65357590 -9.44379711
2.60377932 -0.53977334 -9.57814407
2.02157879 -3.86778760 -13.04006195
-4.17640877 2.53154802 -10.54166031
-2.02666998 -1.03225434 -14.46539593
4.00107050 -3.95293713 -9.65602684
1.37574029 3.27370501 -16.97427940
3.92192578 2.24190092 -16.71841049
-1.43050349 -0.25315663 -12.11697006
0.43048829 4.14201593 -16.62268639
3.90105438 -3.40781641 -11.28673077
2.64782476 -3.91379905 -13.83248425
4.03131342 -0.85203063 -10.21213436
-1.77886593 -0.87598145 -14.27678490
-3.34045863 -2.93530130 -16.88331604
-0.64726627 2.32897639 -9.55606651
-1.06313014 3.02650285 -9.12854576
-2.37039709 -1.34765995 -11.40163422
1.88178742 -4.17965698 -14.82530594
-3.70399022 -2.92096758 -14.72547531
1.27601659 4.69199705 -13.53534698
-1.74474359 0.07180907 -15.61636353
-3.24854708 -2.57469416 -12.69056416
-2.90796995 1.60055256 -9.00250244
-0.45590422 -3.64346933 -8.71949196
1.76905382 -0.65102595 -12.45164394
2.86797357 -3.88672066 -10.41760540
3.40794516 1.01644516 -16.97644424
1.70850241 0.19734445 -14.07148361
-3.50187111 4.10049820 -10.73916721
-4.16817427 -0.46360686 -9.11295128
-1.00310946 4.28322792 -11.77904606
-4.05613327 3.72487402 -9.31358242
-1.73868310 4.06233740 -12.52778816
-2.98518872 0.39960736 -15.14105034
-1.35597587 3.89331818 -9.27627659
4.09014940 3.35018468 -10.02901745
0.80220354 -0.14881070 -15.75363350
-3.39756227 -3.97617650 -11.88959503
1.49680793 1.63463306 -10.07584858
-2.90122557 -1.23671317 -14.80229759
3.84686017 1.80988991 -10.97664356
-2.75390339 -0.88978148 -10.67030525
-1.62360442 -3.90276384 -8.86380959
-4.03737068 -3.47591543 -13.31073093
-3.97018194 2.61874294 -14.28693581
-4.06781721 -3.61105013 -10.18778801
-2.72578812 -2.15943146 -12.46941185
-1.35735345 -4.03316116 -11.24738503
-3.06936812 -2.68187118 -12.46450901
-0.84763551 4.97299814 -13.67062092
-2.92948437 2.06824160 -16.91411781
2.73120642 2.05468369 -9.02855682
2.86780977 -3.30294275 -16.87278557
-3.36946416 -3.90442491 -9.85675335
-1.31265712 3.77758718 -16.93088150
-3.93671346 2.76995921 -10.35145569
-2.73545432 -0.76492554 -16.35029793
1.62084687 3.84498405 -15.56297207
-2.11607838 -1.98127007 -13.05920601
0.00047154 -5.33452702 -12.40184021
-2.27588558 0.95671493 -9.61840725
-1.94526076 -0.29403055 -15.54942513
-2.41301441 -4.05032063 -14.91811180
-1.28540862 4.36210394 -13.08447075
-2.36962533 0.16267581 -15.06944275
2.18021870 -0.95570838 -15.98113251
-1.93882895 -3.85271168 -17.08484650
-2.12417889 2.94215202 -8.91922760
-1.46686697 -3.86575174 -15.76143837
-1.94088936 1.29646516 -16.06373215
3.92779088 3.38962722 -11.12124920
3.97292590 -1.50886226 -16.91000557
4.04193354 -2.61954165 -9.02354717
3.04690027 2.29805803 -17.03773117
-1.11373627 2.48999071 -9.70907974
0.47467741 3.78937984 -10.78561592
0.16455430 3.97350407 -9.93408871
-2.05793095 1.17716312 -14.45905304
-4.01618004 0.86028767 -9.71743774
1.89955986 -1.54931998 -10.09781456
-3.03883171 -4.00047255 -13.95701027
3.67822075 -4.00807428 -11.05030251
-3.89819837 3.62417936 -15.70202446
2.61737108 -3.27162600 -8.98841667
-3.71094179 2.43408132 -13.50371647
1.88457143 -3.10882306 -9.04892635
4.08984041 -0.64332044 -16.42989922
3.63649225 1.86903143 -8.73939514
3.81670547 1.36649382 -16.19635773
-1.19035971 3.91120481 -10.66786194
0.39561936 -2.52861738 -16.31866455
3.00477386 -0.86098617 -10.97376060
-1.15157712 4.64933491 -11.86957359
2.71686554 -1.97237277 -8.74421883
3.87438560 -2.39043617 -15.56008053
3.03128862 -3.99060607 -16.40289688
-2.59559131 0.89755780 -15.33548260
0.34131357 -3.35703754 -16.98238945
-3.81324387 -2.71765471 -16.60027504
3.86501098 1.80040693 -15.69865036
3.93451428 -2.70791316 -15.57677841
-2.76139283 1.92697620 -14.26611042
2.51943898 1.90944469 -11.86583900
-2.15246964 -3.93289471 -11.97488022
1.90976596 0.30277550 -10.34453011
4.06403828 -3.86341572 -14.03558922
0.56559658 3.92331052 -15.30006027
1.11758590 3.89609718 -8.94839287
-0.09070212 -4.02759218 -15.98400879
3.96199179 -1.09773910 -16.81036377
-4.01705933 3.72088337 -16.54492569
-3.15242338 1.54816318 -16.83214569
3.60049629 3.76696682 -15.08841896
-4.01093102 -2.10937166 -8.77305889
-3.87149954 0.94558460 -15.44040680
1.23765540 -4.49438190 -12.42903996
-2.06553912 -4.23985434 -11.73723221
1.96124470 -0.73681027 -10.03889847
-3.89698124 -0.97741669 -8.92440033
-3.40144205 0.74083048 -15.45551014
-2.40943027 -0.68692106 -16.26932526
2.50542665 -4.21435070 -12.44689846
-0.24974428 2.67345452 -9.61174965
-0.05067923 -3.98024535 -10.06476879
-2.71714401 -0.17569248 -16.53550529
3.52474356 2.34128022 -14.06235313
3.78988743 4.11434364 -14.46599865
3.91200304 -3.69386840 -14.52886009
4.03722477 -1.06905556 -9.50466251
-0.94171625 5.10564661 -13.67853737
3.91912031 -3.97491717 -10.96555233
4.06403971 3.20768166 -10.16288090
-3.83900905 -2.40891528 -11.82268810
-2.30352879 1.58666086 -13.58935642
-1.67182040 -0.15666860 -11.79046345
2.97054529 3.96597910 -12.04098701
-3.22349596 3.90789771 -16.18241501
-4.14369011 3.49652457 -10.53303909
1.75746727 -0.68399125 -13.96446896
1.87549329 -0.21051069 -12.86754131
2.27414513 -0.37232628 -10.80888748
4.00191450 3.50002360 -9.14058113
-3.66635013 -2.52200842 -13.06869221
0.67487800 3.71607804 -16.90512466
-4.01543903 0.18599676 -16.76613045
-2.48676538 4.24836588 -14.40515041
1.51755822 4.03050470 -10.35618591
3.18390536 -1.74963653 -11.22074318
1.17705333 -2.47051334 -16.61754799
-1.40877378 -2.17246556 -16.75205994
-2.00328922 -1.89870477 -11.78017521
-0.48960766 5.13762522 -13.71761799
-2.33735847 4.00509167 -13.33142376
3.33518624 -2.28788877 -16.90855408
0.28920835 4.26970482 -9.56532192
-3.45671153 -3.65376687 -9.30187416
-4.01773930 -2.53063750 -9.90169334
1.44780159 -4.26107979 -13.01598835
1.79884565 0.68775296 -10.05250740
-2.07915545 4.10221958 -9.77589035
2.18478584 1.44667041 -9.37952423
4.10996437 0.14926881 -16.57959557
4.02730370 2.18757176 -9.89173412
-2.56752539 -4.05370760 -9.11322880
-2.31994367 -3.96488976 -11.43397331
-3.40833879 2.71687555 -16.76830101
3.47471142 1.51926672 -14.88780499
2.36185527 -2.93691778 -17.00646973
2.26714611 0.85864186 -11.09606743
-0.31433630 -2.74642754 -16.65697289
-1.12525940 -2.28360701 -15.93870354
2.20375514 4.09166145 -16.66559601
-2.48551178 1.64352643 -14.71920776
-0.78222120 4.66208029 -11.95076752
-1.70054245 1.45873940 -15.80275154
-3.54599285 4.18427563 -11.89693260
1.88398099 -3.81686115 -13.63794804
3.84349346 2.01001501 -14.84061337
-2.77982140 3.83034992 -16.84044647
4.06713152 -2.79590201 -12.64238453
3.97482204 -1.53538287 -15.45895481
-3.99783206 -1.32904696 -9.54441166
1.80332959 0.61589128 -11.13987637
-1.78898633 -4.19649363 -15.47751999
-2.54233217 -2.13204932 -16.78170013
-2.55395150 -2.03239703 -14.18359089
-4.19315243 -3.11637807 -10.38795757
-3.19402409 3.62421727 -8.72329330
4.00621367 0.03178224 -9.94642353
-1.65399003 2.76635861 -16.83950996
-1.31407118 1.79428351 -10.11928749
-0.26688930 2.86365342 -9.33313560
0.88251227 -0.28518939 -15.55631828
-2.38265824 1.09722793 -15.13245964
3.75779247 0.46152061 -10.43879604
1.54984832 0.24611183 -13.00612640
1.74727488 -0.25999504 -14.02629375
3.82181787 3.79515791 -16.17708206
1.64874732 -2.68541861 -17.07925034
-1.78319442 -0.93097579 -15.79270267
3.85753059 2.50868201 -15.60193825
-2.61058593 0.50961357 -16.40717697
3.87290621 -4.01366663 -16.69323158
-0.97462589 4.10218477 -14.18941402
2.77560830 2.37333465 -12.77012348
3.46806192 0.71956772 -9.00938416
-1.05082798 1.63924134 -10.47812462
-3.96413159 -2.17015553 -14.52295494
-3.61424994 2.10466027 -14.13574219
-4.03726864 2.80586934 -14.73636532
3.65333176 4.18286848 -12.62392902
4.17983246 -3.91368723 -11.82937908
3.88006139 0.25993198 -17.05214310
4.20120668 3.95129395 -10.15526962
3.04835129 0.72297812 -10.44606972
-1.64872050 0.57699591 -13.09895897
3.10083055 -3.91912389 -14.05439854
-2.80127907 -4.02195358 -9.27049446
-1.46493912 -4.50010681 -12.59467411
3.41221380 3.74926519 -16.91926003
3.73222089 -4.11261606 -12.02984905
3.13749003 -2.57430911 -12.55167103
-1.60727715 1.61630392 -10.12974739
-0.82831961 3.98784232 -16.25612831
0.39157063 -3.09646559 -16.85951042
-3.54531598 2.55449724 -8.95234013
-3.95342541 0.56818384 -8.84876537
-3.34360671 1.06262422 -8.98327827
-0.67705417 3.61316276 -17.11346436
0.49394521 -3.93162608 -11.38950920
1.87436008 -1.51109421 -12.39776421
-0.12820186 -0.09035014 -15.31173992
-0.21091075 -2.63983178 -16.28688240
-3.44327593 3.96586752 -12.63578510
1.72684228 0.37302712 -13.30589485
1.55850005 -0.06351774 -15.41565895
0.24316503 1.01314986 -10.33049774
-4.13863230 1.00141621 -16.49113846
-2.72596598 -2.49518561 -8.85746002
4.05440474 1.32339728 -9.34000874
0.32966113 -4.19438314 -16.21206284
-3.56887913 2.34149027 -16.73743248
2.61869860 3.87876630 -12.76050282
-4.08734941 4.02736521 -14.65962219
-2.02338290 -4.01930523 -9.24097633
0.09411700 0.35078728 -10.24908257
1.73637426 -0.69191933 -13.53824997
4.10257292 -2.94938302 -16.53080940
2.69195390 -0.89243972 -9.03125954
0.78285509 -5.70699692 -12.33715248
-1.84770191 1.41362238 -13.64716530
-1.97466540 -1.47456574 -16.15977097
-3.98684573 2.96580839 -15.36989594
-0.01426620 -4.15136242 -10.09005547
3.66064286 3.98119807 -10.60544968
1.45051527 -3.53553534 -16.76717186
-3.46126175 -1.83502936 -10.89575481
3.57448912 -0.16769135 -10.35412788
3.91511965 3.64236498 -17.04357910
-2.12646842 -1.93130887 -13.61450958
3.79330897 3.38172889 -9.56772041
-3.91120362 -1.13404274 -9.54998207
3.38915682 -3.54717159 -8.95676994
1.72468233 1.47672963 -14.08106613
-1.76074159 -4.03215551 -10.98145676
-1.33719838 -1.43831289 -15.64992142
3.08197594 3.92415714 -9.83405590
3.88912058 1.53708673 -9.64513111
-0.82521832 -4.05183172 -14.70429516
0.58300781 -4.04975033 -9.81096172
-1.05430365 5.13012648 -12.70092201
2.99610829 -1.32718611 -16.92810822
-2.97275400 -1.44146681 -11.19494057
-2.53271842 0.15348069 -15.15909672
-2.53878331 0.21708800 -15.83689499
0.41256556 3.96582222 -9.95819283
-0.38580510 -5.41976547 -13.06881428
1.52870154 -4.55693531 -12.96919823
-3.34035873 4.41123581 -13.87905312
-4.13512421 -0.67754889 -16.27382851
1.50465274 -4.10710001 -14.08315849
-3.43478298 0.16669326 -15.38315868
-1.84987724 -0.03816897 -15.53420925
1.73059106 -4.02691698 -14.42597675
2.00088787 0.63822526 -12.50470638
1.90858054 -3.48700905 -16.80511475
-1.74130976 -0.96297079 -12.15292549
1.36737120 4.11639833 -13.80984211
-3.94109058 3.72653317 -11.60833073
0.84673846 5.13867474 -14.03958893
2.19611812 4.04338169 -13.46271133
-0.28599432 -2.53679132 -16.23421478
2.62161016 -2.12730455 -16.90609741
-2.41946244 -3.97158670 -8.95968342
0.48911080 -2.53230810 -16.13384819
4.05711508 0.48248255 -9.95488930
0.67515928 -4.20153332 -10.83017540
4.02989721 -2.88002539 -15.43968868
2.36439514 -1.04080641 -9.70001984
3.68419051 2.51763391 -14.22317505
2.84433866 -3.63583493 -8.88024807
2.30838704 2.10017729 -12.67131329
-4.02701759 3.48346329 -12.08703423
3.16013932 4.12729502 -12.61532402
-3.97439027 3.70870996 -9.20668125
-2.21807575 -2.23225594 -12.50254345
2.48838329 -4.11469936 -10.19964695
-0.36990288 -2.75929713 -16.37377930
4.17012453 2.28208685 -10.72661400
-0.66249609 2.59807587 -9.67907524
3.54704714 -0.87867951 -16.94835472
-2.29408550 3.89108372 -11.12385082
3.32773495 -2.09882641 -11.48355484
-1.80592620 3.90090847 -11.30568504
2.53645229 -1.14419591 -9.45991039
1.62633049 -3.92439890 -15.44586182
4.01023960 -1.27543771 -16.90645599
-3.87153220 3.12447000 -13.38629436
2.78698277 -0.96500921 -9.18769360
3.44580626 -2.82987404 -8.84712029
3.31137300 -0.51085550 -16.87133026
-3.29532576 -3.85847926 -15.18051815
-4.28231859 -1.74982715 -15.15749454
-2.14436960 1.48029530 -9.96727657
0.94515598 -1.85226190 -15.75862026
-2.37622333 4.04671240 -10.79799652
-3.69898486 -3.96478248 -8.87768936
3.99389148 -2.95837426 -15.85857964
3.94347858 2.72008896 -11.84149933
-3.41150069 -0.62629640 -15.18280029
2.55922318 2.25300837 -13.83223057
-3.47339702 -4.10328865 -16.09224319
-3.82758617 -3.68981075 -15.61113453
0.43632475 -2.69103932 -16.95163155
3.39068174 2.16042542 -17.05778503
-0.41084212 3.95204544 -15.86855125
-0.39858884 5.17617750 -13.20856476
0.78682625 -3.11597419 -9.04437923
-0.23824784 4.02957344 -14.98016739
0.71747196 -4.16019058 -11.23334122
-4.03923559 -0.82642502 -15.87698746
-1.08393419 -4.95952225 -11.93133736
-3.85903001 4.09358120 -11.80177116
4.15690470 -2.80817080 -9.91544056
2.07445049 0.95663726 -9.92591095
0.16766147 2.87270498 -8.90486431
3.89395022 2.71217299 -13.06819248
3.99799395 2.01535130 -10.77873135
-2.73917580 3.78686762 -11.30578136
-1.55124629 0.04653531 -11.62678337
-3.17074776 -1.92204726 -11.67770195
3.31836700 -4.04253626 -13.20257664
0.64682823 -1.44376945 -15.52290916
3.78490496 3.69640708 -10.40787315
0.92401785 -2.80396748 -16.73028946
-3.92973471 4.26713514 -16.63313293
2.15840840 2.01978946 -13.01415634
0.28488460 5.10920000 -13.73961926
-2.98895001 -2.30180049 -13.36029339
-0.17474820 -2.72925758 -16.65382767
-1.22723997 -0.83693665 -10.40634918
-3.66376066 2.51976395 -13.93149662
2.70537519 -4.04517794 -16.41819000
4.13447142 -3.29894090 -14.85587788
-1.82154059 -1.79588938 -13.71876812
-4.00683498 -2.10534430 -16.45726395
-2.81535888 1.70051920 -16.61292076
-1.05608857 -2.42542458 -15.98038006
4.17234707 -3.41563129 -10.08652496
-2.28318024 -0.41339523 -14.94693375
3.85773444 3.80718875 -16.37782860
-1.89125657 1.60489857 -9.67361832
2.15735817 -1.67067003 -11.71072674
-0.57227325 5.32425976 -12.16349220
-1.70155573 0.10372654 -14.36871147
-0.75985599 1.07535088 -9.99335098
1.52912664 2.58083797 -9.28528786
1.74052346 -1.18608642 -12.29749966
-2.35935402 -3.54820824 -8.90705109
-3.78104424 3.90859365 -11.88793373
0.13651070 -5.25020218 -12.67143250
-1.86640656 0.00463617 -14.46937084
-2.22509408 1.43083203 -16.15556145
-3.76728845 -0.96697074 -9.02484512
2.54724550 3.85714698 -15.22178650
2.70516777 3.87674665 -9.72721100
-3.35308528 -2.32341504 -14.11900711
-2.86798620 -3.88701224 -8.99006462
-1.89581823 -0.35776103 -14.24501133
-3.26256227 -2.73904109 -9.02792454
-3.85015893 -1.91838205 -14.55001926
-4.20903921 3.94192076 -9.62884617
-1.13386202 0.59121966 -10.35621262
3.35409665 -2.53363729 -8.95713329
3.47300601 2.17872477 -11.37003899
-0.04067861 -4.09792709 -15.57878113
4.15186071 3.30156565 -11.43229294
3.76606584 2.05156612 -14.72566319
-1.87602711 -1.53034067 -14.11746693
-1.93814147 -1.04792833 -11.28441429
0.90124184 0.72151589 -10.30811787
3.12149930 -2.03472924 -11.40651417
-3.97301912 3.39588404 -8.89781857
-2.92600965 -1.25106847 -16.79042816
2.28079724 -0.73436809 -10.68492985
-1.58591461 0.59860432 -13.70582676
-3.80706096 -0.82757545 -10.23763371
-1.21387661 4.21497345 -14.87664127
-3.88152647 -2.43655539 -14.47632790
-1.32812166 1.89880562 -9.97116089
-3.23184156 -3.14355206 -8.86531639
-1.78526402 -0.33381465 -10.10814190
1.30175042 3.84102368 -14.67653561
-4.00046062 -1.97096181 -9.28413582
3.20848536 3.96851373 -16.19835091
0.39127567 -2.83319998 -16.49560738
-2.82261586 -1.35757077 -10.83895111
4.13345623 3.81866503 -11.02680874
-3.31381631 -2.61938238 -12.39615726
1.77973187 3.83919144 -8.94487572
3.83479452 -0.22593248 -10.23496437
1.64122975 -2.31762457 -8.88764763
-3.81786180 2.78335619 -9.89968872
-1.19078577 3.77958703 -14.99329376
-0.02713955 -0.69331324 -15.75727081
3.96787190 -0.56804603 -9.58042336
1.80508399 3.89284778 -16.47227478
3.24758458 -3.95077014 -14.45789909
3.08648372 -1.63607764 -10.83170986
3.39468646 2.48186302 -13.13565636
2.42014194 2.88465261 -16.58363914
1.80593157 -4.24076033 -12.66850281
-2.31042671 -2.87394643 -8.74623680
-2.64250207 -4.04909086 -11.25239563
3.07911277 -3.67967844 -12.88255692
1.58233738 3.56276584 -17.08403015
0.18020117 -2.38941765 -16.02763939
1.88688612 2.41616154 -9.17312622
-0.77399462 3.93915915 -15.16291618
-3.25439405 -2.28873610 -11.67687416
-2.15458560 -1.91861367 -16.55851936
-1.67183161 0.79406798 -15.72679424
1.59392536 -0.73079109 -13.14897728
-4.08658123 -3.76991987 -10.53548527
2.31260276 2.19174099 -12.84107971
-1.54370987 3.92825699 -10.60377121
0.84918171 4.22892761 -13.99448586
-3.04457188 -0.32166493 -16.94705200
1.90541220 1.71994424 -9.55132771
0.53916097 -5.39121580 -12.96280384
-2.45732927 3.73182559 -15.08421516
3.02889252 4.21094513 -14.46710587
-3.60023165 -3.90753984 -12.48441505
3.78168249 4.23617077 -15.80187130
2.24498224 1.32822871 -14.59911823
-3.94713020 -2.86241746 -16.11877060
-1.68732750 4.12723637 -14.11741447
3.51234388 3.99208689 -16.67410469
-0.93680531 4.27994633 -14.32076359
-1.82147419 0.10041494 -15.44846153
4.02110243 -1.73826087 -8.98257923
2.15891790 -4.27812862 -15.50234890
-2.61980200 4.26070261 -15.69360733
4.10666275 2.44755602 -15.75709343
-1.66889513 0.56466717 -12.56349659
2.69949222 -3.84338784 -12.77555561
-0.44418347 3.88021994 -15.55077648
-4.15618610 3.95347500 -15.84612179
1.21718431 3.94043684 -16.07195854
-1.47136307 4.37218189 -10.97327995
2.98384380 -2.68944573 -8.70859718
-1.44288075 2.05556512 -9.59380531
1.99555397 4.06912565 -14.14591408
3.22633243 3.89538884 -9.69827271
-4.10274649 2.57530975 -14.15664005
2.74775147 -1.64583898 -10.74236584
-1.39336729 3.20054603 -8.91612053
1.50668931 4.14915848 -14.51899719
0.87042534 3.01944518 -9.21833038
-2.51480317 -4.13420963 -10.10912895
-2.48471928 1.95868373 -16.93984985
3.15837169 -0.04021087 -10.49948215
0.85412765 -3.98904824 -16.49237442
1.69010842 0.17398897 -15.70789814
-1.90506732 -0.41311973 -14.74294281
2.29585409 -2.88011050 -16.85876465
-2.31521893 -4.13105822 -14.90895844
-2.70098734 -2.16493392 -11.93012428
4.15134668 -2.29289722 -9.96927834
-3.81631875 1.66109896 -8.88318729
-4.19963932 3.41017556 -16.03495789
1.43611467 -1.81575739 -15.90545177
2.62396002 -3.88627481 -15.14823723
-2.44584703 3.90666509 -12.69550133
-0.89040440 2.72128439 -16.51495361
-1.31267583 -2.74308538 -16.86031914
-1.02168190 -0.96016747 -15.42093277
-2.70456386 -0.39979145 -16.63006401
-1.58860397 -4.88915730 -12.23632812
-3.04231310 3.98324752 -12.02111340
0.81817365 -0.03211766 -10.41672897
3.63008833 3.82713628 -11.20702076
-2.62592554 -4.30020952 -11.36102104
1.06734788 -4.89689112 -12.69766808
-2.12904739 1.77125990 -16.75530815
0.40664747 -4.11886120 -8.72948837
-2.91819239 -3.96333432 -12.55715275
0.41152346 -5.07906055 -11.62441826
3.06267047 1.92186224 -14.15910435
0.89003557 -1.20345390 -15.63937187
3.51419926 2.91925383 -8.80220890
-4.09252310 3.15843081 -12.33250809
-0.92603052 -2.66795301 -16.41772270
-2.54073691 0.16891044 -15.88727379
2.35958219 3.80520320 -16.85174751
-2.25153685 -0.79995441 -14.87275791
-2.74710274 1.20267797 -16.79772186
-1.42965555 4.08286667 -13.79954147
-4.00665474 3.11434722 -11.38291454
-2.07700992 0.08825395 -15.12625790
3.43925142 -3.98562503 -12.85938263
-2.49609494 -0.38125527 -16.13409042
1.60344362 1.08710361 -10.29299259
-3.68016410 4.06436825 -15.29054832
-3.83056951 -1.32477987 -9.01156807
-3.05364466 -3.84801793 -15.76097393
-3.61310482 -2.34370852 -16.71862221
-2.43485212 -1.12732089 -11.04890251
-2.98119855 2.13570738 -13.75369072
-1.91095185 -0.30031070 -14.23634529
-0.02021004 3.99023843 -15.97537518
1.92518246 -1.59549606 -16.10424042
2.38191795 4.19434452 -9.38017845
2.12685800 -1.53256929 -16.38404465
2.82516527 3.95140052 -13.62376881
-0.51952451 -3.86541677 -9.59546280
1.46335351 -2.18128204 -9.56400585
-1.78724802 -1.36182034 -12.34967899
4.13049316 2.54685831 -9.37670517
-2.90038586 3.08797908 -8.87118340
3.22657394 -2.58207512 -16.90716553
4.07811308 3.07367754 -13.12881851
-3.88806677 2.05799055 -14.86074257
4.04443932 -0.61834598 -9.49382019
-1.09017205 4.83319426 -12.95908451
3.48558521 -2.50461602 -12.00127411
-1.66378355 -1.98304963 -16.33469200
1.86192274 -1.11373067 -11.04561043
-0.37543032 -3.65694022 -16.16671753
2.67794418 4.04974508 -11.44230175
2.10134459 3.75469398 -12.67457962
-3.51226187 4.12015772 -14.89464760
3.92851686 2.34062672 -11.51260281
4.10405874 2.49734259 -9.01908302
3.85105133 2.45918012 -9.06526375
1.12762880 -1.92836368 -15.51065159
1.80843341 4.09921694 -9.16355610
-2.16237545 4.18585730 -14.94875145
-1.62118983 4.04746485 -15.21684647
0.74257839 -3.62624431 -8.84067726
3.00099134 -4.15530586 -9.99878216
3.31204438 -1.63677347 -17.26570892
-2.86926365 3.97172713 -10.90476036
-3.64066291 -3.18787622 -17.03525162
-0.54337388 0.55249768 -15.36100197
3.52168608 0.75447655 -15.24445343
1.70749485 0.75223625 -15.76374054
3.84887075 0.17338102 -17.08313751
2.18445086 -2.08887219 -9.27914047
-3.07222295 -3.90796161 -9.97553730
-0.79654062 5.12818098 -13.28915119
1.14369810 -5.01470804 -13.34676933
0.99960572 2.66561508 -9.42679310
1.62041450 -1.15612948 -15.38875866
-3.34262395 0.61104310 -17.13577080
1.63985825 -2.21139956 -16.43873215
2.10214591 -1.93092275 -9.05034256
1.86991060 3.99287009 -14.92413712
-1.74910903 -0.86901593 -13.79335117
-1.25483811 2.39693117 -16.10985374
1.09390950 -3.96597457 -10.53349781
3.98230767 1.30569005 -9.98299217
-1.88972914 -0.43901914 -15.51229668
2.80665684 2.16505957 -13.44642353
-1.84484601 -0.65292090 -15.71120358
1.55421448 3.86487269 -15.03861046
0.19063048 3.96967459 -14.21868896
-3.82535744 3.08574867 -16.57814598
-3.26863837 3.94213152 -16.88003159
3.56287527 0.35076401 -16.75005341
-2.00258064 1.12790370 -14.49543953
-1.83568394 1.53233671 -9.74003887
-0.70799720 2.31806684 -9.86450768
3.83968544 3.83088350 -15.61126709
1.22910225 -3.76223278 -10.55413723
2.25521636 -0.75036854 -9.89792538
-4.08239555 -2.25457621 -9.91445541
2.76631641 1.51223052 -14.68239975
3.00943875 -3.96996093 -13.10245514
-1.11770427 -1.05918729 -15.55111027
0.42705828 5.22801924 -13.07472992
2.60256100 0.93785828 -9.16259480
-1.88382292 0.74845958 -15.52124596
1.34019303 -3.28815889 -17.10538673
-2.77081442 0.19490281 -16.34184074
-2.68902087 2.09209752 -13.88233185
0.85174572 4.06175518 -14.51278877
-0.73280430 4.92079639 -11.78804111
-0.75312907 2.06330156 -9.72084999
-0.32843864 4.12594175 -15.19519997
2.25156593 -1.26386213 -9.47667122
-0.95160496 -1.98868978 -16.13000870
3.90031314 4.06658792 -12.53230381
-2.83444095 -2.09181952 -17.00851631
3.15013385 -3.86767936 -11.97171783
-1.62610042 3.94891286 -15.32904816
-3.00830746 2.20597386 -13.51447010
2.41130471 -0.65219355 -9.37594700
-2.23882699 -2.22796488 -12.35593319
-2.63583827 -3.90754938 -11.05167675
4.23594999 -1.95316589 -16.06801414
-3.10342360 3.88176560 -14.32417488
2.30488896 3.82111192 -15.19205093
-3.42887974 -4.18333769 -9.60105991
-3.65943766 3.99374318 -9.44375134
3.70046949 3.67080688 -16.82211494
-2.33378553 -4.02761507 -10.52773476
-2.79153514 3.98853683 -10.00389099
-3.57186818 3.66726995 -8.97056770
2.40691519 -1.75737906 -17.03108215
-1.52624452 4.46157742 -12.86027527
-1.36476684 -4.13575411 -12.50784969
-3.97851801 1.96797252 -16.49786568
2.84246230 1.34316874 -9.11299706
2.24560738 -4.00133085 -14.79775429
-4.01485109 -0.07666697 -9.23656654
2.61747336 3.49561191 -16.86097145
-3.27229762 -2.61860394 -12.42004681
0.09695117 1.83536541 -10.34609413
-3.31773305 -0.45956257 -10.47864437
4.03687239 -3.35984302 -11.68062401
1.13189805 0.81962383 -10.40431023
2.26860142 2.14377737 -13.07584858
-3.78860402 -0.00012995 -15.48458481
-1.97192001 -0.19366607 -12.62633133
3.80663228 2.75674295 -13.10484791
-0.22862694 -3.06804323 -17.06200790
-3.12961388 4.07587862 -15.66566086
4.06986380 -4.04421043 -14.78247452
-2.87948370 3.87204695 -8.83919525
1.59167886 -0.44945359 -13.24934578
4.04234791 -2.29749393 -15.90211773
2.00098205 4.11161232 -16.74475479
2.26773262 1.60725272 -9.70642471
2.90992689 4.17447186 -10.05675793
-2.73481274 -0.06063572 -16.56675339
0.73966360 3.21525216 -16.69599152
-3.67082000 -2.02116156 -11.56813431
-2.53297424 3.99361205 -15.22328377
-3.38975739 -0.86425614 -15.38271523
0.93851477 2.51518035 -9.44762516
3.47360086 -0.23736623 -17.02327919
0.91028196 -0.04251442 -10.19214439
-0.51775140 5.05046320 -13.97576618
-2.18181849 4.21545792 -9.62819576
-1.91122973 -4.14641094 -13.29391956
-3.88091159 -3.31533647 -13.95940685
-1.87807560 -0.35083619 -14.10465336
-1.64089096 4.28828335 -11.13706017
3.70954180 2.58331823 -12.78324127
2.71525550 0.51689404 -9.32907009
-1.08889019 5.10023069 -13.26150608
-2.71567702 0.98903090 -16.57293701
3.77056837 0.67797589 -9.99360657
1.88389504 0.12409057 -14.25980854
-3.43008161 -3.80218720 -9.22736454
2.72642922 1.75194907 -14.62888432
-0.58886099 -2.80204964 -16.72593498
-3.63468266 -2.81952953 -12.76969814
-4.06440639 -1.56821215 -16.27859306
0.51237285 -5.27456999 -13.30282211
2.51717782 -3.99105072 -15.86030579
-0.96030682 -4.27386665 -11.50082016
-1.79747629 -2.56417775 -17.02414322
4.19638062 -3.46315789 -16.25966835
2.50300646 -3.32347012 -16.75825310
-4.07837057 0.15692165 -9.18765259
-0.59016061 -2.25383663 -15.77534485
2.94741678 1.87271607 -14.21235180
-4.03535461 -3.46874595 -10.76176262
-0.22250780 -3.82107067 -16.10593414
4.09365654 0.15962252 -9.18061066
3.00093579 2.44170856 -12.98397446
2.41731763 1.85105348 -13.87964821
3.72707772 -2.66188359 -11.70857048
-3.97704339 3.16828489 -11.78754234
3.48272610 -3.94749999 -12.98459911
-3.01413679 4.03045416 -13.19430256
-3.87280536 2.23492289 -15.24243069
-4.06262255 -1.19388509 -15.41044903
0.57869762 -3.94013286 -15.08855438
-1.95672607 -1.72709370 -13.49138832
-0.03102368 -4.05388021 -10.93661499
3.85007882 2.13523602 -11.04389763
1.94848561 -1.63672256 -11.76646996
-4.18837976 -2.22746277 -16.48523903
-2.56550574 -1.25237226 -14.62529469
0.23086028 -4.78644085 -11.46665192
0.95175833 -4.79964828 -11.80755520
-1.83447087 -0.17266908 -14.32860470
-2.04644322 -1.90538454 -13.27951527
-4.07074594 0.46706602 -9.80944633
-2.83292222 4.08628559 -9.45490837
3.68932462 -3.91286469 -14.17527103
-1.91294265 -3.46009827 -16.79783249
-3.44420242 -2.00179482 -11.50973511
-2.85273576 0.23163171 -16.87770081
1.20093274 -4.12461710 -11.65827560
0.03524973 2.87001371 -9.57990074
2.44453382 -3.85132980 -13.06454086
-3.05822587 4.01910257 -10.34728622
1.11006117 1.59278667 -10.17502975
3.81731677 2.00295281 -14.95789719
-2.43256378 -0.76123565 -14.91342735
1.62780046 -3.89169979 -10.52235794
-3.14311910 -1.80487847 -11.57839108
-2.26203012 3.91951871 -12.86647606
0.58922207 4.02621078 -16.06465340
-1.89065146 -0.27862594 -14.67341137
-2.03522491 -0.19797041 -13.95577431
3.95273781 3.06086087 -12.40489578
-1.67287230 0.75284934 -13.22215080
-0.88486254 3.23264289 -16.86381721
-3.47202063 0.26661441 -15.56980991
-3.23308086 -0.46051019 -16.80943489
-1.45862162 -4.14705229 -10.07492161
-3.35950351 -2.49706578 -13.42584229
-4.01417971 2.74841595 -9.90715599
-0.55207300 3.57957530 -9.03450489
-0.92320877 2.65579605 -9.37375069
-3.88927126 -3.62825441 -9.31361008
3.00332522 1.23148537 -14.84263039
-3.65847516 2.81915259 -16.96678162
-0.65524995 -0.76510447 -15.40679169
-0.73750949 3.93464041 -9.50374317
2.12824750 4.31042814 -10.78471470
-1.25018334 2.49047709 -9.02345181
3.96427488 -3.39380360 -11.25156403
2.92520308 3.94540501 -15.09851456
-1.89291537 -4.01818752 -10.04696655
-3.96479058 -1.36890268 -15.91588020
1.01849854 -4.83651972 -13.64274025
2.29017115 -3.83692265 -10.01297951
3.95607543 -3.38248920 -9.28784084
2.47788215 1.32112348 -15.01119900
3.81602907 2.30278325 -15.05997467
-2.92738771 -1.19626284 -16.87882996
-3.02347231 1.90528584 -14.65814590
1.21409166 -4.78664923 -13.26827240
-1.74608612 -1.09323835 -11.53431225
0.80661470 2.68508840 -9.12909889
2.15802240 4.00262260 -14.92557335
-2.11291981 0.26620969 -14.96553612
-4.20599461 3.49757099 -14.48607826
3.75421214 2.18442845 -16.22689819
3.62042284 4.01036549 -13.49502087
2.18913054 -2.50728846 -16.98662376
-4.16494656 -0.64604217 -15.54701710
-2.01432395 2.21305013 -16.67224121
1.92083097 -3.71216106 -14.26821136
-3.79129696 1.10575795 -8.77283669
1.87026346 -0.04589503 -12.49150085
4.15725565 3.49619484 -14.59351540
-2.39212465 4.00630522 -16.69376945
3.63719249 -3.96485639 -11.49499226
-1.53257549 -1.38848484 -15.50397968
1.27338338 1.24383426 -15.75959206
3.95064425 3.11294174 -9.11009026
-1.80642450 3.63477135 -13.34183788
3.95639324 -0.03881614 -9.81722546
-1.16473460 4.86473656 -12.33354092
-2.56410766 3.98157883 -14.83697987
-3.38378453 -2.04686308 -11.01259422
4.04041815 -2.80581093 -15.15389252
-0.89903283 2.85519266 -9.36523438
3.86360931 -0.86256695 -16.34899521
4.04228783 3.85304666 -9.34717369
3.90368581 -3.31535625 -14.47284031
1.38881946 -4.94052315 -12.44249535
1.13255370 3.81103921 -14.69000149
3.53618526 -1.13616669 -10.46566010
2.78379846 0.57240736 -9.40801334
-1.24653471 -0.26166445 -15.23039722
0.23427837 3.91942549 -16.25374603
0.43705109 -2.79759955 -16.73246384
-1.20036411 -0.57290393 -10.28662205
-4.03468275 3.86348581 -10.08411121
3.81052637 3.22364450 -16.88847733
1.79522812 3.79667926 -16.18870354
-3.97937274 2.95841575 -11.18732643
-1.41078126 3.85999465 -9.07598495
1.58395040 -3.87332869 -9.30288792
2.11135387 -1.61690819 -11.51606655
2.55379605 1.79378343 -13.56578445
2.19245672 -3.94351315 -14.23720932
3.42482400 3.95722318 -16.16895676
4.16564512 -1.73997903 -16.33278084
4.05464458 -3.93275690 -9.93195152
-4.02255821 3.22015595 -11.17373848
3.31689334 2.48520708 -13.33425140
2.12722182 1.78137314 -13.11251068
-2.27461052 4.10503197 -16.62136269
-4.09200239 -3.06057549 -9.47416306
0.74393845 4.02771330 -16.82352448
-0.08906562 -1.14260769 -15.57995701
2.76638627 -3.69680190 -8.92771339
-1.55122697 2.39163685 -16.64412689
0.05435318 -1.18811560 -10.44544792
3.90732288 -3.65911746 -10.93042469
1.47354710 -2.20709372 -16.11916161
-3.43597817 3.20585370 -17.05631065
-3.40599275 3.62817955 -16.67645836
-2.68225574 0.05993490 -15.19248676
0.08378173 2.07265329 -10.17788410
-0.90332878 -3.83170080 -15.47288036
2.66845322 -2.77136993 -16.82202911
4.06615162 -1.83836496 -15.88278770
1.82385588 -1.28115118 -11.09317589
0.69181937 -1.20001996 -15.48934841
0.57770222 -1.13057411 -10.19647217
2.85959268 0.12787896 -9.17591476
1.59451246 -4.04006481 -10.22891426
-2.08677649 -1.48345053 -15.81118011
-1.74757349 1.38943875 -9.79211426
-3.00889635 -2.24901605 -13.16933823
-1.48361123 0.99637938 -10.23568249
1.84300494 2.11517811 -12.44405746
-0.96809798 -3.23899817 -17.12939262
1.67704594 -3.96916056 -16.05519485
3.27001953 2.50562787 -11.69430447
-2.04027081 -1.92983890 -16.31188202
-2.60851312 0.91171122 -16.48444557
-0.95153451 -0.05347109 -10.18791294
-2.84760284 3.86726546 -10.53223610
3.24666405 -3.91657114 -13.18334007
-3.13866735 -3.96296883 -15.81628990
1.31140089 2.33835959 -9.29156399
-2.56331134 1.49869049 -14.63896751
2.42015910 3.62988377 -8.63979530
-0.96127003 5.27586365 -13.75478268
-0.35199556 2.25746703 -10.15465736
-2.33581948 0.98180848 -14.90767384
2.80465746 1.72917128 -14.79684162
4.15635490 3.23234653 -11.08410740
3.35145473 3.88916802 -15.97757912
-0.87210357 3.96578956 -9.43803978
1.84454381 -1.06152439 -15.91336918
-3.89874315 2.98189616 -15.40041542
0.14185482 -2.73068452 -16.33458900
0.68862057 0.83770049 -15.45994473
-2.45393348 4.11196136 -11.60547924
1.49349880 -1.52040040 -9.58970261
-3.44033861 3.78265071 -15.66349506
-3.90578175 -3.77098107 -12.81509495
-4.02467632 1.25613081 -9.64789295
-3.52271366 3.11442304 -16.14670372
-3.59134007 1.46770644 -15.18203831
3.76929021 3.95511246 -14.58061600
-1.87207854 0.70419031 -14.78333664
-0.01118248 -3.97368503 -11.02630138
3.72409272 -0.93787104 -10.13074684
2.44770932 2.45349932 -13.67590427
-0.81111622 -4.08973455 -11.45937252
1.01542401 -0.37676540 -15.69436073
1.02061749 0.57603300 -10.07389832
-4.03555965 0.30976644 -9.03169060
-3.48129463 -3.42080069 -8.96855354
3.60412073 1.83320105 -14.91676140
3.31073880 1.89727437 -14.70176506
2.43947148 0.12408797 -9.81422234
1.69723666 -3.97601748 -8.88031483
-2.12835240 3.84962320 -16.80484390
2.65355325 4.11108351 -14.58633804
-0.76115686 -3.96023822 -15.91658306
-0.28279990 -4.36817074 -11.43115902
4.04353523 3.56012678 -16.01368904
0.76799440 -4.43028784 -14.12087059
