0.47421110 1.25845480 -0.09164400
0.20556529 0.24844000 -0.76638371
-0.59244794 1.23041391 -0.29775766
-0.10773946 -0.06058943 0.81573373
0.96923584 0.98189116 0.15053517
0.99991894 0.63240850 0.19623552
-0.59232050 0.26184261 0.74604416
-0.65526956 1.56456244 -0.08121398
-0.98971009 0.85081512 0.07577144
-0.19416763 -0.29009110 -0.22730555
-0.38488251 1.31563222 -0.24602769
-0.70576847 0.60401243 0.67964232
-0.33501557 1.42768431 0.74324572
-0.96144545 0.70049667 -0.44602245
-0.30340022 0.51970863 0.72636408
0.48729354 1.20283580 0.09797515
0.51802635 1.18658555 -0.70444041
-1.03371668 0.75387591 -0.05534791
1.02153373 0.50752777 -0.21396282
0.29380926 0.00964203 0.13422765
0.48513398 0.47648609 0.49123904
-0.74949992 0.03828686 0.40751973
0.66618532 1.29475904 -0.11623934
-0.00980867 0.77011508 0.76732379
0.78148705 0.31230187 0.19001630
-0.27760804 0.20952934 -0.53158861
-0.62773186 0.66561478 0.72582823
0.68481106 0.31103969 -0.74043685
0.95779008 0.88827723 -0.75481337
-0.38847086 1.54191566 0.21843830
0.26893240 -0.13305926 0.08265447
-0.32421479 -0.18319851 -0.21515328
-1.04000914 1.10723007 -0.08784716
-0.16740619 1.47676325 0.45043063
0.06901075 0.57927066 -0.79148269
-0.16764134 1.49947095 0.01296880
-0.62481886 1.50270057 0.10311213
-0.78224069 0.22277546 -0.48927674
0.46536925 1.26496291 -0.54140788
-0.73079813 -0.00807399 0.14813490
0.23792043 -0.31533915 0.61345112
-0.75961000 1.08475637 0.57736343
-0.93796837 0.66991079 -0.41831487
-0.50904870 -0.17994648 -0.21208179
0.19255441 1.48232913 -0.05873675
-0.69222212 1.47185326 0.45699564
0.24640378 1.47072077 0.60759592
-0.33091125 1.24855423 -0.64158922
0.76681566 0.71777427 -0.70001793
-0.87530529 0.27389097 0.24651712
-0.59981781 0.16003039 -0.28253257
0.29037887 -0.01786578 -0.00271352
-0.91579938 0.95152009 -0.72072279
-0.21615739 -0.49050277 0.43426380
0.73094702 1.26104999 -0.66655618
-0.57188070 -0.49124956 0.49156868
0.00322850 1.51889682 0.16931313
0.95037895 0.70992190 0.24493150
0.72271937 0.43614963 0.26668185
0.21671101 0.80212760 0.75857282
0.14635976 1.34939301 0.74783653
-0.00053922 0.25121611 -0.52598619
-0.94043314 1.16494274 -0.31036049
0.41132402 1.21087742 0.09601442
0.14472803 0.08243218 0.54898268
-1.03444886 0.98851669 -0.70034027
0.62787992 1.08564234 0.23265326
-0.76763541 0.19098991 -0.23958351
0.03560925 -0.49647540 -0.22101100
0.88081461 1.26147795 -0.61747879
-0.88579255 1.30386639 0.07628202
0.20769234 0.11439979 0.45979735
-0.29449183 1.44941568 -0.28538963
0.68523896 0.27008373 -0.74480855
0.74422133 0.28246137 -0.77091783
0.92537951 0.25629368 0.25994143
-0.47837117 1.22362351 0.73050272
0.18446571 0.32245737 0.68763602
-0.43628827 -0.49364167 0.30455211
-0.70744914 1.24030185 -0.71151447
-0.30067077 0.38988441 0.74407393
-0.78511888 1.35155892 0.36922553
-0.46019182 0.47808146 0.76563990
-0.74100667 0.72026789 0.68709248
0.10058944 1.47614026 0.51116312
0.25098181 1.39972746 0.61331499
-0.11809830 1.46009421 0.26661229
0.56236517 0.26331699 -0.63840032
0.28064296 0.55632722 -0.72427177
-0.96348083 0.69906908 -0.68228984
0.48226529 0.64845008 0.33372611
1.04473889 0.89354837 -0.13825171
0.68279368 1.22379732 -0.05851186
-0.81999934 1.27449822 -0.75170594
0.25787199 -0.24404335 0.63042343
-0.69865477 -0.25389498 0.10603200
-0.35958314 0.23650593 0.72869951
-0.99436206 0.35575956 0.02250216
-1.00757360 1.11910272 -0.11128909
-0.29709980 0.69568497 0.75796580
-0.98781347 0.79349291 -0.41759452
0.03421570 0.41115770 0.70634705
-0.43307382 0.10977483 0.73559582
0.95897406 0.19877890 -0.63996130
0.04300838 1.25582290 -0.60636079
0.90330106 1.19691873 -0.51877993
-0.42294484 0.21181396 -0.69307321
-0.22177792 1.13689673 0.74268174
-0.76349330 -0.01357979 0.41525832
-0.08659177 0.64917630 0.74148357
0.54743528 1.21637058 -0.34075394
0.01323459 0.27879226 -0.46865967
0.35272595 1.10315382 -0.77152169
-0.63373989 0.86877871 0.77227992
-0.63040489 0.96892607 0.77741981
-0.63105154 1.49110889 0.55675441
-0.73679280 -0.50489950 0.44223362
0.00817137 1.33966446 -0.48645404
0.00602488 1.46618080 -0.24240115
0.27711821 -0.29992312 0.27038759
0.30736962 0.02083409 0.48404121
-0.38753551 1.26073444 -0.51131469
-0.39673647 1.02335262 0.75303119
0.22843523 0.98796153 0.56804752
0.23251869 -0.19844806 -0.14296485
0.65307218 1.22761059 -0.76503795
-0.69109184 0.20482641 0.44790113
0.48594466 0.01366946 -0.20847732
0.85498405 0.35140908 -0.79947531
0.27048966 0.00218654 -0.26786289
-0.74234182 0.13093948 0.27556607
-0.73625386 1.32692587 0.69330782
-0.04576341 1.27681851 -0.54361463
-0.69742382 0.97862518 0.75606412
-0.28470963 1.05376279 -0.81234574
1.00246203 1.05983400 -0.22986689
0.46985170 0.78028286 0.52552682
-0.30146524 1.11643982 0.76002395
-0.68686748 0.25211424 -0.39880779
0.99418586 1.14799428 0.06985887
0.24634123 -0.49681246 -0.14301650
-0.12434398 -0.44214058 -0.25373161
0.41060692 0.02188727 0.11951506
0.44148186 1.22952819 0.25521612
-0.84116197 0.11798558 -0.24452759
0.07356121 0.61117274 0.79438621
0.27256966 -0.48607606 0.59288883
0.24859253 -0.13478547 0.20460935
1.00122011 1.10822809 -0.34389761
0.09963831 1.45623970 0.37379676
-0.90985888 0.23915339 0.23851450
-0.86713558 1.28866792 -0.51721573
-0.95230627 1.02666306 0.30741543
-0.46150872 1.53295553 0.74065280
0.13493088 0.33348417 0.79710537
-0.73731536 -0.18115777 0.69957632
0.43100324 0.00908941 0.47705618
1.04670119 0.27386254 -0.62901086
-0.35522807 -0.46715558 0.33202767
-1.03560722 0.96887565 -0.31409732
-0.70398271 1.14873528 -0.76173306
-1.04098094 0.94238776 -0.57267922
-0.53404784 -0.52435791 0.18273194
0.37244228 1.25490260 0.03704952
-0.20072156 -0.46484691 0.29044431
-0.21716177 1.50560129 0.56483835
0.72084868 0.24623811 -0.37495267
-0.94918555 0.93107164 -0.41761002
-0.19299617 -0.50262141 0.10047613
0.23194815 0.79754823 -0.69778305
0.44210532 1.26114082 0.00583778
0.20392422 1.13885212 0.51906222
0.87418884 0.22208813 0.23076013
-0.75808722 1.22851372 -0.62617290
0.46322995 0.62435335 0.32851887
-0.48360944 -0.50145948 0.76623005
-0.39637589 1.57489634 0.28757384
-0.97484124 1.17077887 0.16967109
0.33998546 0.60200781 0.52666718
0.49035585 0.69907868 0.41459593
-0.24809188 0.29964626 -0.76863468
-0.07579763 0.00153154 -0.43715131
0.34573740 1.20586133 0.26980963
0.72812742 0.83327228 -0.77737343
0.35540658 0.39632708 0.48158488
-0.79104120 0.24986643 -0.25223580
-0.05843451 0.28558365 0.77221960
0.36948189 1.23118150 -0.64150339
0.23498031 0.28498024 -0.56847084
-0.38111979 0.18472856 0.72135985
0.00746296 1.32437563 -0.26127520
-0.55230540 -0.36070085 -0.22961311
0.32402301 1.14153755 0.24023639
-0.08760720 1.04272747 0.77349317
0.72536063 0.50962359 0.21394627
0.93549359 1.19858575 -0.45506734
-0.50355083 -0.06801963 0.79819679
-0.11657188 1.00193059 0.71070582
-0.72698909 0.34491289 0.69985616
-0.64287299 -0.51146770 0.28535023
-0.72423261 0.66629088 0.52916831
0.97565889 0.41952455 -0.11213964
0.68520349 0.34144905 -0.70324874
-0.99712455 0.84461355 -0.68515521
-0.67755288 0.25892526 -0.63659698
-0.71799231 -0.47832268 0.31828403
-0.75276041 1.29835153 0.22458357
-0.92413211 1.25972629 0.17267422
1.02183115 0.75698674 -0.17780435
-0.68815464 0.65260869 -0.68513072
0.46922544 1.25807977 -0.73358184
0.12196091 0.82854891 -0.75731260
-0.97497249 0.40154019 -0.18934681
1.05068636 1.14440227 -0.00329321
-0.31760100 0.67974412 -0.75695997
-0.38769755 1.54048765 0.46608466
-1.00219238 0.95081139 -0.71409053
-0.58422661 0.31248486 0.79493839
0.89313233 0.50353879 0.21595944
-0.65102041 0.34199992 0.75498998
0.56409556 0.32322800 -0.75597167
0.71342760 1.24351716 -0.49988684
-0.25128037 -0.47844559 0.49017447
-0.21147023 0.52290213 0.69547641
-1.02458370 0.67546523 -0.68396318
-0.79933405 1.47643352 0.46987596
0.47265437 0.02609426 0.46833968
-1.01285851 0.62376714 0.08146688
0.15761042 0.74775892 -0.79666090
-0.23057759 1.02052999 0.73472971
-0.10355277 1.31132877 -0.24874470
-0.43273187 1.10363674 -0.77148348
-0.74577785 0.35362828 0.42503148
0.48885265 1.14335942 0.24384856
-0.75369889 0.78879589 0.45394170
-0.94323170 0.33267060 -0.73258299
-0.58525127 0.12267569 -0.21100761
0.16665271 1.51183498 0.02643494
-0.76287317 0.94723189 0.72425169
0.25428888 0.77817047 0.63185847
-1.00677133 0.62107444 0.11909156
-1.00519204 0.92004687 -0.62558639
0.21064131 0.96215189 -0.81367999
-0.99612045 1.06706178 0.18678601
0.31676593 1.29201615 -0.02361898
1.00860441 0.83457160 0.11981925
0.24319014 0.84305120 0.61811852
1.00607264 0.67139256 0.02724959
-0.28790745 -0.52537549 0.00982108
0.31638449 0.37825486 -0.75178838
0.97841513 0.33608550 -0.06225795
0.09975785 -0.51393580 0.23713219
0.83061212 1.28652871 -0.59783000
-0.94471288 1.18318784 -0.76396936
0.26627594 -0.40697205 -0.19978282
-0.76410830 -0.01930904 0.21850318
0.99096125 1.05054688 0.13434283
-0.25392237 0.20782244 -0.58503801
-0.76400024 -0.10576689 0.41665486
-0.61904371 -0.47189045 0.04057762
-0.80938506 1.21225762 0.18722574
-0.44288439 -0.00714248 0.72101057
-0.37275773 -0.47606105 -0.02370505
-0.71092546 1.50712395 0.24546871
-0.73283845 0.61264962 0.58158803
-0.06751642 1.22669029 -0.47191116
0.26167414 -0.10004210 0.13950896
-0.10418010 -0.01590645 0.74287385
-0.66700989 1.47255278 -0.21863978
0.00823273 -0.51748419 0.15964685
0.70354116 0.26077074 -0.33080909
0.53001481 0.05059600 0.04504567
-0.74859345 0.33995733 0.27720606
-0.41476178 0.28073210 0.76301545
-0.47367656 0.22664043 0.75896513
0.61616790 0.42797288 0.25246254
-0.99079823 1.29331708 -0.34755570
-0.76288116 0.23452359 -0.41921744
-0.75320953 1.31319022 -0.15153688
-0.38673809 -0.51372921 -0.21720243
-0.74527889 1.38185430 0.40242758
0.74020714 0.25412595 -0.27236137
0.05621147 1.08323002 -0.77271467
0.52177376 0.54887021 0.43072739
-0.46221122 1.12780070 -0.74539846
-0.21206161 -0.48091507 0.24597988
-0.72924119 1.45444596 0.26820365
-0.98406917 0.32782447 0.19533250
-0.19361088 -0.02536702 -0.33877426
-0.05802448 0.50303352 0.82475942
-0.71180588 0.95447314 0.70693272
-0.18547362 1.18923235 0.72990775
-0.24073195 -0.14429462 -0.25304854
-0.02579632 0.27005839 -0.55193156
-0.73546696 1.26017237 0.16163723
-1.00144160 0.89708370 -0.01645281
0.12061358 1.28120589 -0.61401802
-0.76520181 0.54101521 0.45094311
0.35967907 0.75690079 -0.79050010
-0.18449870 1.30344284 -0.40941644
-0.72276479 0.08418396 -0.28184253
1.04847848 1.10527062 -0.56616491
0.29947796 -0.04661638 0.16537322
-0.05967591 1.27926135 -0.42003438
0.83944678 0.73179090 -0.72736746
-0.55190873 1.42196608 -0.30519018
0.25821614 1.42979228 -0.07049249
0.17392790 -0.50456834 0.07492410
-0.02266569 -0.53547263 0.32819358
-0.98772466 0.49250191 -0.30293480
-0.68089473 0.26571894 -0.38295111
0.31202555 1.44635248 -0.12523519
-0.95402950 0.36559486 -0.73044902
-0.89777535 0.24606022 -0.53497380
0.52882224 0.35327250 -0.77039272
0.74703759 0.79392266 -0.71571499
0.22843483 0.82185781 -0.76802176
-0.61055213 0.86665380 -0.74946219
-0.78794265 -0.04133654 -0.21894981
-0.69837356 -0.51125073 -0.08328050
-0.71847558 1.03538680 -0.67319435
-0.09400003 1.23765707 -0.30412734
-0.21991472 0.00315732 0.71802998
0.48767832 -0.05146194 -0.45716909
-0.84321290 1.09943402 -0.73696470
-0.59644836 1.01757169 -0.75253290
0.97820449 1.10819602 -0.53195781
-0.52779192 1.03257406 -0.77674222
-0.73802799 0.15372860 0.47562227
-0.91839123 1.28009260 -0.17028807
-0.45074731 -0.50364280 0.17746672
0.49143857 0.55795234 -0.74279100
0.29740098 0.02671686 -0.13679586
0.43485102 0.13694853 -0.30287474
0.98768824 1.06668377 -0.46775603
1.01653934 0.93288946 -0.58387768
-0.59909934 1.27853584 -0.47551256
-0.01513208 0.03479558 0.75462979
-0.57240045 -0.49960208 0.47542265
0.92039448 0.95045596 -0.74876970
-0.31402570 -0.49097389 0.25831985
-0.05864896 1.49330139 0.18436098
-0.37400827 0.52986234 -0.75955552
0.93211257 0.22804871 -0.00547334
-0.31759200 0.14418349 -0.51292586
0.42657980 1.21834862 -0.71698606
-0.93575847 0.21967503 -0.62023777
-0.05552661 -0.31900620 0.72880912
-0.33314002 1.47649086 0.50893062
-0.71416682 -0.26997906 0.66053510
0.74259073 0.67200851 0.22329625
-0.18316732 0.24689707 -0.57251364
-0.74359709 1.05165648 0.50162721
-0.74805921 -0.46342349 -0.13788632
-0.01604825 0.30109102 -0.70731694
0.48597896 0.77495301 -0.78302056
-0.03785049 0.54218251 -0.72995621
-0.31798318 0.79918909 -0.75710809
-0.25398156 -0.06284565 -0.25552627
-0.75424331 -0.15903074 0.57024193
-0.73836488 1.30158138 0.05286629
-0.27603832 1.43977070 -0.21407142
-0.71328402 0.68713027 -0.73168027
0.26854461 -0.10578656 0.38038251
-0.55378407 -0.35979521 -0.17483129
0.35396639 0.88273776 -0.76916283
0.96325737 1.05184579 0.21455812
0.77703100 1.21226835 0.17530425
-0.68798751 -0.34390622 -0.29771173
0.03107940 -0.10334009 0.74205887
-0.49456653 0.18846521 -0.25120774
-0.14989275 -0.48419446 0.05017238
0.56795025 1.27778757 0.07257187
-0.12424788 -0.52153420 0.73866540
-0.97451329 0.86580515 -0.66865963
-0.92639768 0.71930474 0.07060587
1.01889193 0.97155190 -0.69597828
0.26038811 -0.39104056 0.44348040
-0.05430672 1.48676205 0.54289180
-0.31407654 -0.00542164 -0.50063598
0.92309135 1.25923645 -0.74216169
0.91288948 1.06121409 0.29071027
0.97477871 0.57857347 0.22618893
0.05560467 1.51029372 0.60148656
-0.25182873 -0.22574979 -0.26603726
-0.52904069 -0.50784886 -0.10983178
0.95399404 0.27838868 -0.36227167
-0.72955781 -0.13267648 0.08778527
-1.02644837 1.20569491 0.16688900
-0.48908314 1.23602462 -0.56734413
-0.23756883 0.58726156 -0.78059280
-0.66818607 0.74421966 -0.76679879
-0.77198994 1.32824206 -0.19724019
0.61474454 0.84477979 0.22088765
0.80118436 0.61959779 -0.74626982
0.95844704 1.22273827 -0.46908659
0.97465897 0.92592001 0.10415900
0.98759657 0.35373655 -0.22893573
-0.21774310 1.01548958 0.73948675
0.01943909 0.87716353 -0.77643329
0.08932216 -0.08899474 0.76359642
0.53191382 0.87409920 0.40285972
0.27391738 -0.06163752 0.68210095
-0.69147050 1.57575738 0.52316868
-0.41243622 1.48582101 -0.13329089
0.48350209 0.25990185 -0.57053578
-0.25208831 1.15768123 0.75025302
-0.25206757 1.38277829 -0.24145067
0.06237546 1.12844348 -0.79775357
0.63383353 1.15996420 -0.71311188
0.28196386 -0.05062664 -0.07397032
0.26392835 1.40027452 0.19041760
0.24283452 1.35333180 -0.26781270
0.91060096 0.56813830 0.24849835
-0.95238847 1.26687837 0.22968653
0.98471016 1.21046972 -0.32489479
1.02326262 0.62217939 -0.53159428
-0.76390254 1.41306424 0.23779584
-0.75675368 -0.16657066 -0.04851839
0.42527297 0.36333442 0.51115167
0.23376155 0.92161345 0.52051401
-0.53229785 0.23266703 -0.34666017
-0.35673887 1.48329091 0.26293123
-0.17629921 1.52733815 0.67796308
-0.35723725 1.48441613 -0.03566251
-0.75522298 0.08870265 0.53805608
0.80274206 1.25668764 -0.05739625
-0.10030539 0.18214294 0.72750199
-0.76626951 -0.07273763 -0.25932264
1.02766550 0.44640744 0.05302387
0.53041959 0.79373634 0.51177871
-0.15233833 0.71106458 -0.71379447
0.29894531 1.28314888 -0.15864584
-0.97871828 0.55184448 -0.03281801
0.22466160 -0.45889306 -0.27425849
0.46306098 0.05344447 -0.32160237
-0.69085121 -0.49761873 -0.26663020
-0.15078415 -0.49243975 0.00052291
0.12557442 1.23733115 -0.34906372
-1.00939488 0.46001863 -0.11273336
-0.99660778 1.18823051 -0.05111608
0.20011759 0.63043046 0.74931204
-1.01746213 0.40722814 -0.11366370
-0.03437437 -0.01942849 0.71546715
-0.39917830 -0.38331372 -0.29699028
-0.49819863 1.49245274 0.57859683
0.34134862 0.32018059 0.51455480
0.07348816 1.50418258 0.46828219
-0.89904201 0.69092357 0.21559045
0.92530352 0.37850738 0.23445500
-1.01922452 1.16398323 -0.49830794
-0.73997688 0.23565692 -0.26672760
-0.18755119 -0.46439165 0.76126796
0.02495000 0.01382282 -0.34849647
-0.15894288 1.04776025 -0.73557782
0.42176151 0.66013783 -0.74010181
-0.36175296 -0.52592838 0.48889419
0.21506621 -0.54033685 0.34995142
-0.63300699 0.15735504 0.77127963
-0.12456935 0.31528682 -0.78066826
-0.72773904 0.22661352 0.14553589
0.13978119 -0.49079400 0.55935580
1.04497790 1.03152323 0.10419618
0.45823660 0.58750230 0.47077268
0.96854794 1.22342300 -0.24245068
-0.38470656 1.24001312 0.71713471
0.26939285 -0.05629063 0.46714216
0.53147554 0.18681517 0.14633800
-0.49925715 1.42996442 -0.20680219
-0.59317315 1.08649397 0.80088806
0.58710271 0.25651991 -0.69291651
0.51911992 0.22551900 -0.41306126
0.07560686 0.48614472 0.76477718
-0.02229729 0.77297866 -0.76975721
0.52153504 0.87210190 0.30247551
-0.47706592 1.50422835 -0.09758115
1.01311171 0.83198613 0.24283729
0.22816089 -0.21864587 0.30621815
0.23214994 0.27976644 0.73349649
-0.60373837 1.41033149 0.75150579
0.27593490 -0.30848551 0.13958105
0.02381976 -0.29802835 0.75669742
0.95592821 0.48062679 0.26245376
-0.66525853 0.05018878 0.77767467
-0.26759478 1.47258091 0.49350321
0.56783682 0.34448999 -0.79397517
0.69848895 0.44596341 0.17962828
-0.02134234 0.92759442 -0.71505231
-1.01845527 1.00353909 -0.62351274
-0.75961846 0.11220667 0.41178879
0.98445958 0.46368980 0.33726043
-0.81055760 1.18810761 -0.32784092
-0.36796775 1.17546225 -0.76092982
0.50309074 0.03617030 0.09651586
-0.73079568 -0.07016981 0.28131989
-0.15542063 -0.19936800 0.76891196
-0.30030641 -0.52961922 -0.22419916
-0.76158851 -0.14131916 0.54193723
-0.05350958 -0.38253808 0.73020774
0.27000242 1.40096402 -0.01665921
0.48785111 0.24189234 -0.20994692
-0.73439246 -0.51510882 0.00194884
-0.08047076 -0.50071084 0.75153822
0.52164245 0.17164871 -0.51392615
0.27637559 1.36753929 0.51286632
-0.69748265 1.25618529 -0.29000053
0.25692430 -0.14550203 0.26601312
0.40187541 0.63743949 -0.76545560
0.28436923 -0.21081489 0.39901334
-0.31882921 1.49961114 0.64497215
-0.54019433 0.08497685 -0.24873166
0.73838824 0.63444191 0.23765540
-0.41301829 0.55289376 0.77136743
-0.94947010 0.91350877 -0.71255153
-0.07655400 -0.49452454 0.28583974
-0.41841692 1.25164795 -0.34598514
-0.71572745 -0.10065287 0.01212122
0.58611834 0.19365340 0.00792590
0.97439569 0.48116630 0.01983170
0.48930290 0.80511457 0.48322526
0.98334187 0.45331675 -0.02411196
0.96470225 0.30057877 -0.31636426
-0.59466124 -0.05915856 0.72851968
1.00440633 0.92876410 -0.60018444
-0.97453463 1.17473674 -0.73316324
0.30075973 -0.09097373 -0.08964750
-1.00591433 0.30007550 -0.34604225
-0.85415173 0.23960295 -0.71087939
0.53507733 1.12804008 -0.72341359
-0.77108997 0.75034636 0.65574884
-0.73075742 -0.52770066 0.70427203
-0.60525239 1.25639343 -0.47635323
-0.32885352 0.67902452 0.69683564
0.50467658 0.55178738 0.44684988
0.44846115 0.12274951 -0.24064355
1.00044179 0.80385816 -0.68542558
0.09813308 0.27884275 -0.53123808
-1.00171614 0.57370305 -0.21668454
-0.98608583 1.08538890 0.17128612
0.30489007 1.24644303 -0.18044832
-0.58818018 0.20137230 -0.60649109
0.76637232 0.23553893 0.19486511
-0.58665067 1.06571960 0.76062483
0.89088839 0.24345472 -0.06913764
-0.18275242 0.79760885 0.75645089
-0.36818570 1.51281810 0.60308486
-0.78683609 0.25923336 -0.54450047
-0.09788707 1.28603649 -0.59569514
-0.12808546 -0.28613067 -0.26885271
-0.82052368 0.98659033 0.27903014
-0.36243719 1.28916502 -0.43713024
-0.70512402 -0.16408807 0.72410506
-0.50023091 1.51355422 0.45130754
0.18475159 -0.11801934 0.79878235
-0.52264017 1.50903010 -0.18302315
0.53147894 0.21841079 0.18381800
0.37909257 0.00304177 0.40657401
-0.35435116 0.27577189 -0.63150489
0.87028843 1.10393322 -0.74059713
-0.00645119 -0.03901446 -0.24400356
-0.25002864 1.32707906 0.72559816
-0.87482095 0.44174552 0.22480652
0.47864684 0.03319177 0.43840513
-0.55790210 1.48518896 0.15941498
0.44328985 0.73671806 0.50117946
-0.42776668 0.91385341 -0.75278050
0.17485707 1.49260807 0.15118831
-0.69461191 1.29133630 0.50500619
-0.44997260 1.49370980 -0.23194423
0.71505368 0.99157524 -0.81434357
0.85099655 0.33590394 -0.74827123
1.05862546 0.99001127 -0.01484969
-0.75473148 0.95812470 0.67500138
0.28031191 1.47272348 0.26356521
0.90259582 0.23337460 -0.48667595
1.02354980 1.25213432 0.15942988
-0.37573799 -0.52173066 0.46361232
0.97309667 0.47317442 -0.21325205
-0.73861170 0.26151782 -0.50072044
-0.00184215 -0.29439580 0.74947149
0.24283533 0.22146291 0.62937880
0.06364488 0.01888654 -0.29271758
0.28330135 -0.12943643 0.32625145
-0.73482019 1.25391603 -0.74393433
0.50279564 1.22760260 -0.53235692
0.39884779 0.55548704 -0.68435150
-0.70765525 1.29705441 0.12557758
-0.97433609 0.75898761 -0.06300627
-1.04503930 1.23997760 0.09848006
-0.00853051 1.51621282 -0.01013813
-0.55434155 -0.21172434 0.75287902
-0.36680180 1.48778272 -0.07910845
-0.60543668 0.34389594 0.77372128
-0.99273431 0.95027697 -0.40308404
0.26022947 1.14613247 0.51984274
0.89661020 0.25428879 -0.43017900
-0.74418211 0.11339158 0.67223841
1.04248846 0.48730889 -0.68031299
-0.50756747 -0.46274090 0.63811278
-0.55002230 0.27606362 -0.70957679
-0.49881464 -0.34611207 -0.24253534
-0.87621957 0.67309612 -0.69222820
-0.65167993 -0.08232659 0.74950749
0.30573440 1.25690484 -0.39255723
-0.32705185 -0.52663541 0.77395260
0.03124716 0.27021849 -0.71328747
-0.74658358 1.39453435 -0.14136545
-0.08624233 -0.17296672 0.80023658
-0.35990623 1.24870539 -0.78158361
-1.02301168 1.07172012 0.17032054
-0.70896268 0.14426082 -0.28468254
0.50161165 0.09249845 0.46405300
-0.58770871 0.18490002 -0.24223155
-0.57508594 -0.31828427 -0.23159897
0.96811426 1.29044390 0.20880085
-0.38163105 -0.52569938 0.49832821
-0.73755717 -0.32555050 0.10850278
0.28955936 1.15020895 0.47495073
0.26075283 -0.06552702 0.38815847
-0.65103120 -0.22441566 -0.25989130
-0.26581818 0.70060790 0.73298877
-0.58020198 -0.47118819 0.71486968
0.24383776 -0.50328791 0.21947780
1.05484045 1.16110158 -0.26129889
-0.86097896 0.30769199 -0.63566619
0.92848688 0.21306160 -0.03779331
0.10805740 1.31844437 0.72686559
-0.07862794 0.37605226 0.76537842
0.74031425 0.38577005 0.24507540
1.01569581 0.71166325 -0.28665677
-0.20859459 -0.04149622 -0.23559250
0.98052061 0.73575771 -0.26319805
0.15679142 1.48736596 0.32162833
-0.38450378 0.06471804 -0.51263499
0.91591948 0.23413548 -0.07317168
0.27721888 -0.22718883 0.17082205
0.84120989 0.27628070 -0.45510808
1.03446949 0.92714620 -0.69068247
0.60276037 0.82447958 -0.73859560
0.15098670 0.99112940 0.71158934
-0.20386073 -0.45566094 0.10039262
0.26555488 -0.18001246 0.76247829
0.14691335 0.77405393 -0.76883763
0.06118153 -0.13710618 0.75416809
-0.11915588 1.23427439 -0.53376633
0.44964439 0.21996754 -0.49099255
0.24573609 0.49165863 0.51566601
0.22288759 1.43160188 0.22750214
-0.50540203 1.11963832 0.73600000
0.45124406 0.66708106 0.46242273
0.16134216 1.51073992 0.51930118
-0.60962844 0.90985733 -0.75270814
0.30767465 1.24382281 -0.58135098
-0.49264246 0.20631328 0.72262692
-1.05835176 0.76693714 -0.34258682
-0.55832058 0.77051532 0.73239374
0.18508387 1.08785689 0.74330741
0.51770824 0.07377559 -0.40663055
-0.74015504 -0.38752842 0.54370844
0.86084932 1.30160117 -0.07771442
-0.99314868 0.71506602 -0.64533991
-0.59818351 1.13093817 -0.76265109
0.99761206 0.54169416 -0.24344899
-0.90572035 0.22188556 0.28831092
0.22090031 -0.17952394 -0.07002343
-0.75534558 1.38068366 0.73137915
0.34060988 0.67758107 -0.72769397
0.13768564 1.48426986 0.15452679
-0.74610168 0.36530676 0.39284042
-0.92895263 0.95842755 -0.78224808
0.96650910 0.24777254 -0.65229213
-0.70277774 0.28580195 0.76788872
-1.04405534 0.44348505 -0.50609326
-0.35639477 1.56628656 0.61359459
0.35931009 0.70611131 0.51107067
0.08927065 -0.38081729 -0.21211126
-0.95514601 1.18894339 -0.48611665
-0.77515411 -0.29111934 0.56781942
-0.05958651 0.51917577 -0.75778133
-1.02843404 1.19058061 -0.77414620
-0.50831866 1.30926645 -0.24420075
0.38013962 0.02727601 -0.16561571
0.66051346 0.42464629 -0.79974067
-0.59555823 1.52040493 0.21263541
0.34080464 1.23489380 0.01816696
-0.68883795 -0.48724848 0.17235534
0.11847664 1.16375852 0.76510936
1.02107060 1.09686542 -0.07450876
1.01090765 0.56599772 -0.61929816
0.71126676 0.63410485 -0.72023773
0.25292474 -0.42712384 0.46212870
-0.75931829 0.36439037 0.29980069
0.95670176 0.35434139 -0.72454339
-0.53898829 0.26050633 -0.46330950
-0.85856748 0.28328204 -0.24090244
0.12440418 -0.48431563 0.69172466
-0.18352358 1.46146655 0.00074677
0.21945715 1.18946815 0.70134360
0.46770918 0.21034366 0.52592772
0.25356421 0.16611943 0.50057578
-0.98834288 0.45925516 -0.54933822
-0.45993626 1.11180055 -0.79477978
0.24070379 -0.42155176 0.40298030
0.51640648 0.70437264 -0.74851149
0.24938610 1.06270504 0.36044082
-0.09133407 0.50543386 -0.81596237
0.48525348 0.12371287 -0.44894561
-0.73174858 0.48510191 0.29113257
-0.97492677 1.15772653 -0.47978061
-0.72861916 0.41156498 0.72922647
-0.84746563 1.28993821 -0.57661843
0.18712147 0.80242670 0.78356880
-0.89009005 1.23362708 -0.42754769
-0.76380837 0.20864758 -0.14798731
-0.67533153 1.29781258 -0.25774133
-0.90765756 0.59368688 -0.75784647
0.77696383 0.15027872 -0.10993128
-0.38794547 0.87059432 0.72535831
-1.02026117 0.89420682 -0.67368990
-0.76431906 0.52347350 0.41289175
0.26837462 1.50281179 0.48012373
0.08995917 0.28178850 -0.63164568
0.28866863 1.32691836 0.37703288
-0.37508053 1.17944801 0.76881337
-0.40932554 -0.47890115 0.49684253
1.00753808 0.39972049 -0.25919995
0.27468663 1.35500050 0.67387718
-0.77557939 1.31669784 0.40278536
0.39356098 0.37329435 -0.74114263
-0.73172927 1.38416576 0.34687448
-0.07170531 0.12816128 -0.45669523
-0.99098474 0.55033392 -0.37606165
0.25154144 -0.34217340 0.50821936
0.13268331 0.05243769 -0.45895880
-0.72064120 1.20551801 0.37014008
0.97587276 0.45531690 -0.22782244
-0.91993344 0.25052214 -0.21069087
0.93677002 0.58882403 -0.02317369
-0.92256933 1.23763156 -0.18314455
0.76253480 0.96424222 0.26564160
0.76879871 1.22174239 0.24878195
-0.79503465 -0.39266890 0.33108696
-0.03478306 1.16572285 0.82764524
-0.77735120 0.99055839 0.46645468
0.14240530 0.50617909 -0.75990677
-0.06248114 -0.52379501 -0.25793117
1.00358927 0.76152027 0.08037497
-0.75003499 0.25931063 -0.73798388
-0.73150748 1.00401592 0.54397553
-0.24299026 0.18191299 0.72820652
-0.92947656 1.18897259 -0.75676596
-0.72884732 1.43915415 0.15001440
-0.68996423 1.49043202 -0.08570522
0.16199511 0.10131049 -0.46595967
0.03724273 -0.45166683 -0.11623342
-0.42607582 1.10826933 0.76884604
0.84370726 1.25242138 -0.48982739
-0.36509547 1.45959425 0.14388998
-0.97539288 0.98405850 -0.37776256
-0.89479709 0.31933767 -0.73616272
0.98997426 0.96755022 0.18930005
-0.04154380 0.39767376 -0.77858567
-0.16235392 1.05860806 0.76925892
-0.25943705 -0.49598545 0.06813038
-0.73224026 -0.45769542 0.27389768
-0.04095881 1.50710154 -0.04567588
-0.27490869 0.49198478 0.73856300
-0.61460954 0.47057140 0.78407919
0.26581800 -0.21578181 0.66352481
1.02248728 0.59958667 -0.62825590
-0.08062485 0.46285260 0.72378874
-0.23386557 1.09243250 0.76021850
-0.78963226 0.11340320 0.04090844
-0.78954446 -0.28246361 -0.10618582
-0.35644218 -0.51583374 0.58115190
-0.30935612 -0.43058991 0.78196448
1.04361582 0.72114879 -0.06157667
-1.00650060 1.29396749 0.00845509
0.45914125 0.21525908 0.26700762
0.24177606 0.52387333 0.73761857
0.29458529 -0.08886731 0.57762969
-0.10692031 0.58640969 -0.79690266
-0.53739011 -0.26844680 0.70230550
-0.16550046 0.57224649 -0.73058248
-0.41663879 -0.49993813 -0.19823763
-0.39810073 1.52603793 0.51689571
-0.47472763 0.05569759 -0.20848680
0.09785026 -0.06437320 0.76102638
0.96826649 1.17129648 -0.29618430
-0.34074974 1.03248084 -0.74547404
-0.98522437 1.31826866 -0.69061071
0.50840205 0.05446094 0.01760128
-0.22309208 1.22892690 -0.70253289
-0.71302557 -0.32325900 -0.04798148
-0.51336020 0.04392776 -0.45773786
0.04443796 1.24582326 -0.63733852
0.94142491 0.61557871 -0.78409135
-0.73991203 1.33847022 -0.10174857
0.70461082 0.76278079 -0.80894858
-0.98209274 0.50250238 -0.76778257
1.03897142 0.63105518 -0.41874832
-1.01319170 0.38384211 -0.23718080
0.87904179 1.19838142 0.20597915
-1.01283836 0.78523058 0.22100098
-0.58111584 0.21592095 0.72589493
-1.01251101 0.53263247 -0.23895910
-0.36989793 1.50616372 0.53135979
-0.55557358 1.29368818 0.76286584
-0.40852511 1.48026156 0.41830027
-0.84864801 1.26278627 -0.40800944
0.27160153 1.20001376 0.54773968
0.39651847 0.02605191 -0.50495696
-0.76907063 1.43963504 0.14698277
0.17393945 0.70713747 -0.72032577
0.07322928 0.07940733 0.81725764
-0.55272585 -0.49056703 0.12759231
-0.72325629 -0.07505429 0.71829516
0.22839569 -0.31343120 -0.13624626
0.98594815 1.02721655 -0.40268654
-0.16149944 1.25675011 -0.29632518
-0.51245242 1.53836095 0.64551032
-0.73403490 0.08086333 -0.13966668
0.06459450 0.02749273 -0.24755473
-0.58392960 0.28402773 -0.31463033
-0.53212380 0.29366121 -0.78293061
0.22926897 1.30329490 0.00036744
-0.31134942 0.92424333 -0.77365392
-0.48246837 -0.04372078 -0.35268173
-0.02424998 0.25769493 -0.57012272
0.64219576 0.71692359 -0.78559047
-0.17276385 0.99076331 -0.76543057
-0.78498685 1.02143967 -0.77739275
-0.41960111 1.44564605 0.71147126
0.24415329 -0.50452340 -0.04287886
-0.77478623 -0.22510868 0.46618742
-0.30803856 -0.48554200 -0.06848242
-0.24286702 -0.55006075 0.37239149
0.50567192 1.21048284 -0.50082225
0.47083464 1.05463827 -0.71282828
0.15287864 -0.19728756 0.76442438
-0.13027444 -0.52172065 -0.08341731
1.02843714 1.10279894 -0.57248992
0.12576804 -0.48702818 0.01540614
0.24637190 -0.35406494 -0.10185686
-0.74969763 -0.50782430 -0.23491000
0.15277858 0.09545568 0.77938879
-0.25007710 -0.48821515 0.49881768
0.92070544 0.23405397 0.06693203
-0.58911514 -0.47984535 0.48837918
-0.03195193 -0.28854311 -0.24054728
-0.71644473 -0.05523831 0.73306245
-0.74201000 1.42099273 0.41097489
0.17830794 0.06868136 -0.49210721
0.03634191 -0.50432682 -0.20538805
-0.37253693 0.97856164 -0.78103501
-0.93310934 1.05632687 0.23095270
-0.81373239 0.34522814 -0.72333217
-0.99289030 0.83612502 -0.70257348
-0.31403008 0.60506243 0.72317851
-1.00770128 1.07364738 -0.55806279
0.01802935 -0.45279229 0.10053454
-0.99533701 0.25142011 0.00036698
-0.28026307 1.44898558 0.42583534
0.18373923 0.35700634 0.75392514
-0.72812760 0.54005283 0.49181423
0.29081991 0.41525984 -0.73888260
-0.14870645 0.44488588 -0.76381773
-0.74120808 0.43700504 0.64129078
1.02591932 0.79904824 -0.60878640
-0.87676752 1.23988438 -0.70793056
0.21305048 0.53719759 0.67921400
-0.50346392 0.43125129 0.74422753
0.23623826 -0.54300714 0.57750016
-0.36930230 0.21781924 -0.59354037
0.42539382 0.28431079 0.50729889
0.97167361 0.95320225 -0.34534296
-0.27881357 1.46866274 -0.17175497
-0.73217148 -0.49299842 -0.19231562
0.98830795 0.78821611 -0.52498597
0.58383429 0.23218000 0.13663022
0.93515968 0.99381864 0.24152432
0.22206523 1.49793315 0.51519769
0.48475686 0.17995173 -0.15357387
-0.60739130 1.24449778 -0.30404520
-0.35072443 -0.50576091 0.01207327
-0.75985271 -0.47578150 0.64352030
0.09060828 0.23034829 0.75714743
-0.87141150 0.37761450 0.18825258
-0.71120733 0.41535607 0.54649091
-0.77878726 0.39360550 0.70514697
-0.06676295 -0.52674735 0.12081405
-0.59456259 -0.51688492 -0.13393484
-0.14880665 -0.54049492 -0.18336535
-0.90718943 1.03763890 -0.76627415
-0.97784930 0.35329235 -0.04460419
0.72995228 1.24738193 -0.31551892
-0.05641176 -0.04025525 0.79029363
0.79408258 0.71727210 0.21433735
0.06743595 0.57965529 0.75652289
0.69621837 0.67570460 -0.72422796
-0.27716872 1.11973524 0.72138953
0.12692907 -0.47887158 0.58620107
-0.42791849 -0.55306339 0.17587520
0.87298042 0.20137936 -0.15099971
-0.99487203 0.99942458 -0.30114990
0.06025181 0.74861401 0.72968078
-0.88859278 0.99511737 -0.71328861
0.00556802 -0.43412304 -0.26031914
-0.31228286 1.24067736 -0.49638352
-0.22467276 -0.53220260 0.07224029
-0.22385843 -0.06848639 0.70559436
0.21625453 -0.36886382 -0.08565647
-0.04822230 1.29361010 -0.64435178
0.05432814 1.45859599 0.66316253
0.26034266 1.24967825 0.62958878
0.90706474 0.24306241 0.11797822
0.25412402 1.46548891 0.47938660
-1.05592024 0.75974822 -0.27361771
-0.22452061 -0.48357934 0.42185298
0.18728897 -0.37040275 0.76332873
-0.76078737 1.27450418 -0.41738775
-0.97695196 0.29432356 -0.29724053
-0.30275705 0.04667720 0.76325488
0.31700751 0.28219479 0.50193655
0.21295366 1.35756230 0.41937169
0.31976104 0.25209564 -0.51036429
0.76986879 0.34946126 -0.77181143
-0.64208341 0.74119771 0.74896139
0.79971093 1.24478936 -0.13575703
0.48709872 0.52817333 0.51597893
-0.72769254 1.04310548 0.67854232
0.94334251 0.42712611 -0.46396375
0.69372821 0.26505291 -0.74925792
0.57701403 0.24843919 -0.05636181
-0.43249455 0.04279676 0.72323322
-0.35224211 -0.00996667 0.76320744
-0.43701977 -0.07753116 0.76625746
-0.10999682 1.21933627 0.73022413
-0.19368906 1.48627234 0.10968160
0.13123626 1.38628507 0.78855765
-0.42831773 1.23087525 -0.72535425
0.37247208 0.25794917 -0.67983562
-1.03741205 1.18691802 0.05886367
-0.12560914 0.05176905 0.75499201
0.68109518 0.32831329 0.24708083
-0.73840606 -0.04384738 0.71370584
1.03991365 1.10777450 -0.23180003
0.29511911 -0.26967186 0.45951182
0.69838554 1.23949206 0.01563874
-0.43100074 -0.01089460 -0.27378193
-0.16952987 0.15101445 -0.71062815
-0.95946729 0.52518421 -0.01770031
-0.12425371 1.19109011 -0.36222276
-0.98910511 0.33862686 -0.37401021
-0.07596463 1.29415560 0.75161541
0.20185377 -0.01127565 -0.36189619
-1.01160276 0.60580957 -0.03973461
0.74116021 1.22193432 -0.58869803
-0.65981710 -0.44397962 0.51627934
0.26541254 1.41225386 0.61208934
-0.56923658 -0.15762299 0.77325487
-0.90594786 0.26766586 0.09439546
1.03091526 0.34282157 -0.42155051
-0.65708655 -0.49965906 0.13097337
0.45419422 0.60338187 -0.77015954
-0.78217965 0.96128356 0.51547402
0.20124951 0.37436828 0.58054477
1.00786424 0.80923378 -0.33583054
0.49991873 0.79556680 0.37712356
-0.51560330 1.01792884 -0.77915221
-0.01736855 -0.52975619 0.02277440
0.01464394 -0.49886000 0.27751935
0.06058400 -0.50752461 0.03609185
0.12943684 1.49483299 -0.27820215
-0.50284553 0.47375169 0.69716334
0.56215644 0.20938522 -0.35059363
0.23780490 0.87856162 0.79201877
0.07884438 0.01652834 -0.44813165
-0.50382537 1.50113308 0.43830988
-0.58412403 1.35354853 0.71717644
0.93999052 0.88206232 -0.65138423
1.00738502 0.46521553 -0.30756831
0.14609891 1.50705349 -0.21692953
-0.77571970 0.32847565 0.20667857
0.58275801 1.23578811 -0.63826460
0.27494571 1.05826735 0.23336399
0.17537965 -0.35898620 -0.24127071
0.22922839 -0.09961385 0.43764481
-0.10236518 -0.41147500 0.73051780
0.47364414 1.01018119 0.44572461
-0.32850870 0.22420567 -0.48866147
0.21806225 -0.45176727 0.57839561
-0.34603143 0.36438918 -0.78054911
-0.49090871 -0.46006608 0.61168635
1.01334369 0.91016579 -0.34496129
0.08625373 1.26436257 -0.50318182
0.22757417 0.06257764 0.75985456
-0.76487392 0.76768267 0.33044773
-1.00617921 0.94950759 -0.75439411
0.06468695 -0.37527972 -0.24412875
0.23726314 0.83887041 0.61887890
-0.03568029 0.18140158 -0.51353377
0.70551348 0.21126622 0.23723440
-0.45282921 0.72452235 -0.76589841
-0.68695337 0.44670668 -0.77218544
-0.35392991 1.31929088 -0.21305294
-0.14557704 -0.54399979 -0.13255405
0.98698211 0.54059696 -0.14421032
0.27102455 1.00069451 0.43344542
0.91392952 0.68716753 0.25825492
-0.75700408 1.39357281 -0.01412538
0.96677488 0.59252673 -0.65286094
-0.07359950 0.10495558 -0.24266805
0.29501796 0.01989272 0.44071561
-0.77676111 1.27402782 -0.31892446
-0.36519101 0.33503515 0.75526410
0.02967544 0.41882530 0.74356675
-0.05937503 0.08239967 0.74452645
-1.04078245 1.15841198 -0.67751378
-0.73643368 -0.28036487 0.36702356
0.86210209 0.73662168 0.21118791
-0.53830129 1.24480009 -0.34490529
0.37853795 0.01555565 -0.13600089
-0.17929876 0.89269829 0.75914109
-0.56337464 0.60385346 0.76525754
-0.01512060 1.05734301 0.72916448
0.90579933 0.23100305 -0.56860602
0.25574750 -0.33574247 0.31701177
-0.76791906 0.24136442 0.76742631
-0.50741357 1.23804784 -0.75758356
-0.40786949 -0.47851080 0.09574959
-0.10808728 0.61778677 0.75113791
-0.11299933 -0.52047837 0.13819905
0.25469026 1.31021941 0.72521061
0.97093177 0.99934578 -0.74805915
-0.27553236 0.57212234 -0.77105623
-0.46862751 1.47321653 0.22275485
0.81065196 1.23768759 -0.13130718
0.26717737 1.04026115 0.22660315
1.04412663 1.02818632 0.24514569
0.56551743 0.69761473 0.22016481
0.43588817 0.54166991 -0.76316923
-0.74465400 -0.18684703 -0.15432738
-0.80171841 -0.09051651 0.07360346
0.37936267 0.74177086 -0.74034643
-0.50027192 0.89393502 0.76273954
-0.09633352 -0.52947760 -0.20530711
-0.97509813 0.61737335 -0.02333230
0.28608400 1.21462953 0.00416768
-0.94058549 0.27828574 -0.32911211
-1.05414665 0.93417698 0.22407752
0.53733432 1.24642015 0.18531185
1.00821257 0.75665402 -0.78134108
-0.27490744 0.71161813 0.79210126
0.14603251 0.97170454 -0.76606029
-0.63154006 -0.43199277 0.75810480
0.08936805 1.25010633 -0.55953461
-0.60502225 -0.51237583 -0.08467480
1.00082970 0.66437590 -0.70219958
0.15836965 -0.15488076 -0.27046585
0.98904634 0.56972069 -0.16668555
-0.69007307 0.40650964 0.52010435
0.70696557 0.82726234 -0.72169119
-0.84680790 0.23454881 0.12712809
-0.42990863 -0.51138651 -0.08549242
-0.71904182 1.17292428 0.79440916
-0.01696154 1.04611063 0.76365250
-0.32994068 0.76173621 -0.79513437
0.65554482 1.00837803 0.28246880
-0.72463375 0.51198494 0.56037122
0.68953800 0.24544314 0.12730859
-0.94978875 1.28516722 0.09332743
0.98529458 0.97492218 -0.67658931
-0.97863162 0.68773508 0.06037388
0.32579455 0.82060665 0.47910842
0.75243741 0.48063850 0.24396794
-0.97486246 0.42206764 -0.27439067
-0.42159450 -0.33224398 -0.23679332
-0.35748458 -0.08414280 -0.24238011
0.51695234 0.17836773 -0.25530955
-0.64801639 -0.16092080 0.69430226
-1.01711667 1.18827271 -0.16629690
-0.99133629 1.23344886 -0.52940673
-0.46983498 -0.47279006 -0.27441761
-0.39667958 1.49979961 0.66814876
0.08947738 0.16382658 0.77559590
-0.25038904 -0.13088346 -0.25217530
-0.22021474 -0.30876923 0.74310851
-0.99190027 1.09284067 0.26342624
0.95887858 0.27971342 -0.73739278
-1.02098632 0.59972215 -0.03323202
0.08997442 1.25130773 -0.63521910
0.46531802 0.26347232 -0.49257991
0.35432401 1.21573567 -0.37819120
-0.35342595 1.47038960 -0.14064465
0.84094834 0.48543987 0.27757874
0.79446608 0.97338176 -0.78596663
0.02876130 -0.50438547 0.07303680
0.06016377 1.51424348 0.46770057
-0.47627905 1.06606507 0.79095894
0.97551680 1.23186231 -0.78041023
-0.25000548 0.24974179 0.78607005
0.27156901 -0.41945279 0.44880426
-0.95886123 1.27223420 -0.39263943
-0.58765453 -0.24638939 -0.23705205
-0.75882316 0.37411961 0.50159425
-0.22555515 1.25603247 -0.49224955
-0.04721945 1.04944849 -0.68621260
-0.08657479 0.30449015 -0.52356398
-0.21315901 1.26065254 0.69035107
-0.84570354 1.01411557 0.25389776
-0.33837941 -0.54367304 0.27611899
0.23903561 -0.51653194 -0.01724957
1.03202093 0.49112722 0.11788034
-0.77665108 -0.30192548 0.54346317
0.11343189 0.77168256 0.68892735
-0.42733043 0.25985694 -0.78061175
-0.74106473 0.50901228 -0.79037446
0.27431935 1.33190322 -0.30418253
-0.16233288 1.46976662 0.36898285
-0.46053836 0.22722822 -0.40765667
0.58549881 0.26067162 -0.54260933
0.23719421 1.22903311 0.44239196
0.27646899 1.02835011 0.40135065
1.01128900 0.19786307 -0.53028613
0.55681318 0.31523138 -0.18936501
0.82536572 1.25160468 0.13089083
-0.47999120 -0.49749523 0.03366528
-0.13992685 -0.35493296 -0.30070081
0.12522574 0.22100762 -0.56947458
-0.96042198 0.68324727 0.23657149
-0.74801606 1.29031420 0.76814300
-0.74228102 -0.35324448 -0.16569836
0.39051694 0.79166269 -0.70888662
0.45256332 0.12574565 0.49887428
0.05202120 0.26870358 -0.64488065
0.97362500 1.27852440 0.07405981
-0.82174432 0.99430573 0.26552719
-0.72629297 -0.04434037 0.31727743
-0.81913233 1.20126247 0.77065957
-0.13073832 -0.31482792 0.75927925
1.02130306 0.52244860 -0.09566633
0.29479188 0.60444301 0.61899292
-0.64181650 1.06421626 -0.78786659
-0.33513975 0.05015409 0.77445948
-0.97045898 0.47622231 -0.23722625
-0.69720411 1.38465154 -0.28420490
0.24257515 -0.12639678 0.62274194
0.98887604 0.72868586 0.03146136
-0.77032095 1.16831040 0.48421624
-0.64689165 0.64458019 -0.75501710
0.54700655 0.59526122 0.46775031
-0.07653039 0.03613812 0.73001641
0.49998888 0.02427283 -0.20588647
-0.57218170 0.57565790 -0.74941504
-0.83102763 0.51247758 0.43896842
-0.47569707 0.95160407 -0.76891387
-0.48001146 -0.10400701 0.75311232
-0.80263227 0.97392327 -0.75156522
0.00202363 -0.47154075 0.06087951
0.40008843 0.67977774 -0.74543935
-0.10891756 1.00664985 0.73784196
0.85515118 0.75176495 0.21369213
-0.51409274 -0.33320582 -0.26587474
-0.40046531 -0.13497555 0.81021565
-0.57538110 1.41724074 -0.30193749
0.88508952 0.25805098 -0.29124811
-0.34401932 -0.49929237 0.38281211
-0.65302700 -0.00205171 -0.24405374
-0.05289619 0.72772092 -0.80433935
-0.41690198 1.26479077 -0.62889379
-0.02948584 1.18593633 0.75360322
0.01319715 1.26429105 0.77744401
-0.66998088 1.49333739 0.04410188
-0.97969347 0.46126539 -0.35237697
0.13788703 0.10741776 -0.50111008
-0.10223605 1.46886134 0.36046413
-0.73082536 1.18340540 0.35317236
0.25845370 -0.37231922 0.47645265
0.55466884 0.59306580 0.20521215
0.93376637 0.48523882 0.23257859
-0.99679941 0.56330037 -0.58561730
-0.51804316 1.46420145 0.15144819
-0.12287869 -0.49890131 0.62900794
-0.77411163 1.27099431 0.35437539
-0.30716914 1.26759732 0.75421822
-0.80474299 -0.19466966 0.64810354
-0.73674738 0.62271935 0.44656894
0.05421753 1.43961179 0.73222482
-0.93523407 0.35029614 0.21095254
0.08708322 0.01781300 -0.48967925
-0.51957619 0.01946560 -0.26087362
-0.33539626 1.25177670 -0.26364598
-0.49272034 1.50835907 0.49314567
-0.71119183 0.47730860 0.78053033
0.76213932 0.22702676 0.04698507
-0.70167494 -0.09336990 -0.26999611
0.70138383 1.21606588 0.29017115
-0.48188055 -0.51062214 0.16609506
0.37243277 1.02232432 0.23653325
0.24253662 -0.33774114 0.62422258
-0.94432694 0.53483492 -0.78450245
-0.78178823 1.07612205 -0.75830853
-0.61822939 -0.52207768 -0.02610175
-0.40083215 1.54162729 0.05804537
-0.71083540 1.47507048 0.74719805
-0.47928950 -0.53248644 -0.01092101
1.01513708 0.99202073 0.15383898
0.45805407 0.22957709 -0.63859260
0.26121917 0.12210849 -0.47393376
0.14668468 -0.46951371 -0.16103040
-0.12728660 1.24605739 0.78224629
-0.50722778 1.48009956 0.51090842
-0.07282236 -0.48494542 0.44600701
0.05880007 0.07462621 0.73860502
0.07856198 -0.34034061 -0.23501268
-0.95392317 0.28426236 -0.22544590
-0.77474242 -0.14242435 -0.19189601
-0.98469204 0.60599977 -0.29848331
0.55516356 1.10058498 -0.70884389
-0.54330426 -0.54073775 0.23085651
0.49867067 0.55956328 0.55087858
-0.00134208 0.58026165 0.73260128
-0.20677106 1.11732614 0.75972271
-0.14986333 0.85437119 -0.78520548
0.75906777 0.78290737 -0.79919738
-0.44334874 0.96642435 -0.76352233
0.35940033 0.61194569 -0.73808092
0.22863853 1.30894148 0.01900801
0.24980986 -0.00336885 0.25191268
0.45590675 -0.02678329 -0.32443526
-0.17034902 0.97479385 0.72228706
-0.85216272 1.01841307 0.27815765
0.50394291 0.94044602 0.25872365
0.61611748 0.26303953 -0.62843043
-1.00167394 0.82468510 -0.19303001
-0.77594179 1.40460491 0.73064923
0.43304715 0.97701561 0.49253139
-0.88136917 0.23259932 -0.56736428
0.24685593 0.90213203 0.75838876
-0.39965412 -0.10305411 0.73940295
0.29190531 1.21870804 0.58197951
-0.51628596 0.81738257 0.75154489
-1.03962576 1.04529619 -0.43036988
-0.07591996 -0.54487276 0.54451489
-0.76988941 -0.05851710 0.50151139
-0.76922756 0.08588237 0.36034226
0.21788715 -0.53890955 0.04476184
-0.87035316 0.34603345 -0.77094299
-0.78252530 0.25767997 -0.65059918
0.19420382 -0.48881853 0.34796655
-0.19136512 1.12914419 0.75598538
0.21541753 1.24969625 -0.38501707
0.16247891 1.25528908 -0.23152800
0.03718754 0.31100720 -0.76647800
-0.71071374 0.13295373 0.18286750
-0.18255271 -0.44255167 -0.23736238
-0.63251609 -0.19400024 0.76969367
0.24572945 -0.20190507 -0.05693441
0.20496538 -0.54618430 0.48168644
0.07965411 1.44089985 -0.26740947
0.48179436 0.17505199 0.06574791
-0.24290833 0.71658814 0.73449242
0.46838939 0.66242439 0.53057140
0.80393982 1.01222205 -0.76849604
-0.72073191 0.37433609 0.63355690
1.00163031 1.11529684 0.15732640
-0.73344028 0.76251143 0.29978395
0.07840607 0.53366065 -0.74774694
-0.78157020 0.80332422 0.23924597
0.82646412 1.24882889 -0.39011130
0.27717981 0.22960827 0.65678293
-0.55964220 0.48534372 0.78173900
0.92214274 0.28698778 -0.77078122
0.10970514 0.82447553 -0.74053442
0.85392165 1.23968422 0.01293658
-0.56143034 1.49641681 0.04484898
-1.00047874 1.16733289 -0.55729884
0.89426953 0.92382562 0.25195956
0.31931239 -0.01708806 -0.05604270
-0.79887694 0.93891180 -0.78523892
0.25622043 1.32785439 0.61240488
-0.96932352 0.87059575 -0.73401141
-0.31981751 1.25784063 -0.64866507
-0.21047439 0.94600046 0.78929758
-0.08029370 -0.46480721 0.75179279
-0.42168766 0.25011373 -0.67670941
-0.41560593 1.52540541 -0.07368422
-0.53778791 0.20627421 -0.34825325
-0.76077950 0.04886544 0.15688296
-0.24793904 -0.25328970 -0.26607352
-0.46338478 -0.44866073 -0.11353233
0.51565099 0.98769444 0.28996435
-0.93003160 1.23203802 -0.06584930
0.55070424 0.71284467 -0.76503855
0.75668019 0.54625368 0.30269814
0.28961506 0.40561157 0.65776134
0.66679806 1.24507415 0.28166148
0.93869537 0.93121171 -0.73694217
0.25607765 0.82917690 -0.76953250
0.35596713 0.01233086 0.03620773
-0.70060152 0.30584970 0.46785173
-0.70535052 1.13919616 -0.76796114
0.70551503 0.26641023 -0.49652648
-0.73364329 1.17720675 -0.40642536
-0.78081274 0.76427734 0.22774307
-0.72410327 1.13482714 0.29262191
0.23341371 1.27649546 -0.61102211
-0.77549821 0.89336908 0.54964125
-0.25819191 1.09018695 -0.81265754
-0.01034556 -0.11890250 0.67678767
-0.33504325 1.48255622 -0.15681168
-0.74932468 0.34074342 0.29941064
0.11411986 0.90376914 -0.73189330
0.14924690 1.52723861 0.20387667
0.53092742 0.19439536 0.40729013
-0.53776926 -0.11369187 -0.25886571
-0.00144993 1.48737788 0.07795141
0.25830030 -0.35947013 0.48254958
0.77790695 0.26689380 -0.52229863
0.07668277 0.40202785 0.76512146
-0.72454464 -0.50737619 0.17004988
0.88471651 0.24723357 -0.09075291
-0.64376354 0.47856310 0.76721054
0.23793581 1.07275081 0.41456494
-1.03477073 0.32034051 -0.17441344
-0.74702770 -0.12328297 0.22046199
0.08188954 1.48489571 -0.20743403
0.05971790 -0.56925583 0.19261952
0.02122311 1.48098397 0.67229104
-0.40361509 1.24136949 -0.61510187
-0.68387538 -0.41417968 0.74117929
-0.37629956 0.49708903 0.77059811
0.66455340 1.17621398 -0.77947301
0.18345337 1.25289941 -0.69110984
1.00443983 0.82164860 -0.63197953
0.38753638 0.05924261 0.43537664
-0.73964202 0.94944090 0.62582070
-0.84619236 0.98775411 0.25940159
-0.81819636 1.24091578 -0.66990542
-0.45178327 1.45362794 0.20526503
-0.75277233 0.96063459 0.52811605
-0.21538104 1.11170268 -0.72711223
0.42180741 0.27994841 0.47326350
-0.56850976 0.48840854 -0.73298210
0.91790789 1.23817039 -0.10601240
-0.28463659 -0.02997464 -0.24795818
-0.23386809 1.39916825 0.70467752
-0.76279986 1.07016730 0.56666332
0.30147699 1.40581989 0.42242876
-0.11133020 -0.12552762 0.77506149
-0.23144321 0.12458107 -0.50377470
-0.11122809 1.38415432 -0.26966462
-0.51653606 0.17426920 -0.43575662
0.12329999 0.20262429 -0.64173132
-0.15024497 0.05391875 -0.42688167
0.91762608 0.71959871 0.26096061
0.41517410 1.25089574 -0.47833151
-0.30832550 1.43382692 0.76940858
-0.75511485 1.41387033 0.52090728
-1.01505339 1.12374187 -0.72231477
-0.92102236 1.27178907 -0.71797580
-0.47486606 0.19241256 -0.47856310
0.01857409 -0.51459372 0.55618638
-0.26443979 0.55648375 -0.79020184
-0.96115136 0.25770134 -0.05589851
-0.01043182 1.50638652 0.16354442
0.50289798 0.76936829 0.45062646
0.00984901 0.39672697 -0.77510965
-0.28999078 0.66092873 -0.75801790
-0.97637105 0.94045734 -0.33509690
-0.47916657 -0.45240504 -0.25624183
1.01282561 1.10732639 -0.52744108
0.63494438 0.23913655 0.07355479
-0.22229512 1.07944655 -0.80318511
-1.01203406 0.68220878 -0.71154714
1.00167465 0.72582901 0.04606024
-0.35456800 0.10609630 -0.48539442
0.47913122 0.04956311 0.26441780
0.98510653 0.71353519 -0.02657011
0.98360580 1.11877441 -0.41202828
0.40876630 1.04893494 0.21437450
0.19544517 -0.31574738 0.00042365
-0.27881280 -0.01674503 -0.27362493
-0.47602361 1.08970273 0.73825353
-0.75390488 1.32041025 0.11867711
0.52669328 0.17423189 0.25711480
0.23591185 0.03559768 -0.44885084
1.00521231 0.94387776 -0.40556151
0.50677586 0.23520023 0.04830527
1.05299127 0.46209943 -0.61096710
-0.29187921 1.27696788 -0.48230299
-0.83034569 0.51148671 -0.73290795
-0.76288289 -0.39713222 -0.11468367
-0.67888260 0.39713725 -0.75548863
-0.53502923 1.21073008 -0.61264479
0.37155852 1.22561026 -0.73624182
0.89665681 1.24019039 0.23948242
-0.87862861 0.93374419 0.28538668
0.53466761 0.05030802 0.02925913
-0.11490794 0.44684514 0.72458702
