4.45828581 66.40322113 1.37494040
-5.24843502 77.86985779 -3.96904516
5.73648453 78.97177887 8.30625725
8.38568974 80.63549805 -9.51449966
2.99757171 67.49333954 3.49963379
-0.28671852 66.83300018 4.59333372
-2.54952097 80.22221375 3.08561301
4.78784418 74.02904510 3.85866070
4.95937729 69.09399414 -4.44664001
2.18149304 76.71768188 -6.56896591
4.80846643 78.08167267 3.98115873
-9.21058178 81.03318787 5.73502874
6.89318085 80.65368652 6.62364674
5.46326733 80.81475067 2.13170743
0.99941248 80.77545166 3.71171713
0.47617820 80.65596771 -7.39438343
5.51634789 74.38211060 1.76003218
0.97207260 64.88154602 -1.48222792
1.17546690 64.56754303 -3.86194634
-4.78896141 80.18566132 7.32242441
-3.00673509 80.04969025 8.25638390
-3.53882742 74.58068848 5.70954895
5.61995840 68.02084351 4.38416195
6.65325212 74.93885040 -1.07625520
3.18922758 69.64640808 -5.23639441
6.56058073 73.82553101 -6.84845495
8.97696686 80.66596222 6.30611658
-6.19341183 67.92298889 -0.24950045
0.77365744 74.87548828 -6.61411905
3.77231956 67.72998047 -5.20792961
-7.89458227 78.03343201 -6.36489010
-3.37023497 77.71292877 0.43554366
4.47718239 73.33768463 -4.46460009
-5.63959932 76.95304871 2.64692473
-6.86831617 81.21105957 3.70934534
-4.49084377 77.46676636 2.26446128
0.44267881 78.36774445 3.94522858
0.50186872 75.60304260 6.21461535
-5.59253693 77.18383789 -1.19081593
-4.75190163 66.73848724 1.42215693
5.19584656 77.67537689 -1.75113928
6.04210472 69.91383362 3.48653007
-3.01051974 80.55733490 0.38259944
-0.55786866 64.05693054 1.67944956
3.22403002 64.09951019 -1.80113268
6.94816303 78.70099640 4.64538240
5.13892746 67.44922638 5.47797489
1.71243668 71.28057861 -6.70171976
4.62099886 76.94991302 -5.02224064
-0.81378603 71.82794189 5.80353498
-2.61661959 80.51142883 -7.66606236
1.09126425 77.97886658 -3.20389986
6.77937651 77.86727905 -2.13563776
-7.79454947 77.74836731 3.41477156
6.77850151 78.21031952 4.42031240
6.98699093 71.14698792 -0.56983268
5.66563225 70.33356476 -4.10302544
-3.72051859 70.28989410 -5.74718142
2.96815753 72.68914795 -6.08917522
-7.81775475 78.45145416 0.07218114
-7.58397102 77.38697052 -5.19938898
-1.02402639 64.59553528 0.35056084
-7.76752949 77.94226074 3.71686268
1.93076110 80.47325897 -8.52676582
2.27447057 73.97592163 6.01520967
5.30007792 70.17237854 3.13116431
4.78705978 71.10324860 -4.32587099
2.46911263 79.95103455 -8.36251450
6.13252306 73.87226105 3.33076429
4.03055477 80.21780396 -5.59681845
-0.77119231 64.39726257 2.05731702
-7.35317278 74.06380463 5.22009563
8.38648415 80.83203888 1.13349020
2.81194258 77.46710968 5.55582571
3.00737381 67.29709625 -5.17307997
-2.52070379 80.61763000 -1.78646970
6.84476852 77.47479248 -2.73734403
2.38154006 80.35354614 -3.08960962
-4.76532412 67.02437592 1.37317073
8.09686852 80.07092285 -0.08174435
-0.38565531 67.86025238 6.43695641
5.55898094 74.76843262 -3.07527757
5.55356359 78.44113922 -7.34592247
6.68860722 72.37751770 -0.01786537
2.98749065 80.60074615 -8.05144501
4.07970953 73.91499329 -6.13910770
4.41259480 71.36740875 -4.76342773
0.85958904 78.14971161 1.95565271
8.74161816 76.62886047 -6.50256348
-0.72778851 80.57202148 0.66740912
-6.88502121 69.51818848 -0.35181811
-6.06705999 80.41864777 -3.13492632
-5.22220135 79.61677551 -8.75712776
-4.83567762 74.04683685 7.57047749
7.27529812 74.36798859 -4.54133987
-4.81427288 66.96208954 0.73716855
-8.65233707 80.23500824 -3.16719222
4.34259558 80.61837769 -0.63602287
-4.07665300 77.76657104 -0.11937426
8.92107487 80.51786041 5.91965485
6.91097641 77.71713257 -6.44248962
5.60071564 75.29201508 8.12236023
4.45645571 74.34088898 -7.57609272
1.35686660 78.17728424 7.44317293
-8.10301495 75.45195770 -5.15525913
1.72488046 77.41732025 7.10725307
3.64254546 69.84397125 -5.44151402
-6.48513031 69.98839569 -1.94903183
0.74759847 77.80452728 -1.02052999
7.22108078 77.04600525 -7.09295845
6.37673044 73.92788696 -1.84942544
-8.21175957 76.09681702 -7.00340414
-4.67586374 80.40394592 -0.09363772
-1.32663894 77.22998810 -5.53761053
1.20968318 70.89765930 6.86722660
-1.39266038 80.57872009 1.01390731
-0.14327130 80.86647034 2.62029624
0.86126757 63.80649185 3.57608175
-7.49046850 75.05924988 4.31109715
-5.78405237 80.87600708 -4.93977356
3.08050704 80.37518311 -0.82252264
-6.65666103 80.72222137 1.81583214
-6.33322144 71.43746185 2.77772903
6.89782190 76.22807312 1.19609010
3.24372196 80.61909485 -2.99657512
-2.06945729 80.75877380 -5.49961948
-0.24378845 67.85750580 6.08336020
6.73679781 74.03177643 7.03188753
-4.75979376 68.98021698 -5.43180847
-8.77511978 78.98560333 -5.57182169
5.43727064 67.79969788 -3.47914195
6.43223524 81.19897461 -2.28489304
6.89545250 78.55583954 2.49776554
6.19711733 69.83338928 -2.00845242
-5.13845158 71.47799683 5.31813908
-7.72405052 77.55642700 -4.94227600
5.01281691 76.41285706 1.40362191
-1.78428304 77.94924164 6.48546982
7.57455730 81.24727631 -4.45675421
-6.80062008 76.66546631 8.50850487
-3.29279971 71.21490479 -5.95684814
-8.27986145 80.46529388 3.87210035
-6.06386375 72.62981415 0.56534058
-1.81616700 63.58979797 0.18610592
0.37349075 77.70265198 -2.17788148
-5.45751429 79.23195648 -8.78635025
-4.59551001 77.77416992 2.88772082
-7.03383398 74.38143158 -2.48431683
3.95005560 74.59302521 6.60392427
3.58672667 69.26378632 5.90591908
-9.20780849 80.86780548 4.39540720
-6.12166214 68.60593414 2.86139917
8.38765907 78.02619934 7.20794296
2.69552374 67.23318481 -6.71029472
-4.23288202 71.15934753 -5.79122257
4.38235855 65.05479431 0.13042441
-2.58469772 73.09403229 -6.01422691
5.93797398 68.16407776 1.51107264
-5.41324139 80.73684692 -1.27525258
0.58128560 80.13759613 -8.60969543
-5.42822552 80.84716797 6.98193455
-0.82002974 75.17266083 6.31382847
8.07834339 75.45065308 5.87364388
0.80430317 75.24045563 6.90056181
1.53376997 73.88610077 5.78970337
-5.75456142 77.11705780 -7.63447189
-6.41569090 78.37718964 -4.43119144
6.53252029 79.25791168 9.06302834
5.59317589 80.72850037 -1.26182485
-0.61486536 77.47650909 6.63767672
-6.52490044 74.80654144 3.92475009
-4.63586712 74.11396027 -7.32305384
-4.09974194 75.13047028 7.14969158
-8.30263710 74.30970001 -5.67729139
-4.09544754 80.79397583 -1.88275433
7.36044168 75.49955750 -4.94561338
5.21071196 73.86521912 -6.53194237
0.38312119 80.30258179 -2.30488563
4.23267794 80.63012695 8.04432297
-6.32201147 68.54045868 0.57721776
-8.55525684 79.63435364 4.22858334
-1.96848679 72.34372711 -5.90705490
-2.04467177 72.67805481 7.52839661
7.09051561 73.61595917 -6.51050043
-3.66931605 77.86953735 3.41885233
-4.27011919 77.55974579 5.94388533
-7.12511349 75.66526031 1.90009797
1.04971862 80.86227417 2.86334229
1.13112187 80.36043549 6.62404966
0.60342866 67.91203308 6.77371645
8.49674606 77.30939484 5.74351215
2.24946761 80.82130432 2.08097267
5.00163507 80.25072479 -8.18165207
8.49896336 80.19871521 -0.37562925
-0.73926336 80.27195740 3.50810575
6.58374596 74.94725800 -5.36136675
-0.10124151 80.89164734 3.05944514
4.21162224 76.32015991 -6.55262709
4.48551178 80.52650452 5.95764399
6.10182524 75.87001038 -2.35443306
-3.49758649 76.17507935 -7.29445457
5.22512579 80.80211639 -3.91493678
-5.21543407 78.10886383 -4.01209831
7.36577797 76.28262329 5.23715401
-5.02619457 76.93791962 -7.67698956
-4.65716934 78.09140778 5.55447912
7.16518545 75.15729523 -8.31950569
4.50004005 65.49389648 2.00504470
-6.60453987 77.59817505 -3.76615047
-2.93902445 80.76451111 -5.47364569
1.96840858 70.28572845 -5.38973904
6.98166132 74.18249512 3.81860828
6.05988455 71.68790436 -2.59242868
3.27240658 80.65375519 6.37997770
6.38117981 80.59107971 -9.31235695
3.94447684 67.25920105 4.47609901
3.56204605 63.73064423 3.70838141
7.80799675 78.92160034 -3.95115376
-3.88604999 80.87271881 6.34951210
-3.37355781 76.17286682 -7.45244360
2.20026517 70.88957214 -6.25508356
-1.98058641 71.34609222 6.33924007
4.78417683 74.69746399 7.28735733
2.37132287 76.87895966 4.98234463
5.19225264 64.37042999 -0.00950768
-3.56796765 66.66712189 2.71428919
6.34243393 73.72765350 0.20533368
-0.14005125 63.84790802 -2.12930894
4.03181553 72.07053375 4.73581696
5.02208614 66.68625641 3.02359366
-6.92852259 76.36638641 2.52579999
-6.96118879 80.54946136 -8.79280663
-5.28733635 76.78485107 -1.89729428
-0.86450493 72.28282166 5.01127577
6.73388529 73.51889801 3.30941916
-6.99038792 74.05358124 -2.43740273
5.88025379 76.54011536 8.49185371
7.11647701 72.44299316 2.52212882
0.19755678 64.18569946 0.31541580
-6.96090126 80.66010284 6.36440277
5.66446638 76.39566803 -2.88249969
3.61912775 77.44159698 5.83596659
0.25531420 77.63401031 7.78946400
3.65578151 80.53658295 3.71059966
3.02409863 80.62846375 5.12667322
6.24396038 68.91164398 1.22704720
7.29490232 78.48642731 3.58631253
6.07672310 80.08032227 8.82744217
-7.54169178 78.73358917 -2.92887688
5.39521503 75.62067413 7.51086378
3.77507234 78.16929626 6.34481382
5.40574121 77.07411957 2.53766394
-4.93722677 71.74826813 3.80704212
-1.90766776 72.70429230 5.72141361
3.79235315 74.84332275 5.94945383
6.35169315 80.85806274 4.59786177
6.64916325 77.81280518 -5.51813507
7.14402580 71.19189453 0.94951844
-2.73960137 77.27957153 -5.57477999
8.02666664 78.43600464 2.71510553
3.95877671 78.55224609 -5.73759317
8.54113579 74.30285645 -6.82614470
5.11203909 67.74128723 -3.94404888
-7.77908611 78.27557373 -2.63149738
-2.87644196 70.51654816 6.01609039
6.40890884 75.61053467 8.53517914
6.65327311 77.89167023 -6.02375841
-3.81240416 80.21074677 -1.41194320
-2.92530203 72.13600159 5.90526438
-5.48162889 73.40166473 -7.66083622
5.06227779 80.47037506 5.76370716
-0.80652142 70.80960846 5.85581160
4.58948326 81.00283051 -4.76335669
-5.85485744 80.77160645 3.55046773
-6.24703503 78.33170319 5.29108953
-3.18602228 72.64305115 5.68669176
0.36400944 72.37584686 -6.63868904
-4.24828911 79.59124756 -8.46207809
4.31775570 76.79025269 -5.13385487
2.55721450 80.72314453 6.63966703
3.02527714 77.45125580 -6.15053797
5.67026043 70.22078705 2.41970444
-3.52179432 69.17523956 5.60987520
6.97783756 73.62618256 6.86832476
8.58588791 74.79965210 -7.38733244
-6.38048792 70.84721375 2.59838891
1.42314446 74.25388336 6.57785654
-8.15462017 78.66152954 3.75866270
-1.19431293 76.34049225 -6.57104397
-6.59068203 79.84096527 -6.22728825
1.39978576 77.33518219 7.95833445
-4.21696663 80.82557678 0.46046230
7.17885542 76.82331085 0.79533899
1.25031710 74.48568726 -6.23980379
6.29458284 77.04468536 2.85678959
3.23289180 80.39426422 4.75856781
-5.66081285 72.52162933 3.71599483
-2.62855172 80.88333893 4.42430353
-8.82660198 79.25559235 6.52050114
-4.87863207 67.59738159 4.38300180
2.75081921 64.24955750 -2.21716499
-5.55587959 75.95403290 -2.61722374
-5.24923038 77.45403290 -7.45780134
2.53082609 77.18898773 -6.22404194
6.46075916 80.45162201 -0.40191886
2.30587316 72.54622650 6.37667084
-0.00063415 77.15348053 -1.51824868
-5.87138224 74.24212646 1.83432269
-7.49385691 77.92389679 2.22164202
6.12125111 78.12487793 8.01083183
-4.92809343 70.30755615 -3.78051090
-4.72575188 73.75424194 6.09479618
-3.71861076 65.99517822 2.80282331
0.97182018 80.67336273 4.11815882
0.90824032 80.57299042 1.68022394
-0.70752424 81.35980225 -3.18622351
5.68043900 73.12404633 1.98446894
1.91890705 77.34162903 1.27318740
3.95156932 76.86442566 7.06121969
1.24897599 80.43821716 -5.44284296
4.29226065 65.18547821 -2.98463869
2.42043471 73.93581390 -6.00733757
6.73682022 80.41922760 3.35431671
2.87660766 69.72052765 -5.43662167
3.08281040 76.25111389 7.03643942
-0.55493927 78.12165833 8.28414536
-5.99834967 74.79747772 4.91955900
4.90970755 80.65563965 -1.38057840
-6.69676161 73.97653961 2.64354205
3.43320966 66.00869751 -3.16753292
-3.74231696 80.54712677 -4.15096140
7.73679829 76.54363251 -9.04214859
-3.88885212 78.57029724 -7.86595917
5.09245872 80.80535889 -4.22178411
-7.37764549 78.40822601 -0.47533992
-5.84881115 77.87208557 2.10849118
7.22726202 79.69368744 3.27038121
5.43022919 74.31902313 -7.19550848
-9.02644348 80.47299194 -6.51346254
-4.75352716 66.07487488 1.26886201
2.73747349 71.34863281 -6.19077873
7.83323669 79.30314636 2.06756425
7.53970337 77.02749634 3.60162544
6.67316961 70.89952087 1.11812365
5.88390398 76.57125092 8.35840607
0.31002384 64.01664734 2.34681654
7.69955635 79.52829742 -9.52723312
5.83149147 69.93656921 -3.16750979
3.25618172 78.19445038 7.82985401
-0.67326707 63.66179657 -0.64135468
6.76587629 78.10424805 3.49192524
-7.36155701 74.24404144 -5.04568386
4.17126608 71.70216370 5.41893053
3.55535579 64.06414795 2.24405527
-7.91327810 76.75907135 8.73921585
-2.16926813 73.73258209 5.73698616
-9.16667366 80.05876160 8.18204308
-6.83142757 70.08766174 1.22021186
-6.68497372 76.20854187 -8.72646713
-7.30446959 78.93682861 -9.20569420
3.33199096 76.87815857 6.53635740
8.44685650 76.33015442 -7.30916119
4.70376301 70.69921875 -5.63240814
5.32427502 70.99785614 -3.42607450
8.44063091 80.83424377 -3.19276452
6.27167416 78.07991028 -4.30107927
5.75085115 74.82149506 -2.96888638
-6.65262699 80.62926483 5.95551062
-8.19851017 78.62368011 -7.65622663
-5.32250309 73.91340637 1.46074235
4.23321056 66.69155884 2.65855598
5.81585073 71.56496429 2.71641397
-6.22539759 70.20809174 1.91221058
1.15472543 78.02737427 0.09966469
-5.74401426 80.28793335 5.55507088
-6.79723120 77.60980225 3.20481706
6.85680056 76.45911407 -3.86748934
-4.31831312 77.17970276 -3.99444604
-6.10059404 80.68367004 -8.98016357
-5.68509293 69.15760040 3.74442315
0.03649545 75.27143097 -6.11790133
7.44923687 78.20022583 -8.42908859
2.82952213 63.71073914 1.51933932
5.57320547 70.84535980 2.16981602
-3.02440262 78.11111450 -7.83355045
-2.41171455 65.84008789 4.02275038
-6.43483543 69.87861633 -1.82576382
-1.84077704 77.65428925 -6.55695629
-7.69459105 78.21230316 6.88454914
-3.38993692 69.18022919 6.12093639
-8.21328259 77.51578522 6.23775387
-6.62651062 72.26417542 1.66631627
-2.97272873 78.14071655 -0.60013753
-2.24326444 66.17012024 4.53192854
-4.82884932 71.98966217 4.60400534
-5.75167418 74.45389557 -5.43209648
-5.66742706 77.54889679 -7.82593679
4.70361280 73.09610748 -3.97470665
-5.50375700 77.74880981 -4.82794571
-5.50927258 80.57173157 2.84082246
-4.69744921 65.54940033 1.19986653
-5.15060568 72.12984467 3.95383430
6.40309334 80.92224121 8.03311729
5.25732708 80.09297180 -6.33254385
-4.72831917 78.18941498 0.27611694
2.09987760 80.34357452 -4.83912373
-3.51099944 74.71572876 7.07466650
-6.83989954 77.66615295 -5.46491051
-6.37038136 74.25559235 -4.76153040
2.39439082 72.31035614 -5.31019640
1.07268274 78.31617737 -6.06325006
-4.81084299 66.15660858 -0.65352410
2.37915850 77.67906189 6.49977303
-8.43149757 79.91297150 -6.76521111
-1.85642517 80.52574158 2.03311920
-6.92073536 77.93977356 -3.98224306
-7.60065794 80.54745483 -0.67124879
-0.92123055 76.04608917 7.45771170
0.79108763 79.87962341 -8.72351837
0.38005045 63.88268280 0.88871139
6.04223585 69.92288971 -1.00078177
-2.82117462 77.59202576 -1.18672073
-9.68726826 80.36508942 -6.75153637
-0.52961898 80.42620850 -2.27868700
-5.70679808 70.79427338 2.61328244
3.19746828 72.71585846 -5.91204977
-3.88231063 65.97413635 2.92828798
5.79278183 68.23048401 -2.67592406
6.71100807 80.30139160 8.71193886
-7.66372013 80.56764984 -8.70855141
-1.77884936 80.62373352 -4.34947348
3.73416138 73.94220734 5.09160137
-7.09828091 77.16885376 -1.67972147
-4.87112617 70.98998260 -5.46543598
-1.19252765 77.97593689 -4.01138115
6.86248875 72.62104797 2.62500954
1.21422660 64.29009247 4.08562136
-5.43306637 80.83892059 -5.92720032
-4.40092897 70.58194733 5.21821451
-3.52823591 79.80021667 -8.59448051
-5.73702192 80.67809296 4.25106430
5.80843782 68.33557892 -1.92217910
-4.01505423 77.47727966 -5.45010090
-2.71820521 67.81516266 5.27180052
1.90713549 73.54723358 5.98355675
3.05024648 77.87482452 1.87719536
4.43737793 80.76676178 -8.10339546
-6.63826036 80.53227234 7.49937725
-2.41698217 79.23873901 7.84842396
2.11028171 78.48161316 3.77943301
0.81953907 80.69272614 5.96150208
6.15374899 77.75130463 -2.22649288
-2.15807128 65.56638336 4.12418461
-0.66918838 73.42377472 6.50777197
-7.33363056 76.17008209 -4.86262846
2.41057253 72.78771973 -5.67734814
-4.00705338 79.53237915 8.26403427
8.62001133 79.47893524 3.08569217
-0.94822395 77.94276428 -5.64881611
-1.39358950 80.07392883 -8.83161545
-1.05502903 77.97032166 -7.53206921
0.22207393 70.60245514 -5.99317932
0.42585549 77.77110291 -5.01923037
7.33117914 78.05628204 2.61179614
3.30909586 78.92868042 7.37794495
5.50050545 79.93952179 8.92742920
-1.54528594 78.03202820 6.83606815
-4.53327417 69.31191254 -5.22367954
6.65171814 73.24387360 6.37160349
-6.29251862 77.13462067 3.73758316
-6.24770498 80.72854614 -0.25108132
-7.12724447 78.05278778 5.95910835
2.25836825 67.11869812 5.46593094
-5.02385187 68.26097870 5.16543055
-3.02857518 78.03250122 -5.62488222
-7.90212774 75.60588074 7.80267715
8.28691769 76.39768982 5.68389368
3.05726814 66.24660492 -3.76808763
-9.62500572 80.42254639 -6.57282019
4.35096025 64.30453491 0.93001777
0.74388272 70.75190735 5.40818930
7.18518257 80.77249908 3.63628817
5.95329046 67.13130188 -2.93029499
-3.47253180 80.72034454 7.87428045
1.01427376 72.48948669 -6.40940809
5.95202589 76.24516296 -2.04504871
3.47967148 78.07044220 -1.81371689
7.38507891 76.11019135 -4.73267269
5.75891542 71.16216278 2.88189816
1.41075933 74.18334198 -5.85609722
-2.25294566 75.04737854 -4.76941395
-6.70082235 77.99699402 8.11855507
3.72032595 77.68424988 4.32312059
4.90888786 65.29782867 0.82265747
6.41142178 80.39939880 7.70976686
4.86163378 66.88025665 -1.80391884
6.85221863 74.84634399 8.63537598
-2.27726579 67.46642303 4.12080908
-6.50885296 74.25874329 -1.86893761
2.11088538 80.80505371 -0.78341573
-3.01018214 77.56919098 -6.75178242
6.37937689 68.69441223 -2.30998778
4.84606028 78.05495453 -3.48763537
4.80374479 68.81143188 -5.43819666
5.64389420 76.84230042 -3.70675826
5.72432184 68.62633514 -2.38299227
7.52100086 75.46085358 -3.75304651
-5.86075163 73.90573120 4.01754999
5.09167767 76.56696320 7.40521860
3.22504210 73.62861633 6.63809538
-4.34476376 76.28330231 5.37567377
-4.22703552 77.83875275 -3.62397957
1.35443223 64.50592804 4.19427061
-4.99866343 69.74901581 -3.81627202
0.48511878 64.13704681 -3.89798951
-4.18101645 72.34130859 5.23947668
-8.59950542 79.54035187 -2.28890252
-8.13428497 80.23879242 3.83999157
-7.11617994 77.10768127 4.02115297
-3.91325569 77.82972717 1.39466512
-8.15742207 76.14596558 8.33240509
-7.36226368 80.60593414 1.46465397
-0.74509430 80.40979004 -3.09405780
-0.80209190 77.66358185 7.40968943
-1.52918649 79.81809998 8.44976616
-5.95119143 69.76440430 2.94820952
6.41969585 67.76863098 1.80770504
-4.65726423 77.80659485 4.55881929
-6.68418407 69.90547943 -0.56271416
2.33701253 76.19768524 -6.02169037
-7.93731499 79.12940979 -2.62102485
8.10973358 80.46868134 5.17259550
5.34763813 74.13661194 4.14855289
-3.31960821 77.21914673 -6.90557003
5.71454906 77.68946838 -3.54724288
-4.10234213 66.01937866 3.52220798
8.31647396 80.59925842 5.75154114
-6.76246214 80.84561920 7.40712118
6.04643345 81.11579132 -0.47066665
-4.26930571 78.06585693 1.32394218
-5.08891296 67.88852692 3.94495440
4.14527702 78.06420135 -4.14601851
-0.90626764 80.68544769 3.22981358
8.24844456 78.68704224 -6.34908056
8.85747623 80.41551971 -8.69117737
4.92666197 77.83029938 1.25519586
-5.72937489 74.11744690 4.69483328
-4.59206343 80.67201996 4.57428789
-1.73522782 72.78104401 4.60540485
-6.23144627 76.68921661 2.60507679
-7.78072929 73.88520813 5.76852465
-1.36090314 72.09123993 -6.00803852
9.79033756 79.55915070 6.33564377
0.69317204 71.72945404 5.77716541
6.99822187 74.29965973 -5.73684931
5.85143232 80.62901306 -4.17317009
2.28684878 79.01307678 -8.07513428
5.87134647 76.39058685 -3.75663447
-0.21779700 80.55994415 6.09898233
5.61365891 71.04634857 4.64320660
0.45370188 77.64342499 -4.05913687
7.08583832 75.71276855 -0.92561507
-8.36324120 76.65151978 -6.27036524
4.91212511 67.24100494 -1.93239629
-7.25728655 80.40109253 4.83492327
1.55296516 70.03782654 -5.79771185
6.82261515 73.93383026 -8.44680977
7.57964134 78.78610992 -1.11517715
4.24905300 66.07032013 -2.38372374
-5.60583019 67.34269714 3.77013659
7.36740971 79.41655731 3.62768054
7.89653397 78.96816254 -5.13502216
1.16855919 64.09846497 -5.00952387
5.39397573 77.79132080 -0.64307100
-9.30123901 78.76176453 7.49513483
5.48635149 68.32516479 2.32095313
0.96294290 73.51180267 -6.34027243
-5.31656218 71.28212738 -4.60824060
8.90805912 81.11493683 -4.43615103
7.87963486 74.26123047 -7.67285156
1.08754969 80.90097809 8.10393143
-7.52983856 77.52206421 7.88613749
-5.06143665 68.01670074 -5.18507338
-2.78045297 75.94627380 -6.80063677
-4.47223663 75.85596466 -7.20949507
3.14401555 64.11458588 -3.81483054
-5.86414003 78.15329742 7.87546778
-8.82731724 79.81060791 -0.68607622
-5.50568676 75.47216034 3.13492465
-4.31111765 64.94051361 -1.99913692
-6.00565529 80.67040253 -7.23413324
-5.87526178 72.46537018 4.94780731
2.20344901 67.92965698 5.77893782
0.60170507 74.55561829 -5.66449213
-6.13321018 76.72773743 -8.51330948
-5.76768398 73.88807678 4.74324656
-2.08290911 77.95032501 -5.30438185
5.63823509 70.59291077 -2.88445306
4.81672668 77.47561646 6.99170399
-4.40189743 71.85827637 -6.16018438
3.23945236 73.48727417 5.89325571
6.00466204 70.06191254 1.62053311
2.65986347 71.20526123 5.41255379
-4.80713940 73.45344543 5.74174404
-0.74977958 77.21066284 6.80026722
7.53548050 80.32334900 -3.11702800
-3.01255131 77.38753510 0.22293341
2.47058225 78.31916046 6.50039482
6.64062357 77.08023834 -2.94780993
0.83293879 80.36613464 1.73347902
2.85495329 64.09136200 1.08348894
2.08577323 64.63656616 3.63863158
4.00545835 77.48725891 -7.13492584
2.65116072 68.67577362 5.57765722
-5.38297462 80.44718170 3.10762763
-4.76882553 68.28746796 -3.78924084
-5.08637238 76.27033997 7.58194447
3.67617178 77.40549469 2.75721574
-6.82688236 77.88625336 0.14490958
-1.87547278 81.17298126 -6.88617992
-5.06268358 65.57437897 2.12380743
-5.69078064 69.86679077 2.24097872
-3.97027493 64.77101135 -2.92926598
6.59150267 76.91896057 -2.71551728
-3.40843415 63.79066849 1.02655935
-7.06641865 71.94639587 2.12139988
-1.55241334 64.51541138 4.35648918
-5.46635437 80.51187134 8.32761383
1.29712987 70.30524445 -6.45554066
4.47817087 71.46337891 -4.46914673
-1.93381846 80.81346130 -3.57510185
-5.13562775 80.87499237 -0.12683231
2.74494576 70.49521637 -6.14548254
-2.96635628 72.73738861 5.02921391
2.09812307 80.40810394 8.38023567
-6.63896847 78.35330200 -6.99509382
-5.69331932 80.58757019 2.97139215
-1.31073320 72.10595703 6.67032385
-8.50664616 79.38049316 4.92487764
5.52252436 80.68634796 1.37926650
-0.96652913 67.07188416 -6.88250732
3.35101151 77.35214996 -5.88818789
-1.84770250 77.99758911 -7.55673981
-6.24391651 79.12297058 -8.94212914
2.28317952 77.20181274 -5.09578323
-3.94363499 65.06294250 1.90248311
-4.22993135 64.05093384 -1.57674038
-5.68359041 80.52404785 -3.80171490
-1.21590149 78.66254425 -8.25043488
6.84766197 74.18234253 6.88319492
-6.22100687 69.59779358 -3.19150901
5.11574745 72.30400848 -4.70972538
5.65161371 74.37040710 -4.97663879
0.33370394 80.47563171 -5.48077774
2.69558549 77.07821655 -6.64632607
-4.78842545 75.50098419 5.04672670
-6.93253660 80.50903320 -5.47765636
-7.37758875 80.76230621 -5.48318815
6.65657520 72.36355591 1.41042733
-0.66798961 80.49359131 -7.78563881
-4.75504398 64.72466278 -0.65914088
8.89570999 79.42601013 8.18996620
4.38193750 72.08699036 4.13033628
4.80113840 74.87186432 4.09329224
-6.24469042 80.35813141 3.58079743
-3.03823662 80.67061615 -5.08070374
-4.94048691 79.43231201 8.56774330
3.28176737 77.67494965 -1.90371740
-7.99184513 75.74424744 -5.36039066
-3.30165792 69.54600525 5.05874157
0.55416477 78.12808990 -1.89335442
1.45191240 80.43028259 0.55388767
-5.76318645 80.67583466 -4.41629410
4.47964907 64.30306244 -2.23685193
-4.98239326 80.55510712 2.00227976
3.34320617 71.79319763 -5.66207552
4.45488691 80.00744629 6.74106693
-3.02616382 67.20155334 -3.50455403
8.65828800 80.02809906 2.07405782
-5.98808146 68.34972382 1.23965502
8.80371094 79.67636871 -3.99784875
-1.30468941 77.78669739 -0.30577952
2.65247321 80.26928711 -7.55158663
1.23431790 77.95932007 -6.84507799
1.09997916 65.40508270 5.06272316
5.96824026 75.19436646 -2.05415535
-2.50146604 64.31877899 1.55514920
-0.77329814 76.55445099 -7.29639864
0.70133084 77.64897919 -5.50271416
1.37641943 70.78674316 -5.85971498
3.37879157 77.75002289 -4.45601511
-4.29683781 73.18923187 5.27580404
2.16815472 78.08815002 0.76872396
0.64827484 78.10533142 2.96615601
-6.46913338 73.58106995 3.12032175
-0.84396523 77.64162445 6.17222929
-3.57669783 75.33065796 7.26301527
6.05581188 67.44165039 -0.66562188
-1.07831478 64.41817474 -3.68313146
-5.42134857 80.94610596 -8.84359932
-3.90844440 71.61195374 4.98506260
5.98324966 73.00686646 1.26806629
-0.00355563 64.54741669 4.84006453
-4.73581076 80.27143097 -7.32505703
6.42723179 80.93048096 4.30596399
-6.07109404 67.82153320 -0.61483479
-8.23338509 80.34397125 -4.09409571
-1.13576961 77.93724060 -1.74367309
2.08968925 80.70483398 2.44093013
2.86358356 68.28445435 -5.44549370
-0.63975090 80.29170990 -5.06511450
-6.02382660 73.73770142 2.91140127
3.77685523 72.96424103 -5.78631735
-3.26471257 80.51036835 3.48889136
4.29709053 65.63828278 -1.76823771
5.53209066 74.87145996 -5.60558605
-3.70799279 78.28117371 -5.05888987
0.90786833 63.75062561 -3.06428623
2.20125222 80.04344940 0.81984454
1.24749422 75.20345306 -5.18312168
7.48353148 78.21414185 4.09314823
-7.46621847 77.15381622 4.39664745
3.29227853 69.84672546 5.85262632
-5.26695824 77.94015503 -0.40353340
7.93158484 78.80718231 -1.27113152
6.35932541 76.43704224 2.84349966
0.59821749 71.45005035 -5.80736399
-6.47917175 78.28144073 -1.30493820
-6.22312212 73.95627594 -6.75695181
2.64361644 77.65848541 7.74335909
-1.42908382 79.36126709 7.97626448
-8.02813625 80.62966919 9.17935753
-7.07515621 73.02851105 2.45729661
-2.66339779 77.32714081 5.66085577
1.20767891 63.65435410 -0.00076746
-3.92557359 67.99736023 -5.12265539
-4.01806879 80.62009430 3.52919936
-0.34930399 77.62369537 -2.87938809
8.88819885 80.54116821 -6.96170712
7.15734673 78.02172852 2.41232705
-6.80351543 74.53611755 -2.08409262
6.46490908 80.74190521 6.28668404
0.58979768 64.17796326 5.24776077
-2.74703145 77.79253387 1.75783432
-6.22315359 73.95916748 2.25019336
-0.18161990 67.38904572 5.16015339
-7.27674913 76.10888672 8.43969154
0.41710505 80.80541992 1.87896264
-0.31408578 78.16288757 -4.78212690
-2.44634604 80.10157776 -8.57136917
5.39072895 78.27779388 6.07812262
-6.80216837 77.51068878 -6.49685478
-5.54940796 70.22409058 -4.33807278
-6.27607679 73.92574310 3.55164719
7.27018690 76.27179718 4.49798632
-2.37951779 77.99925232 -5.61778975
3.64968967 77.76506042 3.58195257
-1.54315495 77.90950012 -6.98918581
4.05612564 66.95197296 2.64773107
6.27795124 74.79585266 -1.87127507
0.17130406 67.75141144 -6.38438416
3.93134332 67.43578339 2.66862059
-0.79759330 80.49400330 4.00348711
6.34254456 75.63415527 -2.72170734
-3.26426578 80.65702820 1.91089416
6.15970755 68.62226868 -1.19699335
-5.43226242 69.54286957 4.12979507
3.24336267 80.67863464 -5.32613373
-3.27681708 72.21987915 5.74236774
-5.98535013 67.89198303 -1.42606068
-4.37345886 66.50004578 2.59499812
6.25042868 78.30110168 1.80356276
6.18688011 73.81515503 -6.00570536
-5.10039425 76.62459564 5.33589077
6.40026808 73.24810791 7.88563013
-8.22410393 80.46626282 -7.84281540
1.78704035 75.76422119 5.86074495
3.46382165 65.71461487 -2.76744199
5.57402611 74.16732788 6.30709982
-7.47949743 76.27925110 -0.14413346
-0.84054631 80.57583618 6.70109940
5.92160892 71.31900787 4.12411594
-6.05950212 69.58945465 -2.91263247
-3.03491354 80.58802032 -0.08084035
-4.16875029 66.43458557 3.50243831
7.66420698 80.60969543 -3.42213845
2.51530790 80.30706787 -8.13725853
4.88837004 65.75570679 2.12885404
-5.30845308 76.87112427 2.20269156
-3.79925466 79.97415161 -7.14186907
6.41830349 69.53235626 -3.06558251
-3.47170830 68.47877502 5.88161945
-4.99999189 80.62205505 1.57751441
0.47930920 67.68605042 -5.91446733
3.77369070 76.32907104 5.80469275
-7.58548355 78.08801270 -7.95652437
-2.66347980 67.81702423 6.00079155
3.21101403 80.88741302 1.53275764
6.66139126 76.69929504 -3.41037655
7.93764734 79.40936279 -4.22373581
-5.56077003 73.78774261 -3.82074213
-8.04794216 81.00424957 5.51095581
-6.96922827 76.38624573 3.35274267
5.09800291 75.80567169 7.33198452
1.60589743 80.21421051 8.33962440
-4.96700382 80.10027313 5.81958246
-6.20090103 66.96874237 2.77960849
-6.23090982 80.32043457 -2.49353671
-0.63759643 80.83376312 -6.24714947
1.68655634 67.61694336 6.25433493
-5.12821245 70.35622406 4.53593588
-5.15493774 78.27232361 -5.90444231
5.45429897 76.73656464 -4.16944981
-7.68569708 74.27127075 7.66606712
7.30609560 76.38253784 3.26546597
4.61944151 72.91537476 -5.02248335
-8.01812363 80.59070587 1.97309089
3.23872948 75.00311279 7.39940405
-7.19173813 78.35785675 -8.89572334
-6.60462523 79.69570160 -9.24552917
2.42898393 75.00306702 6.19704437
-2.56531024 69.95598602 -6.33344984
4.62242603 73.96756744 -4.25511408
5.60773754 68.85114288 2.96776485
-5.12405396 80.43063354 2.65617085
-4.86375618 77.92747498 -4.28824854
7.62256432 77.30886841 -3.07390928
-7.60047960 75.04891968 -4.48759651
-5.56515217 77.91911316 -3.62314606
1.01990879 69.84580994 7.04597235
-2.50526309 71.26868439 5.72228479
-8.46972370 80.57913208 -4.94180107
8.43438911 79.41937256 -8.87445641
-5.41076422 69.84997559 -3.33130741
-5.89395332 73.81032562 -7.88421535
-4.43406153 75.47685242 5.27260303
1.27397418 64.43283081 4.00487471
5.48575926 70.37149048 -2.84812784
2.79390097 80.73358917 6.07294989
-6.71290588 78.02737427 0.17952387
-7.41053724 80.20704651 -7.84537268
6.07756186 75.13176727 2.46160388
0.12598886 77.90947723 0.67225122
-0.54549026 78.20581055 -0.44353819
5.86061478 73.85350037 7.73091984
-0.39252037 71.29193115 -6.27218437
4.89946795 70.59097290 -4.18001556
-2.18200755 80.38938141 -7.22092867
-6.22590208 67.68362427 -1.85923219
2.45926595 77.48693085 -1.28091919
7.74948835 75.46880341 -8.54892349
4.24683046 80.96920013 0.21082847
-6.20999241 80.52937317 1.64835119
-4.90747881 72.95267487 5.47570086
-6.62444639 75.37932587 1.58470595
-3.92361832 74.68361664 -6.81583548
-8.97459793 80.47235870 -5.24254465
-4.41944408 77.77488708 3.58174181
8.75274563 80.01198578 -4.89962816
2.37296796 80.87306976 2.68034363
2.88731599 64.59025574 -2.96334314
-0.09795211 80.55279541 2.84438229
-0.16690131 77.54666138 6.42787552
-7.11889172 80.10158539 -6.75641632
0.88795340 66.45754242 -4.36034203
5.35401249 79.74095154 8.57275963
5.12160158 69.02688599 4.34422827
-9.05698776 80.39592743 -8.23572922
6.33185863 77.93286896 -7.61300230
8.83088684 75.74801636 -6.84197330
7.27151585 74.76319122 4.73072386
-0.58367139 79.30658722 7.60256815
0.07416686 63.75392532 -3.03695965
-2.24272680 75.78498840 -5.47662115
-5.21938610 75.55866241 -1.76623094
-6.74082708 73.46924591 2.02183604
4.34150553 69.53212738 -3.95948601
3.47198439 76.45971680 5.70864391
-0.68541253 65.02729797 -4.84987450
-1.11310601 65.29555511 5.04809809
3.72116852 80.56658173 3.19463086
-7.78894281 78.36603546 -2.37455130
1.84285843 73.08457947 -7.36886930
0.04338788 81.07828522 -4.25679731
2.73093390 63.79304123 1.82313681
6.18914270 72.88470459 -0.65616816
-7.33507252 76.37003326 0.93681151
-1.53679860 68.22489929 6.20997953
-0.65698510 80.46253967 2.99639940
8.96485329 78.82175446 7.01387691
7.49474907 79.27419281 -3.06549358
3.05999255 70.28683472 -6.39086580
1.38419890 64.91902924 -5.05576372
-0.42322445 64.51759338 3.39579964
7.80673981 80.55572510 -8.66003036
-5.51067543 75.71495056 2.03357911
6.01415205 73.58747864 8.08987617
4.50553036 69.56644440 -4.92462111
1.68255568 80.80322266 4.90161514
-3.16690612 79.53647614 -7.56755781
8.34143543 77.73983002 -7.57660437
-1.97176909 80.58457184 5.45633221
-6.82853889 74.00751495 -2.42446280
0.48106474 79.18953705 8.03570557
5.90314198 78.81738281 -5.53089571
4.82088995 74.71519470 5.86834574
-2.56227708 81.04089355 -1.41512501
-6.81146622 74.96627808 1.20048916
1.98678875 75.50130463 6.61440563
-5.29867220 74.19766235 -6.56697607
7.48959446 79.88817596 -0.45498201
0.93624443 78.59437561 -7.42913246
-7.35715055 77.76610565 0.41668648
-4.82372236 73.72204590 6.74075985
0.70332617 67.24173737 -4.49694824
4.85974026 73.56063843 -5.04199505
-4.80192804 74.24301147 4.49234152
2.43262267 78.32951355 6.01049185
-2.85140538 79.62622833 8.15674400
-2.33135390 80.21166229 5.82477427
-4.90958977 66.47203827 -0.65047449
5.07657003 80.28382111 1.05291057
3.30040979 76.46876526 4.77316523
1.16069782 80.57596588 -6.70263672
-6.07155514 81.19027710 7.13097572
2.58624816 74.90863037 -4.89293671
1.43160057 64.87366486 -4.28412914
3.74408937 77.73564148 6.78863716
7.75164461 74.17071533 -8.03469658
2.04391432 64.47240448 4.65499496
-2.56064630 80.13270569 2.61527729
-7.84519625 74.47418213 -5.56904459
-4.88501883 71.31027985 5.27564192
1.44135082 77.60263062 5.38095951
3.16022992 77.83648682 0.39259383
4.14921236 64.24945831 -0.04286465
4.27251482 79.38722992 -8.05731773
-6.27323675 74.69400787 5.44553566
-3.43469357 73.71945953 6.11464643
0.12193211 80.14083099 -4.04783583
0.22368622 77.90533447 0.73849034
7.16197395 75.99465942 -8.45794487
-2.59374905 74.70422363 6.49505711
-5.59674263 71.86816406 3.84009051
-2.86536503 67.03379059 4.59548998
3.14884162 67.00241852 -3.78927445
1.29746509 80.75111389 -7.49824619
7.33330059 74.50219727 7.36878967
-6.23601770 77.00460052 8.32703781
-6.70537043 70.62223816 1.92638063
-5.26780891 76.02198792 7.37370110
-5.23721886 69.48553467 4.30478096
-6.02480793 80.67877960 -2.28267884
0.40241402 64.06756592 -4.73210287
-1.82764804 81.32902527 -4.49491882
6.62462997 73.60168457 0.61011893
0.97053558 76.29239655 7.51180220
8.65407562 78.63791656 3.97851181
2.48211908 70.50318146 -6.67304182
3.55616713 77.99884033 -1.39989483
5.56025219 78.19145966 7.83717537
-2.09282398 72.74094391 -5.62642574
0.82465148 80.55726624 -0.07353342
7.24659109 75.60306549 -8.84930038
-1.78630042 74.02927399 5.35073185
7.26727915 78.22323608 -6.78787184
-1.95626962 74.79618835 -6.16522217
-3.20544052 80.57259369 7.56239462
-3.88633108 75.21668243 5.48351622
3.60439968 74.93786621 -5.35419416
-3.84019423 77.30116272 5.99000168
-4.36645269 66.81947327 0.56943089
1.95162928 68.79084015 -6.05082464
0.22027959 64.39753723 4.75175619
-3.83303928 68.43143463 4.87658644
-1.69857979 67.88909912 6.81515789
5.27393675 75.52346802 7.11451149
-1.31836426 77.68081665 6.74108839
6.71966839 75.36965942 -4.44507980
6.42455912 72.95785522 -0.81887954
1.60048473 68.78770447 -6.53824663
6.63096189 75.12693024 3.88675165
-3.85122061 76.44047546 -7.49775600
7.36002350 78.88220215 9.95596886
7.19676781 79.93728638 -9.96960640
-4.91934633 81.10774231 -5.31727171
-0.82367772 64.35893250 2.75552225
-1.53751993 73.69859314 -6.94269800
-4.34406853 80.47093964 4.71928072
-8.98977947 80.82859039 6.01000977
6.47878933 67.48104095 1.16985953
1.68988299 80.62896729 -2.53917956
-2.36131454 69.19545746 -6.66334438
-4.27382994 79.50712585 8.07353973
3.05761433 64.03602600 -1.58191872
-6.59297514 73.67776489 0.21644796
-7.43654442 77.70721436 3.43746305
4.70596409 75.31166077 7.36453915
1.47041416 80.61199188 4.27609158
2.08795285 64.04329681 1.26131058
-0.82934570 70.76199341 -6.43314171
-3.29934049 70.81104279 6.29079962
2.20166707 77.79929352 -7.24158907
0.15114975 80.82060242 6.26402903
1.99438810 74.36098480 6.82412195
2.06806779 77.61537170 2.21355987
2.83363748 80.61270142 -6.09907770
4.24352217 69.07833099 5.20877123
-5.33252096 73.42641449 -7.30657911
-7.48762751 77.50096893 -6.27979136
3.47175384 78.03590393 2.17155528
5.78897619 70.10015106 -3.84506226
3.23543024 76.25145721 -6.91927433
-6.86746788 67.47329712 -2.95573020
4.40318203 69.48216248 -5.64225626
-5.79060221 74.12194824 1.88141906
-6.48582745 76.77450562 3.45643520
8.24551964 75.04632568 -4.74405146
-4.19290400 69.36917114 5.64732790
7.21443415 80.14275360 -4.91578007
-3.58892488 80.94838715 -3.34772253
-1.07687914 73.43344116 5.63795090
-2.71012568 80.31134796 0.04057611
1.90061247 80.58380890 -3.87052107
-0.22893101 71.32690430 6.58470678
3.96114445 80.66326141 5.68668032
-2.57809639 69.09678650 -5.73354816
-0.97008145 77.81427002 6.79417515
-6.76758432 79.66223907 9.29590225
-4.55818748 70.60160065 4.12680864
9.70301628 79.59162140 -6.76197529
1.84639668 80.17759705 -1.37158525
-5.23007965 80.47558594 1.59331262
-0.25734028 75.75063324 6.08572006
5.10933304 75.88761902 -7.95348978
7.47787142 71.42269135 -0.92783844
0.69217765 80.43983459 -4.24153805
2.65147185 79.17038727 -7.85459137
5.60325909 70.40587616 -4.72209930
3.77592921 68.72999573 -5.15395308
8.04865837 74.52863312 7.17529488
-1.20893991 63.52139664 -2.76707101
4.12770748 68.67822266 -4.72619343
5.74388838 80.27216339 0.22578511
8.87604141 80.94380188 -8.02593803
-7.28848171 80.54769897 -0.20598064
4.55698490 79.68930817 -1.22452807
-8.84914875 75.38900757 -6.53825951
2.93711615 66.93091583 -4.14569712
-3.43857336 73.99362946 -7.13586569
-1.41618884 78.18970490 -5.91085768
4.47896576 77.01233673 5.66300154
-6.71797323 80.01612091 9.14680481
-0.58732700 78.02049255 0.78485322
1.76666057 71.67569733 6.33450365
-4.31692219 70.56210327 5.19300032
-6.32995272 77.98075104 -7.62653351
5.82608557 67.37750244 1.30213809
8.73911476 80.44230652 -3.36478209
-0.43245026 81.07955170 0.36382774
-5.50723934 70.46495819 -0.97167653
-4.26628876 81.01271057 -2.45509338
5.60640001 79.96572876 3.19234252
3.38032174 71.14262390 -6.12473202
0.33589172 77.74826050 -2.02437210
0.87544072 65.84277344 -5.44685841
-3.68980861 75.25982666 5.81948948
7.95452356 79.78507996 6.15964556
-4.73330402 73.40576172 4.25970888
5.43033600 67.21871185 -2.51247716
5.39326715 68.11362457 2.84844995
2.36690068 68.65914917 5.73483801
8.26580524 80.54111481 6.41826725
5.89665985 73.37714386 2.32315612
2.37781787 69.98727417 6.85135651
1.00609386 77.50518799 5.90921021
7.93759298 79.38737488 -0.92550576
5.12154818 77.63796997 0.42861626
7.23766375 77.92558289 3.36749625
-1.96146345 77.58582306 0.88691086
-1.31439722 77.35573578 -5.86568928
1.04290593 67.42763519 -4.62687492
5.79905605 72.43089294 -1.28616357
4.65449762 73.17642975 5.69562864
-8.55968094 80.50724792 3.56952333
-7.24531078 79.69831085 9.44235039
7.16920233 77.99320221 5.16731548
6.18423605 77.83979034 0.32337427
-6.95729923 73.61106873 -1.76646674
4.56556797 69.41867828 -5.12416887
-8.66648674 76.46389771 -7.88802099
-3.57256460 68.53378296 5.26136398
-2.68306518 64.02381897 -2.47213411
-7.77767515 80.84046936 -2.09120655
-5.23546076 80.47315216 7.31032944
0.95159429 77.90673065 5.77351332
8.21844006 79.43212128 8.81529236
-7.14077663 80.43051910 8.01187134
-8.17557812 80.65876770 -6.46879625
-0.72732657 68.52722168 -6.54465914
-5.64351034 78.17416382 5.87968349
7.77209473 80.42980957 -6.86650801
-6.60184383 74.33882141 -0.83903676
5.80229664 76.23579407 1.47284079
-1.94766986 71.83116913 5.52327156
5.07843542 71.91955566 3.45927835
-7.93214798 78.48635101 -4.79612875
-1.90630257 67.78195190 6.65395641
-6.35530376 77.77265167 -1.65235460
-2.96818256 64.25804901 -3.18187571
6.38737392 74.23009491 -1.37502348
7.33288717 77.46186066 3.69043040
-3.41798544 72.06693268 5.83546925
6.93061924 72.32945251 1.31701589
5.88551235 68.97065735 -3.94288588
-6.98282003 75.74403381 4.95676374
-8.59875202 79.28186798 6.31591749
3.91576195 77.60577393 6.89596272
0.44124407 80.86423492 -2.36028838
-5.83126020 69.53923035 -3.01925445
-6.85947466 74.23065186 -5.69162369
0.06204271 75.53618622 7.23580790
4.09527969 79.59642029 8.70435715
-6.45586205 80.94364929 4.79914522
-6.83101463 78.36460114 -8.76734161
-5.70100212 75.09456635 5.20724535
6.84189749 76.37474823 -1.08887875
8.09762478 77.80664062 -6.94901943
4.72201300 71.91180420 -5.06378698
-7.38301849 73.58566284 0.16904978
-2.46698976 68.32603455 -5.87193727
2.09695697 72.95827484 6.21274567
2.99282694 80.45954895 3.62498498
-0.93475002 77.55926514 -0.66788089
8.27125072 74.23355103 5.76165199
3.31151485 63.75562668 -1.50418222
-1.90893078 75.72608948 -6.70363951
-4.67043924 73.78969574 -4.28722906
-8.34196568 79.61096191 0.77805489
7.40403461 80.90737915 8.77447891
3.14648008 74.00717926 5.62307167
2.75260830 80.61642456 1.27908480
4.73497295 68.85305786 -3.67998576
-5.71336508 70.56340790 -3.39023447
-7.28041172 79.27943420 8.33384323
-8.41198254 75.34349060 6.08307028
0.98594344 64.01671600 2.86746359
-4.13726997 63.88289261 0.87140590
4.75096512 74.44223022 6.50162506
-8.75129223 79.79476929 8.93323708
8.70271873 76.37959290 -6.26025677
6.62411213 66.97896576 0.20873801
-0.22890861 78.47966766 7.17991543
5.42244816 74.22779083 5.28363085
-6.08945417 76.43483734 2.72505474
5.20546007 75.88936615 -3.53100276
8.42276478 80.23976898 7.53390217
1.80953288 73.12064362 -5.37444067
3.50111771 77.90670776 3.01632404
-1.87323415 71.85881805 -6.04917097
0.79863715 80.64389801 -6.68707848
6.91060734 74.67226410 -3.48116493
-6.37085247 75.55465698 -9.02873993
5.15698290 67.99128723 -3.23086977
3.16060734 69.09181213 6.22068691
-6.80370092 74.77703094 2.82951260
5.39800692 80.40514374 1.44893396
3.22789621 80.59229279 4.06695223
-0.71259320 78.91178894 7.06015968
-5.24106264 71.50572205 -4.38909721
-6.13365459 72.09637451 1.78965175
-7.50765181 80.75084686 1.34491074
-1.85780787 67.47095490 -4.55449295
7.35409117 81.34726715 -3.04781270
5.74301004 75.84613800 -3.15174508
-1.30597830 80.21945190 -1.33408415
-0.11168571 80.75765991 1.97700739
6.11663103 76.54623413 3.27156806
9.34842682 79.53604126 7.57363939
-1.89066315 64.24240875 -2.23422599
-3.01100302 79.55266571 7.92467308
7.43011189 75.01271057 -5.35206842
-5.09189081 77.54430389 0.20829540
3.17278433 74.13110352 -5.42711592
0.77270329 78.49285126 -7.07429171
-6.12015581 73.71472931 2.31363249
7.90825033 78.80723572 0.16929549
-5.24539471 80.54525757 -1.95423305
-6.56304026 76.33335876 -3.74666715
-5.62691259 68.72877502 3.24092293
-4.75384521 80.60713196 -8.08231163
-2.09804654 63.74852753 2.70150065
-6.66128063 72.79003906 2.44524455
4.72140789 78.25067902 5.60073233
-5.75545549 78.17709351 6.94256878
-4.56779528 81.41650391 6.29141951
-0.41285530 77.51246643 5.33798313
-0.94551486 67.77323151 6.24767876
-4.71527576 65.15829468 -1.18682778
5.86652851 77.20281982 -8.03414726
5.36903620 80.55664825 -7.47037125
-1.39169645 63.91411591 -3.03729534
-5.85702610 70.83078766 -2.45851064
-4.31180668 80.31223297 -0.34604213
-5.12406158 73.06756592 -4.02806282
5.83366346 80.69974518 -1.67930841
-5.54672098 72.95279694 -5.08924246
-3.09222412 73.03415680 5.76337147
0.18048574 81.00892639 -0.19072789
-7.13605881 80.14485168 2.18050575
4.97028828 72.99886322 4.26464415
-6.61473083 74.58330536 4.76781654
5.65926313 72.05381775 2.96024251
7.53060865 77.92588806 -3.41852379
2.99275923 73.29746246 6.49649382
-5.06776142 74.34548950 3.96644521
2.91571522 67.86466980 -5.63460732
-2.60639477 79.96616364 6.00740051
5.13605070 65.45584106 -0.95730740
-4.91442823 76.09892273 -7.14910030
8.48739052 79.86540985 -0.48701328
9.22021675 79.76014709 5.63828850
-5.53801298 76.70890808 -7.82058716
6.96023798 81.02915192 3.21872425
-6.62635326 81.14144135 -3.97086596
-2.33131647 77.60068512 6.63806963
0.60384953 78.37422180 2.16363597
4.16081667 71.24006653 -5.90935612
3.53798008 67.54589081 5.85014391
-9.10170555 79.07709503 -4.40987921
4.16224718 81.37413025 7.26283121
0.46101812 78.68876648 -7.97333717
5.57825661 78.35192871 8.03088951
-1.55005801 73.51392365 5.23333406
5.86934137 77.30223083 3.05195498
2.86909199 64.83638763 -4.50764370
1.93009388 71.47241211 -5.96532917
5.93762970 67.15226746 2.60057020
-7.52092123 81.32564545 -2.81333756
5.98751593 67.60940552 -0.56445014
5.54529619 72.16688538 1.11713564
-4.14809990 75.97264862 5.74500322
-6.77882576 78.37321472 6.63139820
-1.63790083 71.59616089 -4.70905924
-2.92138815 79.27561951 -7.74167919
3.91245127 68.87100983 -3.99986434
-7.67881155 76.86428833 4.27541637
7.76842546 78.34236145 2.97241235
-7.67644358 78.97118378 1.52049851
7.63718510 79.44416809 3.04578876
-0.70907438 67.54041290 5.81147385
5.38568878 80.74335480 5.41451550
-7.21372175 77.47500610 -3.87441492
5.15921259 78.05266571 -5.50202036
8.38230324 76.75608063 7.00783348
7.71982431 80.67114258 -0.01032083
-5.07907200 72.48226929 -4.59779930
5.38991594 80.98522949 3.86459112
1.67252672 73.51024628 -5.78857136
7.83474588 78.11708069 4.47348213
5.12288141 77.17501831 -5.35970497
-4.05811357 78.82588196 7.32577944
1.17344677 70.31510162 6.27887535
4.83963203 77.25540161 -5.84472227
-8.28543568 80.27613831 1.40633810
-1.82412708 81.03653717 -0.24229927
6.67086220 73.23720551 1.73021543
-6.97284079 74.04138947 -6.22205353
0.90895265 70.56991577 -6.44533300
-6.80397987 75.76496124 3.55556250
6.23914003 74.64329529 1.50777292
7.02934980 72.21422577 -1.62814486
-5.87506723 74.99916840 3.56870413
-1.47493970 72.93345642 -6.55782127
-8.75289249 76.71105957 6.50999403
-4.58814526 71.24998474 4.57628918
-2.54417729 77.99320984 -1.18659103
-8.15381145 77.38643646 -6.63245869
-6.03703451 67.42521667 -3.32334948
6.64374542 77.72686005 3.44938064
6.40255547 75.11297607 -3.11875844
8.01112270 74.20447540 5.12403917
-7.16712379 77.38405609 5.06600666
6.00490427 67.77769470 0.72172475
-6.72908974 70.02362823 -1.57752120
-3.37282991 69.24788666 5.71218777
-3.20915103 80.83327484 5.97486639
1.97134662 80.68805695 1.06076908
-6.66700697 76.10153961 -2.13236904
-8.46045780 77.67676544 -5.79246044
8.82809067 80.43594360 7.28674984
-0.69405895 77.72739410 4.43493414
-4.28773546 74.04294586 -5.46178961
4.87439823 72.76405334 -5.27914476
4.43165445 64.45687103 -0.92449701
-6.46471882 78.88582611 5.03443480
-2.90827966 65.69437408 -3.04325604
-6.22301435 77.86149597 -2.48971558
-0.32206988 78.13541412 -4.08791685
-5.53602219 78.09415436 4.41187954
4.05433750 81.12982941 -2.99756813
7.38190222 74.50697327 -7.30824995
6.53882551 72.57506561 2.52609086
4.22202921 71.60826111 4.97284698
-7.36777592 80.97265625 -10.17971611
0.83510429 78.93908691 8.20088577
-6.15422010 69.49787903 2.94112349
2.56169367 72.09679413 4.87819052
0.41107988 79.71305847 -8.10791016
-5.04086971 69.37424469 5.04615021
4.95915890 72.96618652 -4.50098228
-2.23005128 70.91404724 -5.95897913
4.71568584 70.56419373 -4.75770235
3.43444133 65.15000916 2.83419251
4.59315968 70.35332489 -4.47761536
-7.01568794 78.28862000 6.03787279
-5.80390024 80.67069244 -1.23658979
1.40545583 77.86860657 6.13780928
-0.28455952 63.97129059 -1.65653384
-6.27623081 67.10504913 3.79664087
-1.92722285 64.55797577 2.84092188
9.64951897 79.09344482 6.43379688
5.81610918 67.10198212 3.66108274
-1.66730464 66.74871063 4.40725136
8.17490005 79.31715393 -2.74722934
-3.60378909 79.19544983 7.81051588
-6.32258844 80.63951874 -8.46864510
1.70470679 76.02669525 6.85177660
3.97407389 80.81886292 8.42411995
1.67186701 77.23123932 -2.21459079
5.30410194 80.27122498 1.72346890
1.15325797 72.38772583 6.64383221
4.39741659 80.86203766 0.96320969
6.03211641 68.38371277 3.25539589
-4.96936274 76.25520325 4.19657373
-4.76764536 65.42122650 0.24928752
-4.84033632 75.03455353 7.52519369
-1.11110115 78.57010651 7.34634495
5.67907906 73.50667572 3.36006427
5.27473211 77.96723175 4.54922771
8.02273369 78.97935486 -1.11047161
-3.18651295 75.34249115 -6.98945093
-3.28894138 67.58338928 -5.20397663
-4.62338161 77.78610229 -3.11741114
-0.20469582 80.73238373 4.54767275
-6.84939718 71.20254517 -0.97861606
3.04827118 75.89984131 -6.14547300
-3.95421553 76.07614136 -7.07163143
-3.50908136 80.67310333 4.97630405
3.89324403 74.31936646 5.12160492
-8.40596581 74.91874695 -6.15022659
8.56668472 78.23604584 -6.18106413
-7.93059063 78.37609100 -4.91520977
-9.34012318 79.37868500 7.85392332
-5.64415884 75.57937622 -2.48790073
7.72704268 78.65541077 -0.51027715
-0.46165714 66.12448120 -4.90107584
2.56194448 76.56686401 5.40447569
0.03301933 68.77268982 -6.02402878
-2.44594955 77.67346191 5.40701151
4.57279158 77.18460083 3.49329305
-8.16930389 79.46667480 0.58592337
-6.13861418 75.23424530 -7.82562447
-7.97995377 80.57015991 -0.90401626
-5.88460922 68.13518524 -3.08544374
2.24956989 80.68499756 -7.04163504
0.71418107 77.78747559 7.41490555
-7.71670961 79.40259552 -0.43094712
8.74493980 80.47950745 -1.95184350
0.27044907 63.96127319 -3.35883570
-5.46260786 80.93909454 -7.25896549
-6.08715200 71.21472168 0.65988928
