0.95573890 0.35937139 0.31992337
0.91696143 -0.62310225 0.45205224
0.86881673 -0.53835297 -0.54545158
0.58271968 0.25573602 0.75879210
-0.82733083 0.32201108 -0.55777830
-0.27341300 1.01232064 -0.52475369
1.03264165 0.41546240 0.01849291
0.96554506 -0.39248475 -0.21849093
-0.84325099 -0.24834698 -0.45685029
0.75165045 -0.04220098 -0.66703898
0.96033132 0.15397176 -0.23831438
0.54141009 1.04616594 -0.56279349
-0.23554112 -0.05561162 0.98365253
0.12457691 -0.22945055 0.97447038
-0.72581279 0.23276548 -0.74087745
-0.38648519 0.94034642 -0.95422381
0.65586460 -0.95699745 0.68490171
-0.44475955 -0.98592818 0.59025013
-0.97511196 0.98784435 -0.12898213
-0.96657920 -0.12097359 0.15883905
0.99084675 0.22580624 0.19620918
-0.00370586 -0.73831093 -0.99429893
0.43383840 0.75822657 -0.93504184
-0.29832190 -0.22368273 0.96652061
-0.13341640 0.87761223 -0.98004681
0.56517076 1.02618504 0.56062084
0.32562062 0.98010600 -0.78489017
-0.50811124 0.88418424 -0.82850611
0.09688345 -0.98403811 -0.19541405
-0.31606886 0.11826210 0.91361076
-0.88310039 0.05373275 0.49062067
0.89998066 0.81968319 -0.42677265
0.83498073 0.50913346 -0.54780310
0.77801907 -0.69630885 -0.59394491
-0.69598734 -0.44572666 -0.65612692
0.48208866 -1.01169384 0.39543122
-0.57083297 0.11268996 -0.80094975
0.19706711 -0.55081588 0.95413971
-0.80203021 0.99798858 0.29914573
0.94685662 0.97184855 0.20497568
0.22052196 -0.98470366 0.70454580
0.93329585 -0.01300192 -0.22326444
0.95619261 -0.33970240 0.17361341
-0.46271497 -0.96989393 0.24560185
0.77364194 -1.00223434 0.01461168
-0.73210192 0.96739960 -0.28254014
-0.43524322 0.97918105 0.17759934
0.60444129 0.18179169 -0.83738273
0.70015132 -1.01111710 0.69273096
0.86033916 0.29721382 0.49069366
0.80346096 1.00558150 0.32044238
0.35650104 -0.68614119 -0.91636759
0.97360158 -0.15320018 -0.27438965
-0.57964659 -1.01342726 0.24832611
-0.08230000 -1.01282191 -0.86494207
-0.95565450 -0.08043551 -0.25479856
0.29116103 -1.00355709 -0.30973649
0.91628349 -1.01039279 0.21514319
-0.12210950 0.02573305 -0.94686723
-0.36818141 -1.03839672 -0.46640128
0.71186841 0.99820721 0.47243953
-0.99147046 -0.78974301 -0.17374052
0.70606673 -1.03025818 -0.40596345
-0.16751727 -0.73111635 1.03522182
0.45302445 0.98530495 0.56166136
0.14232215 -0.96930879 -0.96141100
0.82025194 0.51967597 0.55680728
0.31321314 -0.55202645 0.95273012
0.89217770 -0.98879182 0.20894587
0.38712013 -0.56734973 0.88940763
-1.00627673 -0.05108983 0.30711907
-0.32443228 0.96968341 0.18002677
-0.36877355 -1.03180134 -0.17526771
0.26702243 -0.99045855 0.79808021
0.61220944 0.91904312 0.82341647
0.78273857 0.98680162 0.54899448
-0.96748984 0.17613859 -0.22180258
-0.06189779 0.28955966 -1.05276489
-0.25912851 1.01347876 -0.68918449
0.96345520 0.27895480 0.01706265
0.66684330 -0.99012440 0.32045862
0.89974070 -0.87855691 0.44024101
0.28520530 0.74641633 -0.96850026
-0.44789770 0.99556077 0.71687472
0.11531716 0.45023087 0.98022449
0.46310669 -0.79919928 -0.87052512
-0.72915339 0.90989971 -0.66085178
-0.06859930 1.02028334 -0.06736711
-0.37765110 0.99935067 -0.29419914
0.97356558 -0.48534387 0.08018675
-0.52737474 -0.96197456 0.80601174
0.83968496 -0.40463850 0.56481880
-0.54028857 -0.99056292 -0.84785521
-0.02858061 -0.99230111 0.29216036
-0.37265837 -1.00233006 -0.37054074
-0.72704542 0.78340852 -0.71109116
0.36489564 0.21622376 -0.96570617
0.57070267 -0.16525356 0.80257690
0.54856157 -0.96073681 0.56999856
0.75469875 -0.99764270 -0.59289020
0.37706921 -0.99603814 -0.97116095
0.64322579 0.98157817 -0.01587749
-0.64519572 0.73482800 0.82641798
0.98577261 0.80479670 0.05245941
-0.14918518 -0.96222633 -0.78090644
0.41365173 0.86984825 -0.91870141
-0.56636977 -0.04400086 -0.83617139
-0.87579381 -1.00988960 0.27430755
0.03092282 1.01536572 0.73498547
0.99342251 -0.46552849 -0.08641203
0.51030672 -0.10001765 -0.86908168
-0.91381574 -0.10159128 -0.41266531
0.69232261 -0.97448325 -0.74792171
0.25580499 1.02120817 0.01242324
0.63012004 -0.99204540 -0.44387138
-0.96820748 -0.34126455 0.12690233
0.18206763 1.00544095 -0.31776622
-0.40247193 1.04091311 -0.66593003
-0.95131648 0.03411342 0.31217033
0.30739194 0.77553988 0.98469162
0.50847960 0.99841756 -0.39081976
0.01589647 -0.99279541 -0.42364398
-0.06641886 -0.96477371 0.64650756
0.34217894 -0.96391225 0.92458367
0.94595003 0.87634987 -0.20564096
-0.87079012 1.01003098 0.20361926
-0.12270174 -0.32264760 -0.99319047
-0.56591618 -0.23579673 -0.80444211
-0.38373730 0.04343063 -0.99073118
-0.30507067 -1.03050423 -0.75216776
0.55735433 0.97041297 -0.76131266
0.71401227 1.04945040 0.51758063
-0.24267419 -0.92896372 0.13024223
-0.11073042 -0.39985707 -0.96203303
0.83196759 -0.62005669 0.55596000
-0.03355407 0.77478302 0.99417788
-0.12450807 -0.08108029 1.00110197
0.56295335 0.00941834 -0.86264145
-0.17117475 1.01720059 0.69189960
0.35186881 -0.17842931 -0.90728611
0.99297130 0.77059978 -0.18342932
0.49595767 -0.70489311 -0.82678926
0.01054447 0.98799765 0.77979702
-0.13679510 1.01699817 0.65015721
-0.41130596 -1.03484881 -0.06808262
0.84694481 0.54577547 0.54740828
-0.01616719 1.00790751 0.80325252
0.81269991 -1.01908004 0.51124847
-0.06237308 -0.98491865 -0.09938532
1.00442994 -0.66910297 -0.17481966
0.92676210 -1.00437200 0.02672111
-0.05508841 0.97981197 1.03095841
0.88594341 -0.47626093 0.50089663
-0.93663907 0.72667307 0.39530742
0.81195319 0.96875626 -0.37568536
-0.76365101 0.55143124 0.58850592
-0.91978765 0.26240206 -0.11433546
0.33041000 1.02114856 -0.50660634
0.37017488 -0.36037388 -0.92226505
-0.13342932 0.97480839 -0.41785982
0.25168929 -0.37816504 0.98416656
0.93790722 0.48511180 -0.34263813
0.90594327 0.54910153 0.26749611
0.70322895 -0.96227175 -0.07427449
0.40553686 -0.09588162 -0.96227539
0.39197603 -1.00778055 0.54096723
-0.42798507 1.03562677 -0.46495289
-0.19705769 -1.00188029 -0.64904439
0.60255313 -1.00787151 0.02986020
-0.70841372 0.50851804 -0.74314886
-0.81519091 -0.98953837 0.46126154
0.79166615 -0.53225738 0.58811009
-1.02161026 -0.10165948 0.18748863
-0.96348715 0.60457850 -0.07374299
0.78562629 0.94359678 0.60558188
-0.12005319 -1.01095676 0.82365149
0.72977757 -1.00822949 0.09067754
-0.89573216 -0.48992243 -0.42350948
-0.71992767 0.78355372 -0.68574589
-0.97795403 0.09367774 -0.32054937
0.17052326 0.98794967 -0.17459284
0.97487271 -0.96583009 -0.18179637
-1.00681686 0.83056730 -0.24459201
0.92606175 -0.97102761 -0.31237605
0.95899129 -0.08425031 0.45167929
0.29927096 1.00979984 -0.18363264
0.62676144 0.89491713 0.69389135
-0.92643189 -0.20863494 0.35108328
0.40942478 1.03356934 -0.65874803
-0.70319557 1.00961781 0.25883788
0.84256732 0.95811397 0.44605249
0.95022333 0.59212476 -0.11651781
-1.01488876 -1.00877714 0.13234070
0.79828036 -0.68104857 -0.60020804
-0.78147757 0.34641439 0.60233909
0.96358967 0.29944965 0.05379290
0.86918294 -1.02459121 -0.35107201
-0.32605356 0.97014421 0.95501250
-0.85076058 -0.07184765 -0.55816692
-0.95226586 0.88350648 0.31812620
-0.80731642 0.82977098 -0.59539336
-0.90880275 -0.37686762 -0.35050511
-0.99617076 -0.29556021 0.02141371
-0.65798819 1.02865553 0.02230576
-0.23670687 -0.94079983 0.87874794
-0.14323625 -1.01141417 0.18196222
0.98232949 0.23893507 0.17637447
0.11091099 0.96887988 1.03133154
0.56629515 -0.59683567 -0.77500123
0.96295345 -0.83027589 -0.22247913
-0.84047771 0.44459805 -0.52514362
-0.58123767 -0.65171981 -0.82903552
0.88878953 0.29657143 -0.31532365
0.01805852 -0.24923372 -1.02295923
-0.44770861 -0.37669379 -0.93270618
0.92681158 0.36112040 0.40826038
-0.12889688 -1.00870085 -0.90364993
-0.23515265 -0.52891272 -0.90264022
-0.35543576 -0.99164253 0.24733283
1.02301490 0.13245465 0.19321848
0.70667410 0.43649235 0.70164180
0.11060602 -1.06542230 -0.16807835
-1.02217746 0.62968528 -0.02144788
-0.17533092 -0.30837700 -0.96360111
-0.16406232 0.96984434 -0.02058810
-0.73353338 -0.95915383 -0.34917617
-0.95115733 0.71748000 0.36433122
-0.64771366 -1.00061166 -0.26146820
-0.68106008 0.81831008 -0.76401263
-0.95962346 0.72986358 0.25118399
-0.84494054 -0.16031910 -0.58572888
0.50913370 -0.76249915 0.85892004
0.31740519 -0.99236035 -0.87821394
-0.88087070 0.98212814 -0.31550071
-0.95874667 0.28734887 -0.02228624
0.65928340 0.68046379 -0.81410193
0.47889799 -0.93073004 -0.54377800
-0.48461959 -0.43909854 -0.83997566
0.69071472 -0.97101682 0.68073726
-0.49788874 0.93715125 0.88988167
-0.82531273 0.98281687 0.36818001
-0.94684660 0.25219169 -0.26793984
0.56129837 -0.21359055 -0.84209830
0.82853889 -0.90172642 0.57759213
0.30750132 0.92894650 -0.41210774
-0.34026349 -0.52050358 -0.94332391
-0.25911686 0.68812376 -0.96386582
0.09154490 1.01058948 0.34005114
0.37243134 1.01642704 -0.02017080
-0.39912194 0.05027115 0.93740356
0.14648271 0.62372112 1.00074673
0.69626284 -0.48996073 -0.71555555
0.85753417 0.86225319 0.38561061
-0.68785954 0.56113428 -0.66057163
0.44379544 0.98009330 -0.57809359
0.01569668 -0.99660069 0.83422118
0.33860666 -0.66861373 0.94796360
0.44208151 -0.16424483 -0.88250047
-0.77772164 0.06183305 -0.64903539
-0.58891892 -1.03099918 -0.66969895
-0.01228964 0.37910721 1.05310273
0.26908857 0.32711151 -0.92777514
-0.69050753 -0.78786731 -0.75928777
-0.58835280 -0.94995230 -0.80284071
0.65953696 0.12907565 -0.83664501
-0.19936767 0.94055939 0.99006480
0.85687160 0.99487883 -0.30821666
0.60928464 1.01138783 0.73983544
-0.39359754 -0.99049693 0.84676749
-0.93432677 -0.48843154 -0.34176847
0.96329570 -0.70981580 0.14656235
-0.94205225 -0.78376913 -0.40405762
-0.99811518 -0.23275836 0.13771950
0.94820380 -0.01438340 0.34635997
-0.82929111 -0.79536307 -0.54818487
0.83773720 1.00601387 -0.18928953
-0.99730706 0.02710605 -0.28042090
-1.01899087 -0.43169561 -0.25952238
0.81595933 0.36810553 0.59201336
-0.86753273 -0.64535844 0.45054379
0.28967887 -0.98236662 -0.58040398
0.94937241 0.36662754 -0.21732889
0.32021090 0.41578740 0.95301336
-0.84249496 0.57298934 -0.48805726
-0.85007346 0.43782547 -0.64475727
0.60459578 -0.16310635 0.74066406
1.02395654 1.06926763 -0.03530818
0.29651827 0.99732673 0.64599526
0.05773936 0.02542768 -1.04812074
-0.02491125 -1.04080665 -0.67146462
0.85423684 -0.96444184 -0.02487812
0.29848754 0.98267239 0.32653877
0.27876338 -0.93023777 0.30658123
0.95053315 0.19253848 -0.32209435
-0.80582166 -1.04287612 0.38726327
0.24306172 0.76866853 0.89994019
-0.28722253 0.24257967 -0.92189491
-0.09297954 -1.03303134 0.37735701
-0.94921398 0.94288665 0.03348168
0.46743014 0.98218036 0.62851721
-0.03890878 -0.06606472 -1.00716805
-0.85955203 0.14431417 -0.55562490
1.01685989 0.91094750 -0.21652710
-0.11471962 0.71306789 0.99337631
0.22955015 0.15662801 -0.97441036
-0.66332173 0.54144609 0.82016891
-0.84161937 0.76372844 0.54242253
-0.20488337 0.94046021 -0.67230803
0.58645606 0.96884519 -0.03019712
-0.76349211 -0.33644128 0.57420200
0.70069349 1.04047465 0.27435288
-0.94022954 -0.50543416 -0.28384411
0.11876038 1.00152171 0.35728267
-0.21134223 1.00752544 0.60721880
0.85080445 0.96495390 -0.55397254
0.49018425 -0.50383955 -0.84704965
-0.33639351 0.84523028 0.98395550
-0.81517148 -1.03622484 0.47917759
-0.79052162 -1.04962659 -0.31869394
0.92543387 -0.00595525 -0.35837823
-1.05097878 -0.62929696 -0.05093731
0.45229444 -0.48492801 -0.90392524
0.35411221 -0.64636505 -0.92008162
0.96106112 0.44597587 0.08707459
-0.18455079 0.04226115 -0.98134202
-0.57718480 -1.01544011 -0.09980845
0.36957464 0.94650072 -0.91193551
-0.99354959 0.77780426 0.33037618
-0.86971712 -1.00057662 0.39520475
-0.64369988 0.68235189 -0.79537654
-0.80313849 -0.46294242 -0.70327836
-1.01214194 -0.59734380 0.28327116
-0.45587665 -1.04365635 0.36942214
0.82457876 -1.06806719 -0.14511073
-0.23203664 -0.51103055 0.98235255
1.03315890 -0.33034787 0.13114692
-0.29421175 -0.31629333 -0.99182701
0.49808368 -0.98449987 -0.50583452
0.82417464 0.62785757 -0.48445612
-0.75519705 1.01953495 0.37063840
0.34925184 -0.98112857 -0.52271801
0.94612670 0.00641933 0.25276676
-0.49700335 0.64854443 -0.89220643
0.87566173 0.10154364 -0.49471852
1.00163591 0.26505601 -0.06607292
-0.02368093 -0.96937090 0.68377030
-0.40159959 -0.30163708 0.87650853
-0.05035959 0.86870414 -1.01470208
0.30406481 1.02335596 -0.33758312
-0.64687109 -0.45119974 0.75272077
-0.78149390 -0.70552188 0.57299054
-0.79523158 0.80287057 0.59618258
-0.42254719 -1.01780963 -0.38138592
-0.16654211 1.00049078 -0.99206048
0.19904438 1.01359332 0.70650518
-0.97627199 -0.77486217 -0.02214630
0.89510691 -0.90122533 -0.32481912
-0.60680711 0.73675334 -0.82102948
0.63404286 1.01061988 0.79202056
0.33365276 0.08338168 0.92592239
-0.90577698 0.75524974 -0.31329417
-0.59748149 -0.38175610 0.70239085
0.75281525 -0.15021999 0.66088247
-0.93421793 1.01551151 -0.11120035
0.72890127 0.64276075 0.73421073
0.56386924 0.97801191 0.36664587
-0.43150613 0.97744638 0.71345347
-0.50465155 0.69371027 0.89158607
1.00269437 -0.24093193 -0.11643157
-0.99534583 0.89807099 0.15970874
0.96847618 -0.48479667 -0.27694216
-0.84647536 -0.00137014 -0.58700860
0.08446450 0.99353760 -0.09722253
0.97664404 -0.52885818 -0.10838255
0.79718816 -0.54489744 -0.53851241
0.83796906 -0.08115061 0.53122604
-1.01143408 -0.52808487 -0.12659653
0.24643674 -0.36299008 0.91072285
1.00240386 -0.77653003 0.09499694
0.23595935 -0.94886100 0.97869164
0.73778200 -0.96125966 0.13852611
-0.09951635 0.93409520 0.22173764
-0.39147851 1.00938702 0.11651362
-0.26748323 -0.99334365 -0.07419388
0.11367508 0.98368174 -0.16229668
-0.17037851 0.86913174 0.98377985
0.77602327 1.01737404 -0.36783186
0.98511875 -0.67804134 0.10682161
-0.46135950 -0.96674174 0.77773833
-0.68163669 -0.06210461 -0.68546921
0.49925560 -0.80221230 -0.82233167
-0.44540381 -0.86925125 -0.88097990
0.06377324 0.45068997 0.99976641
0.15709205 0.60745603 -0.95921898
-0.68242049 0.12618524 0.73537546
-0.62446702 -0.14459813 0.79040116
-1.01284575 -0.29016691 -0.04220414
-0.44299850 -0.97050178 -0.69557273
0.76643682 0.32660511 -0.68134069
-0.31442472 1.03943968 -0.24742110
0.99561882 -0.21994027 0.08644909
0.08068804 -0.52720529 0.97195911
0.85967612 0.28355384 -0.40800017
0.95223665 0.19776830 0.31584850
-0.50308061 -1.00120449 0.57493180
0.14993353 0.04331120 1.02090001
0.33408320 -0.91979623 -0.92001915
-0.04114931 -0.32579732 -1.05603290
-0.55657721 0.99249738 0.46714887
0.04570967 0.99095559 0.54920059
0.32062006 -0.98449033 -0.07957380
0.26630932 -0.45712721 0.95603687
-0.53303599 0.91512716 0.83287358
0.58023834 0.48697174 0.83021289
0.53206217 -0.91165364 -0.88192767
-0.27608645 0.25202942 0.98526400
0.14582883 -0.03543529 0.99967313
-0.07842132 0.09639820 0.94389290
0.04626274 0.88601726 0.95197999
-0.46984658 0.28310847 -0.86360711
0.92182672 0.24828601 0.32089606
-0.60822856 1.02364755 -0.10494903
0.35899732 -0.97640342 -0.01719177
-0.29633817 0.89138860 -0.98456883
-0.84227037 0.33313245 -0.51675254
0.47818604 -0.41016722 -0.90302211
0.94049048 0.35028559 -0.42560795
-0.18507409 1.02076685 0.27708000
-0.89202237 0.91598123 -0.41062251
0.90611994 -1.04553473 -0.08315622
-0.91100192 -0.58040386 0.48426664
-0.10419185 -0.96743184 0.57721996
0.23214880 -0.99260741 -0.49906650
0.87881696 1.01987600 -0.25869986
0.68920445 -0.68318373 -0.70472366
-0.44380915 0.97640938 -0.26346919
-0.50817931 -0.98643744 0.40144038
0.71793222 0.70624292 -0.69859916
-0.42365408 -1.00135267 -0.18963991
-0.65256727 -0.06231136 0.74796140
0.45945644 1.01422977 0.46736860
-0.31679875 1.02941883 -0.53099352
0.52641332 0.18110843 -0.85228038
-0.93695319 -0.59909064 0.42630240
-0.60188162 0.54826957 0.74340886
0.60788655 -0.48537299 -0.78484035
-0.14250222 -0.99020392 -0.63123018
-0.98054576 -0.15561520 0.16651478
0.94483304 -0.48757446 0.07496312
0.99533451 0.56008196 0.22681576
0.95652783 -0.75848657 0.28439271
-0.96021771 -0.30298910 0.08266103
0.81334591 -1.00597143 0.21032892
0.84528935 -0.03979501 -0.53563327
-0.63968158 -0.27734756 0.72325099
-0.77531660 -0.79519641 -0.62445420
0.65692353 -0.85056072 -0.76037967
-0.19555490 -0.24326529 -0.93424916
-1.04762745 -0.51967067 0.14672790
-0.08659571 -0.22020265 -1.02833796
0.98991358 0.79920769 -0.06541666
-0.54198205 -0.98036361 0.02291846
1.01629603 -0.26037878 0.11383338
0.07823025 -1.00699961 0.98238873
0.52681363 0.00146897 -0.83238125
0.97184145 0.58410531 0.25921872
-0.06243716 -0.89783537 1.00406170
-0.46409440 0.98281115 -0.12861846
0.87337554 -0.46213418 -0.44105917
-0.35873440 0.96055502 0.71423680
0.52842736 -0.01294894 -0.82311773
0.94025362 -0.73617190 0.35156220
-1.00432634 0.43029541 -0.07792599
-0.50585854 -1.00600731 0.02432249
-1.00012767 -0.07341119 -0.24244967
0.82959437 0.76512396 0.61793160
0.98405707 1.02900493 -0.13649918
0.98843992 0.19245327 0.01758700
-0.60838187 0.35154110 0.79239500
-0.90362251 -0.88363147 -0.45010012
0.64937019 0.35422674 -0.71062911
0.64558685 -1.01728094 0.32860106
0.02012727 1.03758788 -0.01450878
0.46714306 0.64386904 0.88939327
0.16784444 0.38829246 0.99258471
-0.86811554 -0.93295473 0.47944856
-0.86009467 -0.55529678 -0.48593768
-0.50472462 1.01912642 -0.43752298
0.53467751 -1.02408779 -0.82465857
0.47191113 0.98867196 -0.04590960
-0.83187366 0.58382690 -0.63312602
-0.67271578 -0.93914455 0.45666182
0.35182863 -0.39986962 -0.92386800
-0.57404172 -0.91740149 0.75734770
0.91467464 0.40965447 0.47229019
-0.44740361 1.03242993 -0.01800437
0.95894992 -0.58281583 0.24859315
0.87653172 -0.14739218 0.40640533
0.56124282 0.97714216 -0.00584209
-0.98419714 -0.04775927 0.15271956
-0.05674296 1.02617788 0.24068174
0.26965967 0.94479740 -0.20058998
-0.43822113 -0.98164058 -0.15561032
-0.43569562 0.82059532 0.91162831
0.80519176 -0.74838096 0.60141307
-0.83903372 0.90719122 0.53586864
-0.74992073 0.26273322 -0.70503020
-0.17497328 -1.01146770 -0.18951869
0.11493148 0.13835229 -0.94325966
-0.55580235 0.21857327 0.84526736
0.55374944 0.99682534 -0.85746527
0.06955766 -0.99902862 -0.17928527
-0.95376432 0.73201495 0.26045844
-0.60942101 0.97859180 -0.58998936
-0.82867813 -0.73676616 -0.60075927
-0.75544512 1.00609994 0.71181285
0.31426063 0.97630548 -0.27161872
-0.89456391 0.10502161 0.46294501
1.01943171 -0.06033339 -0.19664207
0.57211459 0.63485283 0.81995362
-0.53247285 -0.44610399 0.80962539
-0.39992470 -1.01424277 -0.56391656
0.99105966 -0.10538906 -0.39364052
-0.14749132 1.01403332 -0.00676419
0.23940299 0.93235648 0.99361658
0.96838081 -0.12213193 0.08084795
0.77787268 0.15549161 0.64470643
-0.61537254 0.45136937 -0.73258209
-0.98495603 0.38356450 -0.08903542
-0.15938514 -0.76721847 0.94984531
-0.60103297 1.03587604 0.01156567
-0.27322698 0.41409314 -0.99923831
0.43404096 0.37526488 -0.89583999
-0.27500755 -0.36939967 -0.96864420
0.94565952 0.56193888 -0.43928200
0.95079517 0.37301555 0.39788169
-0.31645638 1.03269613 0.24184649
0.29285738 0.06493663 0.96664929
-0.13421546 1.00499701 -0.78561288
0.05809019 -1.02301657 -0.59343356
-0.04337123 1.02996039 0.35861272
-0.35258627 -0.31397510 -0.96430790
-0.82656729 0.01891379 -0.54372442
-0.95457840 -0.95681387 0.33327860
0.19951829 -0.89959162 -0.97800481
-0.92082202 0.15639950 0.41365111
-0.05165140 0.24239020 1.04324722
0.13035508 -0.52693391 -0.95900726
0.95907807 0.08490147 -0.40224320
0.66522300 -0.87666881 0.70710087
-0.74366736 0.10363981 0.66570520
0.06919544 0.97627133 -0.23514812
0.96207809 -0.09068163 -0.02547902
0.01113855 1.00720823 0.59895605
0.53644550 -0.96721113 0.00584755
-0.95918083 0.83929408 -0.31405663
0.56791317 0.98050106 -0.23595463
0.05694501 -0.17130642 -1.01440477
-0.25415510 -0.85859752 0.98435932
0.38171205 1.04308796 0.05504181
0.77637029 -0.71485114 -0.63840246
-1.01358163 0.54213744 -0.00728033
0.97046638 -0.44999698 0.01601273
-0.25330648 0.98577052 0.15505899
-0.84711730 0.15442199 0.44191796
-0.94577134 -0.50502849 -0.27183339
-0.92295623 -0.07404493 0.08677124
0.57490003 1.00705183 -0.36038914
0.41453546 1.01212537 0.25645337
0.82298779 0.80031449 0.64460176
-0.88272762 -0.79335427 -0.38595375
-0.12280948 -0.99282879 0.64297122
0.11020090 -1.00032461 1.00385594
0.78427851 -0.96305418 0.29632655
-0.93520367 0.99699497 0.30862692
-0.87666821 0.60035914 0.55231696
-0.53165352 -0.65054989 0.87413001
-0.98071539 -0.85302860 0.07184212
-0.17454013 -0.25663090 0.97801632
0.51737726 -0.95922136 -0.06810752
-0.12352034 -1.03352106 0.40967768
-0.34129402 0.99239677 -0.91598749
-0.84598088 -0.22220953 -0.52414078
0.84642339 0.17075646 -0.49314010
-0.22460379 0.98039353 -0.50182056
-0.39097768 0.58993435 0.87337881
-0.29497179 0.77381098 -0.99050957
-0.82238626 -0.35732445 -0.62058955
0.43100142 0.68843329 0.94522876
-0.45998383 1.06604147 0.40761229
-0.49873465 -1.00413883 0.64251482
0.13789526 -0.16888459 1.01553607
-0.32672000 -0.89800668 -0.92357707
0.71230650 0.98272401 0.68312043
0.38348469 1.02747750 -0.01612528
0.86224794 -0.10390772 0.44894123
0.74531603 -1.00532806 0.67975044
-0.58700812 -1.00129354 0.27445692
0.48378065 0.11532497 -0.93268222
0.55840302 -0.70209223 0.84870863
-0.78673780 0.60051137 0.60664403
0.90397608 -0.44516674 -0.36250558
-0.50666869 0.55945534 0.85601890
0.62964249 -0.51299036 0.73734343
0.94760168 0.07760876 0.37154505
0.98276412 0.37414634 0.12595491
0.19276002 0.19437762 0.98836762
-0.25836134 -1.04326403 -0.09026869
0.21219370 -1.05014122 0.52081823
0.34836352 -0.91948563 0.98860967
-0.32756913 -1.00220311 0.78933257
1.00064445 -0.81617272 0.02656774
0.17472920 -0.32551241 1.00088048
0.88887513 1.01714134 -0.13388205
-0.22946550 -0.47683513 -1.00527096
-0.62303329 -0.74475473 -0.84561795
-0.99225605 0.15159366 -0.18081200
-1.03758359 -0.65642840 0.04903507
0.71158481 0.97646707 0.18781295
-0.95029008 0.63989824 -0.29038119
-0.00038836 -0.24603941 0.96970701
-0.93103635 -0.84064716 0.25153145
0.57329702 -0.94642133 0.83923215
-1.00483668 -0.89947772 0.12073551
0.40635380 -1.00152278 0.03201832
0.79995644 -0.09934408 0.58307070
0.03358204 -0.97909850 0.00650927
-0.17873712 -0.90149206 -0.96200973
0.90924978 0.12908699 0.40771824
0.35040453 -1.00755131 -0.93650293
0.28001493 0.27554956 -0.94092017
0.08959757 1.03562510 -0.54771399
-0.95465672 -0.75160074 -0.09204594
0.99277794 -0.19577555 -0.05559125
-0.19655715 -0.97077376 -0.97784847
-0.58898103 0.16886012 -0.80907929
0.35421419 1.01456988 -0.71320999
-0.54170454 -1.01824939 -0.28862137
0.16288334 0.97972149 0.62369734
0.78827453 0.52647734 0.61147666
-0.96644342 0.71882522 0.15565723
-0.66347396 -0.78874731 -0.72216994
-0.02562773 0.76942807 1.00017071
-0.81042778 -0.87163717 -0.57907188
0.96051049 0.44687384 0.36502030
0.91178405 -0.65644032 0.44717827
-0.77528942 0.99270314 -0.29038978
1.02715456 0.48857108 0.11678875
-0.21302336 1.02162981 0.81426531
0.36489144 0.91966718 -0.96905798
-0.90479898 0.85185325 0.36980498
0.32220778 0.66713983 0.95166427
-0.29664612 -0.07935581 0.92685884
0.01617858 1.01001537 -0.53480184
0.79074025 -0.12146220 0.61284906
0.72733569 0.76774228 -0.65382302
-0.33879271 0.80673283 -0.94947129
-0.15795904 0.97610313 0.64567912
0.56129026 -0.62748563 -0.90009511
-0.46466321 0.35419413 0.86325228
-0.98979747 0.74099195 -0.14993329
-0.06300417 -1.00434744 0.35723850
-0.08809949 -0.25735229 -1.01331878
-0.95177615 0.12200689 -0.06021519
-0.84420645 0.50088370 -0.55943638
-0.97994053 -0.23301424 -0.29336897
0.98061383 -1.00049448 -0.03239687
-0.99401283 0.92008936 -0.20485252
-0.36244175 0.99856049 0.26391810
-1.03699958 1.01680851 -0.05955395
0.88567483 -0.42154437 0.36527315
-0.17193700 0.16301000 1.05233788
-0.86087859 0.57801729 -0.51632339
0.45105025 0.25387809 0.91555798
0.25373146 -0.58518016 0.96460432
0.65640116 0.30585390 -0.73242825
-0.41187894 -0.83237654 -0.90378743
0.65550244 -1.01724684 0.26048821
0.22775012 -0.97028065 0.93896174
-0.97494662 -0.40918729 -0.12763005
0.52615833 -0.73431629 0.88158250
0.13804114 -0.99093699 -0.33484381
0.44101253 -0.98039609 0.40612131
0.35356611 -0.58779693 -0.99069369
0.61800861 -0.04438835 0.66974121
-0.46642986 -0.99385744 0.37200865
-0.37603614 -0.95333195 0.52361846
-0.11126402 -0.51078153 1.00653601
0.02489809 0.99728668 0.94568580
0.58559263 0.97832727 -0.24897592
0.06369532 0.96635771 -0.91205812
0.77277637 0.61216897 -0.64212066
0.80838406 -0.98592019 0.52599847
0.75810385 -0.29540592 -0.62540585
-0.38605210 0.25842199 0.93282020
0.75198781 -0.79409933 -0.63063520
-0.16648483 1.01344204 0.09566216
0.34748995 -0.27684942 0.93757308
-0.71439838 -1.04320633 -0.64016992
0.82681370 0.25240129 -0.61306661
0.53588247 0.98493242 0.44840986
0.88248038 0.60457277 0.52199447
-0.74075460 -0.94499433 0.60416543
0.31834918 -0.94980210 -0.06264015
0.23441353 1.04302752 0.75596964
-0.76426053 0.97236776 0.33696550
0.45596108 -0.83806753 0.92474711
0.84760094 -1.01816916 0.12115465
0.85884368 -0.22813632 -0.57112819
-0.69669867 -0.16066805 0.63008738
-0.38810700 -1.05730164 -0.29615858
0.98603117 0.69234651 0.22534145
-0.53606296 -0.22734724 0.85532349
-0.90361822 1.00862551 0.09916102
0.22183493 -1.02300048 -0.02959481
0.11981172 1.00786841 0.56233770
-0.62522507 -1.01643527 -0.10829587
-0.42842108 1.04131651 0.06663471
0.10795553 0.99161083 0.34426379
0.98031032 0.48141193 -0.05887643
0.68819773 -1.02603221 -0.24217911
0.18877558 -0.03598019 1.00728226
-0.93456519 -0.85899389 0.42346561
0.93013453 -0.51056623 0.24366233
0.68576682 -0.33599415 -0.76578480
0.51628780 -0.13937190 -0.84446037
-0.68019247 -0.97617990 0.69902152
-1.02269828 0.90859789 0.13840492
-0.15074193 0.22997975 -1.01848674
-0.98517752 -0.39048859 0.26655006
0.78596103 0.31704569 -0.63267797
0.22412118 0.41706493 -0.99585593
0.82521689 0.94328707 0.19532253
-0.17406942 -1.02083397 -0.00019437
-0.19871730 -0.78944409 -0.98152381
0.86233866 0.39647090 -0.59378678
-0.21423125 0.96655953 -0.00169308
0.10913630 -0.98984104 -0.19285013
0.78601229 -0.51791745 0.61560130
-0.43711856 0.97553617 0.41530952
0.19733074 1.06243563 0.89444607
-0.26297221 -0.70487648 -0.98433095
-0.32717711 -0.95498127 0.84776378
0.65534723 0.14523867 0.74729437
-0.96562445 -0.57065612 -0.44206649
-0.64493191 0.98526573 -0.30968916
-0.81077588 -0.96325558 0.02770898
-0.37430051 -0.99949867 0.52175945
-0.91945028 0.57257462 0.50225371
-0.81288064 -0.04752091 0.57848424
-0.06655640 -0.99543089 -0.11763985
-0.80955970 -0.97319084 0.19935133
-0.46752232 -0.28463840 0.84550875
0.32560581 0.96548724 0.67881632
-0.28511384 -0.48692009 -0.93902355
0.77298832 -1.01561892 -0.40815425
-0.28008455 0.98783499 -0.41853249
-1.00235212 -0.72016132 0.05191692
0.16517085 -1.00021088 -0.16206487
0.57830513 0.97754341 -0.65795815
0.64024866 -0.64202160 -0.78278065
-1.01727962 -0.15355408 -0.12212734
0.17138937 1.00361264 0.88536876
0.93391371 -0.43806794 0.37011915
-0.44102225 -1.01383936 -0.55370373
0.28862986 0.49028340 -0.96927965
-0.88435233 0.74237078 -0.48532826
-0.59254050 0.51637936 -0.82254875
-0.93557799 -0.01795524 -0.16515414
0.45222601 -0.33915025 -0.87154782
-0.64729595 0.92322749 -0.51753670
-0.24931318 0.99891633 -0.41541702
-0.36238503 0.65977162 0.89871383
0.81280494 -0.90158415 -0.57786769
0.05539100 -0.97373945 -0.82619065
0.91299856 0.82434499 0.30356240
0.30881155 -0.86123127 0.96365786
0.86018598 0.18783556 0.50820118
-0.09802207 -0.55069464 -1.01664138
-0.18904290 -0.93939608 -0.20668286
0.20805863 -0.98715699 0.54624712
1.01079154 0.40944412 0.14994244
0.12428486 0.73724049 -0.97080737
-0.93819475 0.89473802 0.11664259
0.73156071 0.89533490 0.70962542
-0.14382827 -1.00230563 -0.76604241
-0.86438382 -0.87501776 -0.48462316
-0.35281560 0.97997534 0.26419157
-0.88472819 0.09495293 -0.45622736
0.48258665 -1.03963327 0.43790159
0.94073176 -0.04933298 0.10181247
-0.79473245 -1.02325141 0.07545362
-0.05976291 0.95742708 0.99084222
-0.44173434 -0.85104811 -0.87884712
0.41600600 -0.16021781 0.85393530
-0.95561361 0.37190768 0.16736616
-0.60781407 -0.16047044 0.79438663
0.09690218 1.01444471 0.29716453
0.65573871 0.65762460 0.71828634
-0.90743589 -0.59493798 -0.42537192
0.48580298 -1.00256634 -0.35373750
0.20607175 0.44632342 -0.93902743
-0.58720362 -0.66608328 -0.80354834
0.66899216 1.03034043 -0.15434262
0.91744721 0.17867100 -0.38500071
-0.87183189 -0.23148499 0.49937037
-0.03259835 -0.83842152 -1.02571893
0.95129430 0.67016464 -0.40872017
-0.76021814 -0.84936315 -0.64470619
0.92524660 -0.39669546 -0.34792170
-0.87645185 0.20463279 -0.44716924
0.52462280 -0.25815716 0.80752188
-0.55194163 -0.08146437 0.80787492
0.56041157 0.44945818 -0.83983433
-0.64858866 0.59037381 0.81345743
-0.58340096 -0.93209666 0.41735068
-0.25994629 -0.99842727 -0.56933421
0.95552588 0.44068500 -0.28183171
-0.55547786 0.36206365 0.83155984
0.03019173 -0.83614612 1.01752853
0.18826759 0.04399707 -0.94842613
-0.10339099 0.67039520 0.92565966
0.14003247 -0.18352799 -0.97698349
-0.97789764 0.02383399 0.24771191
-0.37898463 -0.27965230 -0.97467017
0.10725807 1.01362932 0.06942305
0.79419601 0.98541230 0.57710642
-0.08095057 -0.16804063 -1.03246117
-0.18374962 -1.04295182 -0.68913162
0.35484001 -1.02527177 0.32130167
-0.72031844 -0.98259485 0.29546586
0.49924767 -1.03614450 -0.46370116
-0.81332874 0.99334794 -0.50143880
-0.91342592 0.19236131 0.43256199
-0.76086450 0.18736422 0.66575611
0.80137086 0.10059149 -0.59476364
-0.16072586 0.16524231 0.96768713
-0.93126070 -0.67613018 0.35551393
-0.97870612 -0.14366962 0.17026472
0.12556684 0.91117275 -0.92061645
0.12800498 -0.01918295 0.97059989
0.78550351 0.97946078 -0.25672966
-0.84533000 -0.85336280 0.53559202
-0.87577081 0.32972145 -0.49386060
-0.77382970 0.99718422 -0.26050460
0.96476460 -0.84347463 -0.18768767
-0.05710416 -0.28042263 1.01767683
0.20256883 -1.01987040 0.27913278
-0.67088234 -1.03783405 -0.41475081
0.86431479 -0.15482126 0.54975337
0.02959091 1.05262828 0.31004557
-0.98855472 -0.76377118 0.29956293
0.93679059 0.62541169 0.48096445
0.48839962 -0.19861700 0.89421284
0.31839895 0.50141644 0.95586902
0.95895886 -0.33724707 0.07709016
0.81630814 -0.25578544 0.59237641
0.95496559 -0.23906279 -0.19621335
0.50386083 0.95130676 -0.82043624
0.65674603 1.02116954 -0.21081567
0.39351535 0.65334517 -0.91514927
-0.28683224 0.99072963 -0.11740567
0.49516097 -1.01594281 -0.24309929
-0.75704300 1.06235218 -0.06801628
-0.69174004 1.00464869 0.18852907
-1.07627821 0.51673871 -0.05319904
-0.73506320 0.99445611 -0.44101107
0.41120645 0.39996558 -0.87727690
-0.32673302 1.04402196 -0.00129104
0.44649637 -0.57895744 -0.96952724
1.04269063 0.63929170 0.04168993
1.00569487 0.54049265 -0.01557357
-0.64421201 -0.63646281 -0.77861989
0.41335812 0.60441840 -0.92936677
-0.36215994 -0.57837766 0.90945798
1.03413463 -0.78130257 -0.21876934
0.24523610 1.01659513 -0.54970264
0.43802607 -0.37783432 0.91239208
0.35107681 -0.12026135 -0.94830298
0.93180943 -0.93339401 0.32417753
-0.22049381 0.71827072 -0.93579715
0.38892946 0.38370430 -0.89596677
0.94224036 -0.11800262 -0.31540900
-0.07552812 0.95436043 0.99614966
-0.10606158 0.57976562 -1.01359010
0.64660728 0.94289821 -0.18557329
-0.13401155 0.85560149 -1.03382277
-0.64662385 -0.10512941 0.74016154
0.35887265 -0.48067540 0.89838237
-0.42628464 -0.42761421 0.88805181
-0.43884081 0.51205999 0.90932912
-0.85642529 0.62853712 0.49304515
0.22888960 0.38385552 0.96035188
0.42910287 -0.64769322 -0.87280476
0.88327956 0.79761648 0.49404502
-0.21306902 -1.04399633 -0.42146659
0.98024571 -1.00401926 0.32328394
0.91844606 -0.13475581 0.52487415
0.47422451 -1.03749621 0.52240062
-0.04622570 -0.98810315 -0.13171585
-0.40640798 -0.58076328 -0.90437996
-0.34873044 -0.78005844 -0.93548524
0.30603322 -0.68096882 -0.99941260
0.22492619 0.86485350 -0.96692592
0.08923660 -1.01396048 -0.54115754
-0.26310089 1.02343929 -0.13133968
-0.91191959 -0.75958091 -0.28887308
0.56576526 -1.00575674 -0.44409409
0.70140958 -0.47461197 -0.70140994
0.60510457 -1.00428271 0.63225251
0.48196146 -0.94087487 -0.60816145
-0.70970106 -0.21833158 0.74733406
-0.86797965 1.04392672 -0.43300754
0.83256364 -1.00693870 0.30470920
0.14883354 -0.32523283 -0.99448466
-0.71016049 -0.56406754 -0.65604901
-0.05197326 0.96340954 0.09668113
-0.06640878 0.96591991 -0.98925745
-0.89803052 0.63696796 -0.45798767
-0.43424913 0.47942117 0.88688177
-0.36503994 -1.04068899 0.45727795
0.69031787 0.33940497 0.70462084
0.98311889 -0.36542982 -0.04746290
0.92374313 0.91160965 -0.30945364
0.72834373 -0.97402650 -0.44601309
-0.57870567 -1.02078199 -0.37718818
0.78218126 0.99786896 0.01111469
-0.90480590 0.02522684 0.40989131
-0.31124297 -1.00575197 0.81048518
-0.04623063 1.02698815 0.56079739
0.10365794 -1.06723118 0.30515590
-0.31755838 -0.96641701 0.70074219
-0.75917625 0.92579025 -0.53406990
-0.52773833 0.95977801 0.81023270
-0.81399930 -0.86155301 -0.58777761
0.80270374 0.98435026 0.08792002
-0.39421508 -0.29313084 -0.91041887
-0.04143484 0.99451035 -0.94108242
-0.24227872 0.24808842 -0.99272758
-0.51216888 1.00047135 0.43050617
0.94221163 -0.21950127 -0.33725685
0.20533045 0.74378663 0.95031774
-0.62886834 -0.67699325 -0.74883986
-0.11395028 -0.92370588 0.97720218
-0.12137748 0.10641439 -1.00879335
0.52175391 0.92664945 -0.88670701
0.15059096 -0.03542590 -0.94046009
-0.94771838 -0.09849316 -0.40789980
0.02030738 1.00110745 -0.99606174
-0.02911727 -0.93953782 0.78913403
0.38585728 -0.92131710 -0.91041499
-0.90870643 0.98463386 0.14797775
0.80815315 -1.03423679 0.53711510
0.78738523 0.59840649 0.63313484
-0.46435541 -0.99518478 0.89899158
-0.75243199 0.79685980 0.66452241
0.21472813 0.95051175 0.97066993
0.84780753 0.07423583 -0.59171671
-0.08539689 -0.95029700 -0.25201732
-0.38765800 0.98253429 0.93085831
-0.18702735 -0.31548131 -0.94849980
-0.94743311 0.84726006 -0.05809670
-0.07885971 -0.04548763 0.98963988
0.90553391 -0.63868999 -0.30843136
0.98569703 -0.20618169 -0.06319025
-0.22370337 0.63733399 1.00990009
0.35019416 0.64435899 0.95043302
0.98057830 0.86961555 -0.09513262
0.02120383 -0.98624206 0.22551814
-1.01178563 -0.90009445 -0.08852898
0.33064511 0.70693094 -0.98025775
0.18483545 -0.17506661 -0.98986477
-0.87732637 -0.41442776 0.51387072
-0.80118239 1.02754641 0.48143399
-0.64463449 0.59781021 -0.78459418
0.43229744 0.36233595 0.89057630
0.40577140 -0.11185014 -0.97233886
-0.36048952 -0.73309219 -0.96284419
-0.71340859 0.33245304 0.65411073
0.47584262 -0.69175422 -0.87976861
0.45294243 -0.97447318 0.54466677
-0.48679295 -0.97978276 0.38675195
0.96305108 0.28254965 -0.13494533
-0.49709043 1.01759350 -0.70316529
0.76337337 -0.44307736 -0.60698968
-0.23857397 1.03439248 -0.57111794
-0.43615380 1.00448871 -0.72906351
0.98496950 -0.20664181 -0.29096162
0.91311598 -0.13074996 -0.41779092
-0.89930117 0.50379741 0.51375365
-0.16664171 0.18239452 -0.95432097
-0.97926021 -0.63703370 0.28832930
-0.02712228 0.82134861 1.00760484
-0.95061684 0.41234890 0.02326474
0.27747837 0.01885734 0.93076617
0.58186316 1.03614473 -0.74350470
-0.41779527 0.14136522 0.95140952
0.69236171 0.99284935 -0.75343108
-0.14265487 0.67632252 1.05216432
-0.40583807 0.46572608 -0.96500212
-0.82314622 -0.73546720 0.57371342
-0.94091475 0.37284240 0.30775556
-0.30830848 -1.03509843 -0.06309888
0.88278973 -0.27922043 0.46850446
0.68958521 -0.16485910 -0.70296800
-0.96339881 0.93583113 0.33359808
0.11342803 0.45436531 -0.97685480
0.18598354 0.49415782 -1.02470374
0.68918884 -1.02020717 -0.66302454
0.56706345 0.98303729 0.17295958
0.66806746 0.28385741 0.72167361
-0.86100936 0.17636189 -0.37051365
-0.89346910 0.57718313 -0.40344205
0.29942399 -0.97826773 -0.44692639
1.02760816 -0.53178149 -0.01974651
0.72184050 -0.57578158 -0.63665438
0.00496801 -0.58682024 0.96197045
-0.04918265 0.99729013 -0.87155199
-0.69555259 0.34414810 0.76855206
0.75856185 -0.71439779 0.66085786
-0.10569494 -0.19957362 -1.00584292
1.03128779 0.75970680 0.22974551
0.42000982 1.03370273 0.14400114
-0.80082572 -0.79130971 -0.64378297
-1.00743878 0.72242731 0.09823664
-0.84738755 -0.13501666 -0.49140894
0.05770699 -0.97660595 0.40593940
0.82757783 -0.99351478 0.11038269
0.28626415 0.99974501 0.41296145
0.13234998 -0.02617640 0.96551222
-0.54827845 0.95918655 0.36051396
-0.85965633 -0.99441314 0.27303237
-0.97705984 -0.06331807 -0.06976636
0.33775955 0.86257863 -0.93012244
-0.09693757 -0.98102075 -0.60957772
0.75722122 -0.34789476 -0.68205857
-0.93117285 -0.46107838 -0.24102968
-0.94514263 -0.61541009 0.44779608
0.50971854 -0.30176419 0.87412775
0.19586389 0.31210336 0.95801950
-0.77653980 0.81577450 -0.65644741
-1.07047629 -0.70123130 0.08191781
-0.45707715 1.02778924 0.31172445
-0.48242083 0.98155856 -0.81177258
0.60133123 -0.97490573 0.18105020
-0.83551610 -0.55731374 -0.46885049
0.91225863 0.90928483 0.26049057
0.97689152 -0.83376366 0.00682962
-0.79351747 0.90836746 0.64345324
0.77248442 0.54674399 -0.61570090
0.90523422 0.12686065 0.42871958
-0.92968333 0.98827666 -0.07057351
0.87894380 -0.61508793 -0.47426623
1.04902244 0.92551309 0.17966899
-0.08209236 0.37363616 0.92847115
-0.11910433 -0.82594705 0.97332007
0.25532210 -0.99649352 -0.84030241
-0.20267442 0.30990607 -0.99260694
-0.45338470 -0.35994700 -0.92152971
-0.24007797 -0.26720816 0.94106317
0.28727013 0.94708902 0.54982430
0.24730752 0.08645060 -0.96219641
-0.89449680 -0.28969982 -0.44276494
0.52237129 -0.79004610 0.83448368
0.82365549 -0.04895269 -0.49888605
-0.26371998 -1.03125441 0.29834253
0.76899171 0.56244195 -0.63273394
0.95012164 0.57058996 -0.35653865
-0.09631401 -0.95796144 -0.75812864
0.39629000 -0.26682982 0.98678458
-0.68039763 0.84171110 -0.79552275
-0.19991440 1.03344798 0.38740033
-0.46663138 -0.96541744 -0.62512845
0.66731215 -0.76550239 -0.78354329
0.05240019 -0.83108956 0.99575418
-0.42904562 0.93310118 0.88754654
0.00998579 1.05272722 0.81660676
-0.75568378 -0.51888812 -0.62506491
0.35448974 -0.55315036 -0.94863892
-0.21934262 -0.99829727 -0.11791241
-0.96179712 -0.61995339 -0.32084152
-0.49966571 1.01573074 -0.15417859
0.99656963 -1.03408885 0.11725420
0.87672782 -0.99838817 -0.04152361
0.92796421 1.01421535 0.35630447
-0.75718057 1.04070449 -0.09582614
0.19499303 -0.11982132 0.99352717
0.39251819 -0.98410410 -0.44984734
0.94589233 0.99852991 0.43995973
0.64613485 0.27379468 -0.75732559
-0.48689792 -1.01890779 0.43748805
-0.97263288 0.61871779 0.04240918
-0.48873794 -0.46458259 0.89622229
-0.17719235 0.99341685 0.34159720
-0.07062937 0.86189657 -0.98918635
-0.98182118 0.11326823 0.24220225
0.98873365 0.28210652 -0.06682879
0.36002061 -0.63266331 -0.94966978
-1.01286888 0.04868980 0.11937241
-0.86014163 0.56866968 -0.57823080
0.65946674 -0.19915801 -0.72547174
-0.04745179 0.98059624 -0.68615985
-0.20996518 1.05501759 -0.89590263
0.35236356 -0.64535201 -0.88532650
0.08829459 -0.98637396 -0.73811466
0.53085780 -1.01339245 -0.79149419
1.05839014 -0.87455738 0.03330515
0.78260827 0.97947949 0.53780317
0.70367944 -0.89010894 -0.69710851
-0.44460863 0.63769281 -0.95209336
0.06866934 0.42557946 -0.99108112
-0.08985465 -1.01493680 -0.76241398
0.13251466 0.94707829 -0.97726011
-0.59244573 -0.60099202 -0.69709313
-0.87910724 -0.20361260 -0.53702295
-0.73483920 -0.79217637 -0.63542664
-0.80114722 -0.75388056 0.59921002
-0.58704185 -0.17737252 -0.82599545
-0.26610455 -0.99801970 0.32385969
-0.12773161 0.46311614 -0.96271920
-0.35628232 1.00990582 -0.33599788
-0.95814693 0.26570714 0.29104203
-0.41934481 -1.02616370 -0.59440374
-0.19238971 0.99910241 -0.66553903
-0.10886237 -0.08508269 -0.94827354
0.99892163 0.66180146 0.05485753
-0.04387106 -0.19485442 1.00235462
0.15319714 0.99515957 -0.62240624
-0.52574658 1.03275931 -0.15325096
-0.45690596 0.10508515 0.84961826
-0.60394371 0.92874461 0.74951714
-0.91698396 0.74266809 -0.25764304
-0.36376992 -0.19308685 0.92365193
0.61275625 0.50190943 -0.82010984
0.22059788 0.22716546 0.98003364
-0.50643337 -0.98851675 -0.64840567
-1.00856543 0.03556011 -0.13417935
-0.91948390 0.96052992 0.24917451
0.63864970 -0.69309825 0.71554124
-0.06126272 1.03333068 -0.29198954
-0.96228600 -0.53499955 -0.15094382
0.98152161 0.92815894 0.12672311
-1.03950906 0.63429230 0.15574403
0.99530888 0.56444389 0.18157589
0.40451127 -0.90271026 0.88017493
0.12750514 1.01708317 0.12419702
-0.36917204 -0.50583190 0.90545648
0.38411811 0.02021077 0.92450362
0.54880941 -0.32690319 -0.84760320
-0.92421770 -0.88381290 0.36040312
-0.27904290 -1.02568567 -0.34921089
-0.61495614 -0.44146946 0.76152790
1.00098002 -0.23319595 0.06918973
0.97742558 -0.68097496 -0.05300274
-0.40040326 0.34212363 -0.92304069
0.85447049 -0.90084058 -0.61758059
0.40961066 0.91133541 -0.94679332
0.31935480 -1.00659585 -0.38904366
0.76762843 -0.60394335 -0.61879879
-0.86967146 -0.46991131 -0.47948268
0.81012511 -0.73181516 0.57924801
0.31658056 0.82711303 -0.99856234
0.53812206 -0.16726796 -0.83761173
0.57138872 0.13067701 0.81647271
-0.54723036 0.34681168 0.81876189
-0.20741437 -0.88568503 -0.95979834
-0.26635480 0.96055830 0.39401415
0.79922283 -0.84191149 0.60977936
-0.58811522 -0.16318306 0.78454465
-0.96413815 0.95596921 0.34008479
0.33512327 0.06130418 -0.95307261
-0.97381186 0.92751759 -0.18409877
-0.99411869 0.00175304 -0.26947197
-0.66131747 0.17786583 0.76020718
0.75763130 0.98587155 0.09026079
0.43333632 1.00633788 -0.80577123
-0.64128768 -0.80258799 0.78739297
0.89255774 -0.26289549 -0.50611025
0.29766092 0.40723285 0.93003869
0.42780516 -1.03826404 -0.35584220
0.04186551 -0.13143656 0.97479469
-0.12000334 1.02801692 -0.00940015
0.72289193 -0.96103936 -0.65583062
-0.18536621 1.00163901 0.44164425
0.69293118 -0.88832474 -0.65288877
-0.92945075 0.19036442 -0.36472759
0.45478201 -0.97278124 -0.25877884
-0.97378421 0.44399628 0.24139434
0.42900687 0.98192191 -0.26936156
-0.32457495 0.75498503 -0.90708417
-0.19697736 0.22047031 -0.99625802
-0.19028021 1.04789686 -0.39168170
-0.52975869 0.53907943 0.81348449
0.34656766 1.04371989 -0.33291838
-0.87457895 0.99236679 -0.23427790
-0.05531448 0.98969781 0.89670372
-0.53323388 0.15679315 0.82688808
-0.93278050 0.05278992 0.05958518
-0.03115737 0.40239301 -1.01186275
-0.96027160 -0.96001697 -0.37402713
-0.69736469 0.98726356 -0.62664491
0.97602999 0.37474608 -0.29935467
-0.00727164 0.81491292 -0.99757558
0.87748647 -0.32814386 0.59717870
-0.64840305 1.03794885 -0.33642709
0.39229915 0.04733786 0.90318179
0.15517473 0.74569565 -0.99290985
0.04204723 -0.72395813 1.01586103
-0.30582389 1.01703095 -0.65850556
0.76877356 0.42349052 0.68237883
-0.90068507 0.99463469 -0.44470665
0.53810966 -0.85009974 -0.87661183
0.76327348 -0.08557452 0.68687236
0.91560137 -1.00182652 0.49711272
-0.95576942 0.85510904 0.00259327
-0.87910604 0.75572497 -0.52520424
0.93279386 1.03331280 -0.25623626
-1.03221905 -0.36519986 -0.10914969
0.73552132 -0.52732223 0.73699450
-0.25146762 0.09943785 -0.99272877
-0.38985312 1.01109743 0.77053076
0.47674537 0.63385868 0.89748257
0.22107476 0.97062922 -0.82531363
-0.80522346 0.96074641 -0.25405380
-0.99022341 -1.03394139 -0.09409972
-0.61790717 0.09459049 0.77040339
-0.09844388 -1.00511670 -0.07726004
0.06286856 -0.97351652 -0.76437646
0.04391715 0.94311804 -1.03368974
-0.39245352 0.96782529 0.94002265
0.98535657 1.04598963 0.13072795
-0.25073782 -0.61431253 0.89945388
-0.22748542 1.00167143 0.79719096
-0.71109653 -1.02524805 0.69580233
0.80253744 -0.81063235 0.65956056
-0.84068811 0.70023233 0.54461259
0.69656157 -0.23163080 -0.77340680
0.86878300 0.67024630 -0.45943043
0.65719509 0.10189054 0.66821581
1.00872743 0.63635892 0.05896834
-0.75263274 1.01262641 -0.51054955
-0.34271699 -1.02233207 0.39772603
0.43850955 0.91520637 -0.95657861
-0.96500254 -0.78880131 -0.20459968
0.32310408 -1.01820922 -0.39440927
-0.15641418 -0.18786278 -0.94323051
0.92045152 0.67692834 -0.27712998
1.05968571 -0.38216132 -0.23523222
-0.21112114 -1.06164479 0.02575865
-0.50446343 -0.24343760 -0.84832448
1.00493073 0.17313933 -0.00065881
0.56293869 1.03244960 0.24195300
0.90655887 -0.10962411 -0.54357338
1.00043666 -0.35688421 0.01930535
0.16482650 -0.99670994 0.49000734
-0.70166147 0.10538003 0.75151396
-0.29967049 0.98925579 0.45921141
0.06477357 0.97037804 -0.82348722
0.62016153 0.06189898 0.73888034
0.53724635 0.30473518 0.84589398
0.39673379 -0.99269211 -0.28861809
0.98133397 0.61837137 0.03791815
0.24869415 0.59634876 0.98196697
0.48620421 0.84076333 -0.84561515
0.60357118 0.25858742 0.78340989
-0.46189395 -0.51839715 0.90863264
0.55641305 -0.97628713 -0.80657691
0.86969781 0.86348140 0.45551845
0.52922475 0.98418963 -0.41161600
-1.00917542 -0.97647107 0.15257932
-0.30024585 0.86707002 0.97207171
0.61693490 1.02614713 0.66980320
0.90275419 -0.77517372 0.35895741
-0.40261057 -0.95460367 -0.09969688
-0.33583850 -0.75519693 0.96505910
0.80953264 -0.88192064 -0.61982709
0.87928152 -0.97766352 0.04239544
-0.89101338 1.02012432 0.37142339
0.29156223 -0.09727152 0.96878070
0.92424023 -0.23041447 -0.21826889
-0.27340671 0.45780736 0.96241552
0.95035017 -0.52315092 -0.31734225
-0.77336812 -0.84088075 -0.67212683
-0.99153805 0.60087693 0.18224178
-0.93331468 -0.95980561 -0.07004033
-0.70303082 0.18545057 0.73843551
0.94659042 -0.05088721 0.28888476
0.91578233 -1.04439986 0.20961173
0.96577120 -0.79899907 0.23129280
0.92698574 -0.52400881 0.36026576
0.88327467 -0.73537266 0.45842329
0.00254475 -1.02602601 0.64215022
-0.99756825 -0.84552568 -0.10885141
0.59375715 -1.00191569 0.65433943
-0.89752781 0.71464789 0.41342509
0.94324362 0.06375726 0.33930159
0.92470515 -0.41114762 -0.23255536
-0.07685272 -1.03414631 0.76743472
0.94835532 -0.67443085 0.43902358
0.29870611 0.98748243 0.54061407
-0.81264961 -0.96260750 -0.38569829
-0.74891198 -0.11338824 0.69529200
-0.11883221 0.11955521 -1.00719857
0.47555363 0.02239028 0.91640854
-0.89100158 0.97143924 -0.20684434
0.13664877 0.93675083 -0.52732682
0.84234726 0.60399801 0.50063920
-0.25606707 -0.98312002 -0.65149242
-0.66066051 0.95857579 0.32903105
1.04481030 -0.57046646 -0.13548066
-0.45631823 0.99969316 -0.31320426
-0.65144360 -0.52358139 -0.74449134
1.04332507 -0.76877439 0.08376181
0.31241092 -1.01558900 -0.15879478
0.53681564 -1.04037404 -0.16666090
-0.20740905 0.47717956 -1.02523708
-0.44818446 -0.25076550 0.91775960
0.03061973 0.16759071 -0.96488285
0.87069857 0.79263687 -0.51862276
-0.98155069 -0.12657274 0.23543134
-0.26573631 0.97860628 -0.02054762
0.16783459 0.72048271 0.98648936
-0.41062409 -0.06218296 0.90251523
0.97543013 -0.37060469 -0.10238957
0.20604478 -1.02131891 -0.55562794
-0.33370945 -0.13770993 -0.91746962
-0.80577016 0.52065426 0.62370759
0.63824546 -1.04477012 0.17548795
0.70462728 -0.15767249 0.72424656
-0.26182869 1.04974937 -0.04300127
0.50461841 0.37628442 0.91275346
0.52215672 -0.93362337 -0.82791150
0.58500338 1.04608440 -0.33631000
0.23129459 -0.77096915 0.95790118
-0.72568142 0.01011414 -0.72646034
-0.29667270 -1.02476752 0.44454023
0.18936802 0.98835176 -0.97451425
1.01089144 -0.74830705 -0.28325805
0.55793834 -0.30660975 -0.76661837
-0.42209435 -0.96632779 0.59389830
-0.54464841 0.01350255 -0.81191778
-0.97110605 1.01155579 -0.39033130
-0.70626092 0.24977590 -0.74654520
-0.44401306 -1.00557172 -0.25729692
-0.04469069 -1.04670095 0.57883865
-0.81753969 0.88136387 -0.62874556
0.84812546 1.02290201 -0.14196837
0.71679783 0.03162178 0.66699231
0.95888650 -0.92763269 0.27123642
-0.65794146 0.94917810 -0.08049015
-0.83018768 0.99983388 0.54922312
-0.14558163 0.22314097 -0.99748540
0.23790145 -1.05251431 -0.73675090
0.23695344 -1.00569391 0.16473384
-0.05022359 -0.68203020 0.99564719
-0.06441294 1.00058293 0.20626192
0.20503445 -0.05066965 -0.96639377
-0.42815477 0.90683323 0.92325580
-0.26035172 -0.56805879 0.95927811
-0.11960224 0.39277151 1.00275183
0.79762816 -1.01874876 -0.48503691
0.66241193 0.16503835 0.73351979
0.06752755 0.35457370 -1.04663730
-0.75264132 -0.03751140 0.57624185
-0.26424581 -0.99608213 0.59431744
1.03851533 0.53143150 -0.08807887
-0.88281906 -0.24160242 -0.38582289
0.26288480 -0.49867228 -0.91651261
-0.21947128 0.66523957 0.98171651
-0.57985651 1.03725505 -0.09946702
0.13104655 1.01178765 -0.58386099
-0.04948530 0.62612575 0.95479620
0.29624844 -0.99278218 -0.28265598
0.49974385 -0.30238116 0.87804168
0.91731620 -0.11400098 0.45454803
-0.85001361 0.08318081 -0.55924881
-0.67958283 -0.78730953 -0.72657555
-0.59159636 -1.04419255 0.43688065
0.97167110 -0.68682569 -0.22467524
0.88002682 -0.98569530 0.42163807
0.72194612 0.99004406 -0.72305292
0.26750472 -0.94970119 -0.75998634
0.40291715 0.53943872 0.98390031
0.70957959 1.01321769 -0.06517585
-0.06108122 -0.12019888 0.97527522
-1.04415631 0.21204692 -0.05728507
-0.30048028 0.70002925 1.02480888
-0.05190259 -1.01725245 -0.76065218
0.32340929 -1.00140572 0.94095635
-0.86573982 -0.66026831 -0.57905692
