-0.01235692 0.07588460 0.00117668
-0.03708231 0.18724671 -0.02167375
-0.07885320 0.06671375 -0.02473945
-0.04215917 0.09007023 -0.01998230
-0.08012089 0.07377177 0.00756609
0.00979204 0.05707369 0.02289819
0.07606128 0.13374464 -0.01849691
-0.03078241 0.07094958 -0.03416786
-0.01085655 0.05909514 0.01629953
-0.07493251 0.11191392 -0.01063457
-0.04571657 0.17714371 -0.01858500
0.02808416 0.12690505 -0.01503016
-0.00889105 0.07181352 0.00385870
-0.04447789 0.17831899 -0.03246526
0.06778561 0.07114397 -0.00460942
0.04263303 0.05255710 -0.01924678
0.09332356 0.13739151 -0.01379083
-0.05834421 0.06742528 0.03058751
-0.05301069 0.08170070 -0.02957758
0.01248359 0.05859756 0.01843948
0.04097136 0.08170973 -0.00086207
0.01731913 0.14763641 -0.00336918
0.03324519 0.05633908 0.02162041
-0.07477926 0.09028487 0.00455969
-0.02215817 0.10830336 -0.00642629
0.06944624 0.09220679 0.01056646
-0.01259855 0.07133491 0.00573610
-0.04247854 0.15684801 0.00150509
-0.04142741 0.13505465 -0.02929769
-0.05392053 0.14415446 -0.01103747
0.08164266 0.15115274 -0.00743257
0.02486231 0.13633052 -0.00349832
-0.02605499 0.07436710 0.01759437
-0.08986371 0.13912883 0.02313820
0.07057247 0.06504233 -0.00666638
-0.03835826 0.12152863 -0.00900959
-0.07332786 0.07658017 0.01440528
-0.02190404 0.14404444 -0.00911274
0.03739067 0.08783971 -0.00134881
0.00580993 0.15411319 -0.02033080
0.05841811 0.07823773 0.00522912
0.08375303 0.09727138 0.00959356
0.02593853 0.14926325 -0.03403888
0.06470916 0.09963551 -0.00484623
0.04170287 0.07982623 0.01342515
0.08351997 0.13392304 -0.00888445
-0.06337112 0.11164286 0.01044935
0.02961369 0.11027260 -0.00874343
0.04972302 0.09348091 0.02411698
-0.01425561 0.06585433 -0.00242899
-0.00606218 0.07373610 -0.01099266
-0.06694746 0.14122763 0.00160791
-0.06633765 0.15826476 0.01256712
0.04378203 0.07933271 -0.03654744
-0.08154103 0.07842942 -0.01239718
-0.02758968 0.15104890 -0.03238863
-0.07578273 0.16292770 -0.01280217
0.05682654 0.12615302 -0.00457341
-0.04227781 0.11282563 -0.02103210
0.06880299 0.06747205 -0.00855475
0.01609867 0.15412265 -0.01690714
0.04448651 0.08017813 -0.03440415
-0.02518703 0.13974960 -0.02633942
0.07476230 0.09537315 0.01064585
-0.00876454 0.07720915 -0.02571480
0.02029664 0.14161885 -0.03423105
0.04145611 0.08326072 0.02686560
-0.02444947 0.10828108 -0.02663321
0.02491875 0.10617828 -0.02291308
0.03011684 0.08198802 0.02946716
0.01205553 0.14941840 -0.02407494
-0.04170500 0.08718118 0.01759344
-0.00576130 0.11153555 0.00015889
-0.09743737 0.14131273 -0.00799971
0.04705643 0.10510300 -0.00397212
0.03406454 0.15479448 -0.03000905
0.07838044 0.11773932 -0.01327240
0.01249014 0.15575713 -0.01895513
-0.04765847 0.09901609 -0.01897073
0.03128196 0.10524080 -0.00592555
0.07794538 0.10677204 0.01031439
-0.04149610 0.10644537 -0.01327738
-0.00565214 0.09691064 -0.03348388
-0.04441627 0.07796338 0.02576091
-0.07282872 0.05962715 0.01065251
0.03909323 0.07714423 0.01274076
-0.06687880 0.15086521 0.00015447
0.01761380 0.07048996 0.00763326
0.01747081 0.06823677 -0.02934841
-0.08125688 0.14257450 -0.00063221
0.05500022 0.13488695 -0.00243358
0.03908345 0.13201699 -0.00195447
0.02895454 0.13614632 -0.00066609
-0.05341013 0.14505011 -0.02627405
-0.05447604 0.12591600 -0.02732514
0.06922764 0.08470222 0.00175556
-0.02529256 0.16213596 -0.00546303
0.04838179 0.06435641 -0.03505190
-0.06333084 0.04969408 0.00067011
-0.02126892 0.13095009 -0.01759904
0.07230001 0.06202228 -0.00697254
-0.04660094 0.06054346 0.02363104
-0.07657973 0.14647914 -0.01532714
-0.06047112 0.14638001 -0.02716630
-0.03553378 0.18600826 0.00046709
-0.04823145 0.05425345 0.00488833
0.00746001 0.09025405 -0.02769035
0.05796824 0.12870102 -0.02695546
-0.01433812 0.06127910 0.02599304
-0.06384131 0.15130962 -0.00400758
-0.08358566 0.09105980 -0.01682402
0.05704223 0.08164788 0.01216590
-0.02977088 0.07991099 0.02117904
-0.03475644 0.06943365 0.02919890
-0.06778650 0.05298551 -0.01313123
-0.06215190 0.14364603 -0.00355464
-0.08744618 0.07888606 0.00414977
0.02047156 0.08909012 -0.00718195
0.03460543 0.14139111 -0.03590205
0.05429436 0.12829684 -0.00120442
-0.06964885 0.05992435 -0.03322050
0.06530872 0.06309418 0.02030923
-0.02996860 0.11121856 -0.01529491
0.01265552 0.06721795 0.01244401
0.02746170 0.08767855 -0.03165381
-0.05453281 0.11960296 -0.02337746
0.01482106 0.06606810 -0.00797272
0.04233571 0.14296252 -0.03202040
0.08623136 0.08272941 0.01027423
-0.05979457 0.15786031 -0.00045927
0.04003563 0.09885933 -0.03560732
0.07834603 0.10907353 -0.01148568
-0.04372473 0.05508450 0.03247981
0.04651894 0.08785284 0.02329387
0.03685181 0.05348523 -0.01193863
-0.06933364 0.12199692 -0.02017629
0.04971757 0.15322147 -0.01893917
0.06666476 0.13202593 -0.01300403
-0.07192570 0.08442669 0.01484362
0.04944335 0.11109984 -0.02951704
-0.06223633 0.14739068 0.01169505
0.03581601 0.15104392 -0.00924092
-0.02334228 0.17283401 -0.00710423
-0.07976461 0.10748344 0.00083739
-0.07841974 0.11797468 -0.01051557
0.06634021 0.07987258 0.02365513
0.02384646 0.06373744 0.02145463
0.04876268 0.06104307 0.02005406
0.03767757 0.09273966 0.02030099
-0.04025505 0.19221891 -0.01953557
0.02191805 0.15958817 -0.02097208
0.03987571 0.05736687 -0.01792425
-0.06812640 0.15305929 0.00307303
-0.05068033 0.07901891 0.02100231
-0.04299875 0.11242598 -0.02202086
-0.01963802 0.10884712 -0.01087425
0.04161631 0.11851597 -0.00239827
-0.06519026 0.17601429 0.00475927
-0.05582786 0.16185701 -0.02430282
0.06967840 0.05727691 -0.00753183
0.04862414 0.07269301 0.01858527
-0.09405825 0.15428714 0.01361191
0.03824580 0.05754735 -0.04100705
-0.03782497 0.11525324 -0.01384882
-0.01263332 0.16133237 -0.01150346
-0.00534491 0.10372889 -0.03381834
0.09229352 0.13848045 -0.00365647
-0.08612117 0.14231533 0.02323427
-0.07427438 0.08327781 0.00983369
0.01439945 0.14392322 -0.03580656
-0.06446645 0.17989555 -0.01443921
-0.05808926 0.07766265 -0.03678289
0.05427415 0.07795044 0.02479205
-0.00086244 0.11569054 -0.00178796
0.01690231 0.16218401 -0.02023185
0.06107169 0.10476261 -0.01336380
-0.07114638 0.10145245 0.01332434
0.02302025 0.07731488 0.01196594
-0.07724983 0.14799678 -0.01293688
-0.05668755 0.12896065 0.00291242
0.04954391 0.08436510 0.02070098
-0.04752302 0.14779952 0.00335382
-0.02765488 0.17294306 -0.00656459
-0.03666898 0.14170896 0.00409625
0.05382020 0.05948321 -0.02429802
-0.07390364 0.16061854 -0.00296922
-0.07222030 0.06605557 -0.03479817
0.01152581 0.06153736 0.02406768
0.02574829 0.14853826 -0.03313055
0.04678208 0.09600514 -0.00806269
-0.06572384 0.06447057 0.02113634
-0.07537584 0.07838753 -0.02420443
0.03185788 0.05443456 -0.00400666
0.06020630 0.09002924 0.01007054
-0.04039833 0.17895603 -0.00144321
-0.06230112 0.05128160 0.02094314
0.05450971 0.15040760 -0.02079405
-0.02064953 0.15353955 -0.00195347
-0.07820392 0.15764166 -0.01915028
0.01737880 0.12768598 -0.00855567
-0.03407046 0.17700873 -0.02219818
-0.02728436 0.05936401 -0.03996284
-0.04715917 0.05705287 0.03232861
-0.07189760 0.14283091 -0.01553203
0.01824922 0.05605654 0.02487084
0.07252076 0.13467665 -0.01234171
-0.08190154 0.17043415 0.00650552
-0.06710857 0.09656246 0.01491021
0.05863284 0.10788466 -0.02739999
-0.02446110 0.05100466 0.00572028
0.04088163 0.05002126 -0.02318719
0.06952968 0.10606043 0.00184652
-0.00833386 0.09670234 -0.03467035
0.04020255 0.10863037 0.01856186
-0.02175647 0.07439481 0.01402880
0.08077478 0.13205747 -0.00888373
0.08504207 0.09294717 0.00836141
-0.03759068 0.18391430 -0.00112946
0.04403066 0.08037974 0.01268681
0.04512166 0.14724168 -0.00823507
0.04952677 0.06331498 -0.03451121
0.00905844 0.15762557 -0.02074704
-0.07556603 0.06696931 0.00761570
0.05032773 0.11031533 -0.00434277
-0.07777953 0.12032282 -0.00661049
-0.03285551 0.18375535 -0.00961767
0.02039700 0.06314024 -0.02745695
-0.05677649 0.15762912 0.00275629
-0.01463028 0.09362046 0.00778371
0.00775090 0.14204817 0.00111121
0.03208806 0.05920366 -0.04325201
0.03552301 0.14907870 -0.00355172
0.03702886 0.07870215 0.01037892
-0.07180559 0.11223755 0.01526286
0.01617929 0.15413111 -0.01069897
-0.04176200 0.17330359 -0.03028960
-0.08312801 0.08810449 0.00482379
-0.09064369 0.16888602 -0.00477236
-0.04171632 0.11843886 -0.02400417
-0.06239195 0.16170520 -0.01664679
0.03382009 0.14104141 -0.00416627
0.00217058 0.10688233 -0.03593483
-0.08609504 0.09103601 -0.01389457
0.07483758 0.06135213 0.01633713
-0.06338631 0.09434170 -0.02656754
-0.04560431 0.08489129 0.01888723
-0.06301220 0.11670446 -0.02002296
-0.04983338 0.05418297 0.02674793
0.06681843 0.12656079 -0.00945504
0.07937849 0.12267981 -0.01368576
0.02864822 0.10337676 -0.00516882
-0.06782287 0.07397383 -0.02679782
0.08546107 0.08679539 0.01603249
0.04764595 0.11430596 -0.03179615
-0.07531276 0.09740923 -0.02289548
0.05650568 0.14080210 -0.00693365
0.07397544 0.05999464 -0.00212795
0.02448526 0.06394961 0.01598009
-0.06106797 0.09964731 -0.03109839
-0.05771505 0.16928828 0.00098191
0.00994834 0.11783197 -0.00719398
-0.01169925 0.05532105 0.01762995
-0.02836267 0.09887592 -0.01869730
-0.01865775 0.17168194 -0.01194782
-0.04904535 0.05827030 0.00136896
-0.05815433 0.15453981 -0.01857773
-0.04174743 0.05758585 -0.04095235
-0.04739316 0.08077739 -0.03228343
0.05182490 0.05791249 -0.02973007
0.01506720 0.09322219 -0.02227832
0.02667100 0.09988169 -0.02748582
-0.04724449 0.05862831 -0.03658176
-0.06049723 0.05877423 0.01215427
-0.06134255 0.07374638 0.02756280
-0.04361736 0.05607633 -0.00553031
-0.01952931 0.05768957 -0.02313225
-0.05644590 0.12557139 -0.01362985
-0.05174501 0.05543632 -0.00215846
0.06849600 0.07933579 0.02318038
0.02483282 0.13504051 -0.03371044
0.00929883 0.15413983 -0.01989408
-0.00665932 0.13957593 -0.02682111
-0.04395467 0.05834766 -0.01210475
-0.08703391 0.08022080 0.00735241
-0.07542734 0.10325513 -0.01480807
-0.00814603 0.06127654 0.01260318
0.02454438 0.08286065 0.01830700
-0.05918664 0.14447215 -0.02326797
0.05147911 0.10504268 -0.01032426
0.02350848 0.12908138 -0.01280411
0.03240344 0.14325088 -0.03444077
0.06760363 0.06483205 0.01655275
0.06742213 0.10442392 -0.00210614
0.03347914 0.12191526 -0.00812077
-0.04267173 0.09135479 0.00205691
-0.02699187 0.08299817 0.01277203
0.03693951 0.08895039 0.02974490
-0.02543610 0.10140072 -0.00305414
-0.01776144 0.07268263 0.02318954
0.05876686 0.11309646 -0.01199384
0.03830264 0.06501710 0.00287892
-0.09891050 0.14778824 0.01492765
-0.04756959 0.14365704 0.00141893
0.02896946 0.10135891 -0.03497228
0.02341062 0.05782776 0.00818348
-0.03978642 0.17081188 -0.03670195
0.05044627 0.07689163 -0.02224020
0.06513290 0.05249845 -0.01015485
0.01821163 0.15937591 -0.02236804
0.01459101 0.07383679 -0.02658228
0.04571820 0.15561555 -0.02701901
-0.05355451 0.05908251 -0.03290655
-0.07249353 0.14374401 -0.01244839
-0.05106390 0.12205476 -0.02063398
-0.06375320 0.14420781 -0.01042970
-0.06877343 0.15684834 -0.00055639
-0.05997705 0.16838625 0.00847087
-0.05637259 0.13449535 -0.01924302
0.02580870 0.09554659 -0.03118492
-0.03649979 0.09226267 0.00060673
-0.03078151 0.09185331 -0.03067127
-0.06991304 0.05951820 -0.01440386
-0.05093597 0.06563520 0.03106346
-0.00069368 0.13541587 -0.03464142
0.00765639 0.15682776 -0.01370303
0.04825586 0.06072775 -0.02844416
-0.02232409 0.14997452 -0.01488753
0.03313493 0.14322987 -0.03639265
-0.04651149 0.14109001 0.00685501
0.06552915 0.14554673 -0.01384156
-0.02293375 0.10169111 0.00222785
-0.02530190 0.12122584 -0.01533192
-0.08729410 0.15115464 0.00873016
-0.05678141 0.09659610 0.01842084
0.04745587 0.15422270 -0.02766365
-0.04168378 0.08687465 -0.01683142
0.01465246 0.06804259 0.01623029
0.04238016 0.13411394 -0.03318290
0.04710650 0.07107358 -0.03756741
0.01538897 0.14590330 -0.03297348
-0.07244511 0.16065687 -0.01946963
0.03804991 0.10526965 -0.03051606
0.07657935 0.09768620 0.01450567
-0.08641175 0.14929381 0.01693873
0.05333580 0.05577502 -0.00444082
0.06559325 0.05366129 0.00386331
0.02978769 0.12934458 -0.00665365
-0.01099187 0.08426188 -0.02787223
-0.04274876 0.09144296 0.00279277
-0.08754046 0.16634038 -0.00910095
-0.08167371 0.10071241 -0.00168359
-0.04869585 0.13091286 -0.00136935
-0.03285804 0.14078736 -0.03159976
0.04222116 0.15173608 -0.02627752
-0.09225380 0.18016441 0.00419224
0.01217835 0.11469673 -0.02611508
-0.05784626 0.05417888 0.02882737
0.03102031 0.08531993 -0.03783217
-0.08044783 0.14827581 0.00476809
-0.02816504 0.14095463 -0.00634939
-0.02901919 0.13554503 -0.02169140
-0.06386688 0.17265251 -0.01913339
-0.04792844 0.14195436 -0.02567436
-0.01052747 0.06752630 0.01323793
-0.07189933 0.09495904 -0.02659859
0.02285734 0.06298029 0.00565793
0.06689145 0.05272511 -0.00836689
-0.09415282 0.15132225 0.00505370
0.04741056 0.10182345 0.02194639
-0.05802057 0.15272130 0.00729541
0.03334337 0.08468547 0.00275639
0.07067880 0.08711682 0.01646182
0.05145426 0.14302820 -0.00955748
-0.02435889 0.13802285 -0.02042239
0.00841434 0.05887629 0.01108148
0.01822309 0.08738337 -0.00067180
0.02722154 0.13101897 -0.00503587
-0.08259121 0.17383528 0.00889384
0.03688156 0.15821314 -0.02196127
0.07131730 0.05519984 -0.01228127
0.05773958 0.12057558 -0.03341144
-0.06989715 0.14205439 -0.00726127
-0.01597707 0.05880513 0.00939186
-0.08548502 0.17495778 0.01246481
-0.01000556 0.06853326 0.00356282
-0.06806958 0.05836968 -0.02868228
-0.05843664 0.09767477 0.01136884
0.02555611 0.15155771 -0.00637989
0.06412160 0.11042234 -0.01726059
0.02587711 0.06658028 0.01027918
-0.05094188 0.16873404 0.00341536
0.02168656 0.13234323 -0.00897008
-0.05081422 0.17418307 -0.03062561
-0.05384503 0.13042952 -0.00199506
-0.07888819 0.06862379 -0.01522784
-0.02525623 0.12595379 -0.02156524
-0.00992090 0.06346148 0.01812350
-0.05810592 0.07989870 -0.03918929
-0.08342100 0.14837526 -0.00519994
0.06552647 0.13368048 -0.01304530
0.05381105 0.10161342 -0.02815231
0.03736459 0.09476526 -0.03599490
-0.01852456 0.14504445 -0.01532591
-0.03492740 0.09817532 -0.01070112
0.02326849 0.06613484 0.01503518
-0.00957139 0.10966421 -0.03374673
-0.02048233 0.05757400 -0.00100945
-0.08136722 0.16850719 0.01057614
0.07494494 0.14801194 -0.01321289
-0.06718013 0.16439828 -0.02213292
-0.06822233 0.15285063 -0.00988555
-0.10061114 0.14824763 -0.00051133
0.07018222 0.06619036 0.02177314
-0.03406867 0.16726427 -0.00074207
0.06170966 0.14331897 -0.01743609
-0.03669638 0.13962370 -0.02815922
-0.08861216 0.15130807 0.00443227
0.05601376 0.13893908 -0.00836598
-0.03542005 0.08356737 -0.02661837
-0.04464095 0.08024697 -0.02861313
-0.02122486 0.09885211 -0.02910415
-0.05788834 0.14597471 -0.02674074
-0.02882783 0.09967864 -0.00798719
0.00307314 0.10303982 -0.00065850
0.05726358 0.06340879 0.02427583
0.07887591 0.06472975 0.01459280
-0.06711330 0.15060684 -0.01182465
-0.01002080 0.06421210 -0.01247891
-0.06477387 0.15753406 0.01253893
-0.06239212 0.15822117 0.00795195
0.05822555 0.05231167 0.00802721
0.03021136 0.08754247 0.01073286
-0.07320362 0.17006144 0.00460940
-0.07656801 0.06098086 -0.03849423
-0.06111636 0.16663574 0.01292480
0.06103732 0.06297593 0.02894092
0.00131653 0.07669891 -0.02100490
-0.01021286 0.13373184 -0.02836208
-0.08605047 0.06506070 -0.01726917
0.02620898 0.08352956 0.01133038
-0.03179612 0.06856083 -0.03015781
-0.04634036 0.12878355 -0.02783430
0.03667779 0.10487944 0.02318264
-0.07214438 0.17711510 -0.00112361
-0.05294074 0.10637376 0.00571801
-0.03797101 0.18321699 -0.03749350
-0.00639212 0.06405270 -0.00673550
0.03937776 0.08036476 -0.00263049
-0.06251584 0.14743362 -0.01758257
-0.06762642 0.07937530 0.01817259
0.05615232 0.12530848 -0.03408600
0.06203385 0.05649111 -0.02249609
-0.09589652 0.17172915 -0.00400587
-0.06898595 0.06087932 -0.02011883
-0.00042594 0.14947584 -0.02375886
-0.05492511 0.07621257 0.04056405
-0.07831357 0.14876163 0.01386547
-0.01766048 0.08322726 -0.03300897
-0.05141851 0.15832570 -0.02694212
-0.03972569 0.17413683 -0.03304736
0.02120870 0.05556495 -0.00315058
-0.05189953 0.06508373 -0.03940472
0.03711937 0.13404045 -0.03540383
-0.04331931 0.06433928 0.01026305
0.03841325 0.05690829 -0.01864469
-0.06303392 0.08569467 0.01503878
-0.02734253 0.07492164 -0.03687714
-0.04731847 0.17948332 -0.01757603
0.04045163 0.06481740 -0.02567241
-0.03310781 0.09715061 -0.02073845
0.04943494 0.08912627 -0.01506073
-0.08178350 0.17097428 -0.00490283
-0.07205623 0.09257277 -0.02993183
-0.07427116 0.06172846 -0.03932310
0.05621175 0.05564854 -0.01298753
-0.08336138 0.09827668 0.00414598
0.07797042 0.12877642 -0.00730541
0.05963020 0.08123389 0.02386042
-0.06597907 0.12691547 -0.01645917
0.01819524 0.14087233 -0.03735681
0.03517067 0.06833635 -0.04173568
-0.01871945 0.06856889 0.01396843
-0.04489771 0.08094253 -0.02688884
-0.06024957 0.08953978 -0.03006253
-0.03780098 0.17073581 -0.03736816
-0.06378118 0.15356548 -0.02318839
-0.00925312 0.10303129 0.00677124
0.01823270 0.15416828 -0.00918081
-0.03667712 0.09711097 -0.01412857
-0.07885452 0.16494483 -0.01709087
-0.08062647 0.17060292 0.01196645
-0.05097459 0.05429219 0.00406321
0.04197663 0.06180333 -0.00483531
-0.05505951 0.14114054 -0.01341807
-0.08348472 0.07530871 -0.01452610
0.06023902 0.07353391 -0.00316358
-0.04216636 0.08385819 -0.02303523
-0.01910497 0.06027380 -0.01649699
-0.03538898 0.17720340 -0.01176670
0.05017124 0.09088928 -0.01283135
-0.01555119 0.06261824 -0.00471116
-0.06182126 0.05635155 0.00667495
-0.06148631 0.11577390 0.00848222
-0.02193150 0.14418828 -0.01844468
0.06564957 0.08368041 0.02286904
0.01984615 0.08385427 -0.03094676
0.03778347 0.05957488 -0.01003503
-0.01901355 0.07545322 0.00924638
-0.08269391 0.09096967 -0.02218063
-0.07406837 0.09729060 0.01239282
-0.04821423 0.17711651 -0.00698913
-0.08309026 0.06702712 -0.03324455
-0.04278999 0.15516917 0.00319512
0.05579014 0.05196754 0.02129319
0.07384370 0.05838846 0.00658330
-0.00483375 0.13469560 -0.00752366
0.01809073 0.13041513 -0.03658376
0.03400822 0.12438101 -0.00840546
-0.06166418 0.14671509 0.00269156
0.04458223 0.10556032 0.01428394
0.04123004 0.11928505 0.00660376
-0.01484674 0.06627704 0.02280824
-0.06311791 0.05693761 0.01971253
0.06563275 0.11094542 -0.01096323
0.03492054 0.05365784 -0.00974482
-0.04506341 0.14954694 -0.02978859
0.06004840 0.06750786 -0.00783932
-0.07639161 0.06423733 -0.01166478
0.07104067 0.07094666 0.02327118
-0.00029159 0.13646391 -0.00206585
0.04715909 0.09636228 -0.02121723
-0.09328100 0.17024663 0.00143953
0.06301795 0.05649030 -0.01058637
-0.05154922 0.05589518 0.00140692
0.06532484 0.09914887 0.01360445
-0.00558845 0.11333486 -0.03634007
-0.03055761 0.15481573 0.00217238
-0.04594833 0.09511359 0.00571369
-0.04908218 0.05695552 -0.01973283
-0.05886727 0.16176173 -0.00429171
0.03576874 0.07741830 -0.03580222
-0.03994050 0.13513063 -0.03226231
0.02420703 0.15569425 -0.00954342
-0.06865386 0.15497695 -0.02521401
-0.01618792 0.05963241 -0.02098573
0.02493414 0.06344014 0.01362956
0.02229009 0.13023373 -0.00406888
-0.05520169 0.06719084 0.03627982
-0.07489841 0.17658693 -0.01833304
-0.01765772 0.07240205 -0.02902629
-0.01910213 0.15430088 -0.02347837
-0.08982231 0.14370933 -0.00611688
-0.02095552 0.10991427 -0.02648559
0.04988838 0.07002158 -0.03372053
-0.03325933 0.16697043 0.00003208
0.06482875 0.05078223 0.01219806
-0.04659078 0.09389108 -0.01009930
0.00833997 0.12819834 -0.00177397
-0.09746397 0.16819039 -0.00436581
-0.07585339 0.11510643 -0.01869361
-0.04420178 0.11862687 -0.02270132
0.04352443 0.07741497 0.01224804
-0.03673054 0.16437636 0.00048097
0.05178051 0.08979240 0.02290088
-0.04222197 0.17168193 -0.03662081
-0.04535861 0.18479426 -0.03584035
0.02477775 0.05906259 0.00667237
0.06142709 0.06341441 -0.01446530
0.07472404 0.05931218 -0.00554715
-0.01315366 0.06638845 0.02119036
0.01973131 0.09463526 -0.02846604
0.03276954 0.10118604 0.01895010
-0.02243160 0.15488289 -0.01806218
-0.09243183 0.14271991 -0.00669407
-0.03097596 0.13415284 -0.00466015
0.06582393 0.07234642 -0.00129989
-0.02082220 0.18230546 -0.02702257
0.01890859 0.10025761 -0.01991179
0.01831589 0.13936155 -0.03897326
-0.02164922 0.12092511 -0.01712339
-0.03958991 0.18834314 -0.01411055
-0.01444449 0.10529073 -0.00154760
0.04009430 0.07952732 0.02345785
-0.06396370 0.15842955 -0.01398699
0.01501114 0.11879531 -0.03528371
-0.07794102 0.14689116 0.01234499
0.00186834 0.08181022 -0.01216686
-0.03382850 0.13681515 -0.00380698
-0.09134471 0.17303586 -0.00828895
-0.04750537 0.05586207 -0.02339193
-0.05780400 0.16424912 -0.00151425
-0.06437422 0.16120107 -0.02926833
-0.08494890 0.15956008 -0.01356244
-0.03159380 0.11112191 -0.01657427
0.01661140 0.12462711 -0.02887125
-0.06856151 0.15782094 -0.01739116
-0.03145922 0.17708254 -0.00574905
0.04309000 0.09356541 0.01168497
0.04087710 0.10112599 -0.00147047
-0.03022353 0.13064052 -0.00724844
-0.01015771 0.06833094 -0.02792466
0.03755206 0.10045254 -0.00250690
-0.02664133 0.09960745 0.00321814
-0.07364021 0.14736789 -0.00367664
0.00388778 0.10817971 -0.00754771
-0.03341638 0.18364237 -0.02572547
0.03749647 0.10365858 0.02632142
0.08296102 0.06697059 0.00832004
-0.00491032 0.19769852 -0.03617700
0.07487950 0.14273560 -0.01328042
0.04629640 0.13295422 -0.03452726
-0.02058458 0.11515111 -0.02639942
-0.02652904 0.08239464 0.01201261
-0.02055355 0.06843357 -0.02564343
-0.05015494 0.05305139 0.03222905
-0.05707896 0.09240793 0.01819262
0.06151661 0.06562980 -0.01257433
0.04007692 0.05592404 0.01873008
-0.08154964 0.08173192 -0.01410349
-0.01377356 0.07513495 0.01745930
0.04504289 0.08588310 0.01451233
-0.07696397 0.08680576 -0.02233145
-0.03713553 0.11568341 -0.01627325
-0.05747435 0.08920923 -0.03085594
-0.00281304 0.07318304 -0.01515200
0.05537688 0.14553310 -0.00869497
0.00796012 0.05943847 0.02346597
0.08233161 0.12279730 -0.00818935
-0.05707501 0.14374481 -0.03024747
-0.04076140 0.06447035 0.02511028
-0.09598865 0.16721374 -0.00997552
-0.04839772 0.16520368 0.00781247
-0.07294680 0.09417570 -0.02648482
-0.01984186 0.15966263 -0.01194908
-0.03222309 0.15969577 -0.04195282
-0.08615982 0.14797008 0.00791338
-0.03126803 0.17743368 0.00230644
-0.00700836 0.06669769 -0.01837840
0.01109730 0.08286349 -0.02249980
-0.04562213 0.06449002 0.02761613
0.03462090 0.05868413 -0.02609781
-0.00813668 0.10435434 -0.03345573
-0.03664456 0.08305673 0.01500851
0.01757292 0.09348326 -0.02758338
0.05981256 0.07508695 0.00102990
0.06663634 0.08233273 0.00570409
0.02702499 0.09437599 -0.03439218
-0.03499556 0.13709915 -0.00125474
-0.06743829 0.07593874 0.02174542
-0.09551095 0.16387373 -0.01225163
-0.06522343 0.14817348 0.00338368
-0.05891853 0.07997495 0.02224112
-0.07319125 0.12254282 -0.00471946
-0.06039901 0.15701194 0.00783436
-0.02239209 0.07094133 -0.03484835
-0.07564045 0.14180686 -0.00589646
0.06694625 0.10124086 -0.00977915
0.06008022 0.12468427 -0.01095726
-0.06632653 0.07257566 0.02159627
-0.06190439 0.08401081 -0.03346136
-0.07931055 0.14925006 0.00773342
-0.05327291 0.09743507 -0.01936735
-0.02463406 0.15653056 -0.00170584
0.04304466 0.08483668 -0.00791130
-0.07274749 0.06508193 -0.01958485
-0.05577844 0.16176675 0.00065705
-0.06406762 0.05521579 -0.00898095
0.03068945 0.06210952 0.01474294
0.01768559 0.12698373 -0.00167209
-0.09002236 0.09906392 -0.00195014
0.00812657 0.10128078 -0.02257769
-0.02587515 0.05179972 -0.01441337
0.05582676 0.06372667 -0.03193377
0.02575557 0.05509850 -0.00819147
0.03598455 0.09770520 -0.03506320
-0.08705384 0.14965738 -0.00120467
0.00811453 0.06159762 0.00439858
-0.05109137 0.08574344 -0.02183049
-0.06424898 0.17956655 -0.00496618
0.03218352 0.10362314 -0.03715483
-0.01227495 0.13624367 -0.00718737
-0.07648105 0.14127958 -0.00352323
0.06540467 0.11991304 -0.02105190
0.01328509 0.06258030 -0.01410867
-0.01838917 0.16494286 -0.01107991
-0.06979257 0.17077266 0.00484677
-0.05041603 0.13894548 -0.02985617
-0.01804788 0.17169152 -0.00272464
-0.01576767 0.16198754 -0.01033021
-0.03134780 0.17531656 -0.01848264
-0.04962375 0.07711084 0.02759969
0.07604384 0.14804398 -0.00904826
-0.04914999 0.10022724 -0.01519957
0.04511565 0.07847857 -0.00364452
0.08487860 0.08636660 0.00011678
-0.08513474 0.07152703 -0.00315147
-0.08543636 0.18197647 0.00320768
0.02799812 0.07855926 -0.03408203
-0.04600571 0.17308913 -0.02835302
0.00099043 0.10127585 -0.03089477
-0.00538053 0.11711925 -0.00197984
0.00907313 0.12637833 0.00029200
0.04066833 0.07834569 0.01917710
0.05680344 0.05993596 -0.02556269
-0.06139997 0.06121368 0.00990159
-0.00770350 0.13323092 -0.00795450
-0.02867292 0.08875249 -0.02538407
0.00690076 0.05323217 0.02361558
0.06699862 0.11626189 -0.01817814
0.00149684 0.10822553 -0.03408507
-0.02363447 0.06152543 -0.03925195
0.06852044 0.05512802 -0.01718241
-0.08623500 0.17045484 0.00788492
0.05274050 0.11952887 0.00159951
-0.00464826 0.14152075 -0.00538300
-0.06973381 0.10033367 -0.02510248
-0.05897160 0.17877375 -0.01386437
0.04046524 0.10318913 0.02192444
-0.07437798 0.17110220 0.01355436
0.06227071 0.07427888 0.02267978
0.00474595 0.11185648 -0.03133703
-0.02939157 0.16845644 -0.02807861
0.03636902 0.09456065 0.01248920
-0.01538666 0.14920169 -0.02281098
-0.03273529 0.17940210 -0.02253984
-0.04408244 0.16817771 -0.04126113
-0.02387231 0.14105576 -0.02567154
0.01103379 0.08517186 -0.01771383
0.03595399 0.06045712 0.01815620
0.06921528 0.05922271 -0.00713612
-0.05445813 0.15531839 -0.03166002
0.01516601 0.13487624 -0.00571266
-0.04225532 0.09625898 -0.00291934
-0.06233924 0.16840602 0.00985403
-0.02095607 0.11772108 -0.02207195
0.05408196 0.06969562 -0.01867504
0.06716357 0.11047689 -0.01392900
-0.03952337 0.11462987 -0.00367537
-0.00085893 0.14444640 -0.02912119
0.04836460 0.05634020 0.00891030
-0.07566492 0.06403157 -0.03544048
0.06900987 0.07639305 0.02116872
-0.06350049 0.07085504 -0.03169537
0.04489692 0.05705357 0.01086019
0.08324629 0.11101946 -0.00355037
0.07365859 0.11606494 -0.01824841
0.05011653 0.09337050 -0.02086919
-0.06280641 0.15143712 -0.02734943
-0.04657012 0.08986340 0.00987120
0.08132116 0.08175742 0.00920782
0.07133770 0.09564916 -0.00620596
-0.05692480 0.17404614 -0.03033296
0.03614436 0.07548063 -0.03302439
-0.07319862 0.05547655 0.00140628
0.02352560 0.15983346 -0.02133573
0.08629248 0.14060128 -0.01424532
-0.05873080 0.11495809 0.00686958
0.08885575 0.13636325 -0.01409697
-0.00512849 0.19363551 -0.02571163
0.08393150 0.10574561 -0.00067167
0.06001642 0.10861714 -0.01680776
-0.09210291 0.14578471 0.00609494
0.07382619 0.09075059 0.01859193
0.02176915 0.07756418 0.01564871
0.04207376 0.05316840 0.00864745
-0.07773498 0.06239681 -0.03274874
-0.03168215 0.06751466 0.02503274
-0.04437121 0.16203369 -0.00365695
-0.00172626 0.10122746 0.00530388
-0.07193259 0.15002349 0.00502207
0.00559480 0.11983966 -0.03181607
-0.08861802 0.08059146 0.00742486
0.05904929 0.10457617 -0.01343616
0.02222006 0.08065291 -0.03480342
-0.07663066 0.13833703 0.00229485
0.05525963 0.13063584 -0.02926622
0.05517389 0.05796884 0.02133523
-0.01395563 0.06580715 0.00939301
0.01352884 0.08010094 -0.01607387
-0.07544529 0.16053821 -0.01309242
-0.03630852 0.08770443 -0.02431119
-0.03015558 0.18190511 -0.01019092
-0.03547145 0.15796191 -0.03880864
-0.07170188 0.11869612 -0.01008149
-0.07548887 0.11359388 -0.00499726
-0.03082511 0.17352983 -0.04074680
-0.04877837 0.09662904 0.00234189
-0.08331677 0.06416830 -0.03108304
-0.09408589 0.17965427 0.00607120
0.03282709 0.11500154 -0.00586747
-0.03679651 0.16875434 -0.00346460
-0.08320342 0.08321793 -0.01843839
-0.00440076 0.06889084 -0.00274806
-0.05536251 0.15663721 -0.01552689
-0.06499453 0.14466247 -0.02316771
0.02289600 0.10488905 -0.01129355
-0.08855539 0.16972230 -0.01497887
-0.02706303 0.11445992 -0.01178109
-0.09695254 0.18046649 -0.00327259
-0.04507094 0.17808145 -0.03551535
0.05580179 0.06489001 0.02446083
0.07374582 0.11429402 0.00114850
0.06054372 0.08710440 0.01116100
-0.05328799 0.15887249 -0.00393277
-0.04046126 0.16179718 0.00114226
0.01141727 0.10635738 -0.02152527
0.03684980 0.09616241 0.02228418
-0.03762164 0.18262950 -0.00904910
0.04273095 0.08670403 -0.03557424
0.04678571 0.08088726 -0.02273170
-0.05553355 0.12729137 0.00215707
0.02999371 0.12517887 -0.02578694
-0.02285510 0.11839166 -0.01914026
-0.05333041 0.05219210 -0.02199410
-0.04599983 0.07987405 0.02464385
-0.08429084 0.05924752 -0.03825730
-0.05598558 0.15359277 -0.01859336
-0.05434326 0.15369572 0.00833092
0.03271534 0.06364450 -0.03363813
-0.05422298 0.12885889 0.00009042
-0.09050386 0.06349127 -0.03254176
0.09529088 0.14707012 -0.00457192
0.03764549 0.06015077 -0.05611210
-0.02156661 0.13261843 -0.02345506
0.04017216 0.13657323 -0.03380835
0.04401957 0.12229401 -0.03486657
0.01354877 0.14684632 -0.00269641
0.07469285 0.14237942 -0.01688636
-0.06443784 0.16831103 0.00711291
0.05956728 0.14259870 -0.01663637
0.05490910 0.13381813 -0.01209372
0.07528103 0.09563622 -0.00838490
-0.04595382 0.09413589 -0.01522342
-0.07063367 0.06028442 0.03073837
-0.02178501 0.05890274 -0.00250154
0.01428031 0.15654394 -0.01967164
-0.02460458 0.05594393 0.02523009
-0.02129729 0.06725986 0.02068581
-0.07595258 0.09988542 -0.02146398
-0.02988636 0.14595652 -0.00568113
0.03454447 0.12239554 -0.03019090
-0.05623674 0.14409724 -0.02851668
-0.05391789 0.14994229 -0.00421575
-0.06447740 0.06849317 0.03493025
-0.05796561 0.11769377 0.00501292
0.00997141 0.09674580 -0.01797049
-0.03431273 0.17340940 -0.00906141
0.05686570 0.06317113 -0.00775597
-0.00913815 0.11326270 0.00301488
-0.07868832 0.07202353 -0.00661971
0.07564265 0.07079899 0.01741576
0.00821747 0.05893407 0.02184800
0.03608663 0.12426647 -0.02723496
0.05531447 0.07968615 0.01194220
-0.02104808 0.11690442 -0.01292332
-0.05084037 0.16523065 0.00037200
-0.03144173 0.07393573 0.02241918
-0.05197786 0.07341509 -0.03114555
0.02913041 0.05560307 -0.00002711
-0.02232802 0.16862093 -0.01009757
-0.06932281 0.16142590 -0.00868929
0.04135180 0.08455601 -0.02168284
-0.07172839 0.10210173 -0.02338145
-0.05431014 0.14833592 0.00628874
-0.04685778 0.12546849 -0.02473303
-0.00168289 0.07060166 -0.00645707
0.04128321 0.06170203 -0.04317234
-0.06850480 0.14558373 -0.00985166
0.04542431 0.11948352 -0.00324664
0.01154188 0.11843096 -0.00962877
0.01101653 0.14368843 -0.00384565
0.03532264 0.06438409 -0.04919828
-0.05735315 0.12443701 0.00431589
0.03990434 0.08160589 0.02684366
-0.00751425 0.16109294 -0.00914562
-0.02923609 0.12213402 -0.01564166
0.01172342 0.06142399 0.00442275
0.02770793 0.07722220 -0.04123534
-0.00754643 0.07319368 0.02331337
-0.06547781 0.05511758 0.00013430
0.00932258 0.11008088 -0.00400117
0.05028691 0.07881899 -0.02737575
-0.07801057 0.06545107 -0.01779443
-0.08519203 0.14692970 0.00096350
-0.07283461 0.17362553 0.00305699
-0.04424741 0.14351581 -0.02470900
0.06378188 0.05854376 -0.00301834
0.08417774 0.09566857 0.00906201
0.01722096 0.07549556 -0.01968761
-0.00626913 0.10490818 -0.03425732
-0.09016839 0.16787185 0.01300156
0.03673092 0.12138272 0.00682600
-0.04325039 0.11479363 -0.00358701
-0.02016726 0.10537557 -0.01391466
0.05066486 0.06933986 -0.02615043
0.04740448 0.11820659 -0.03364854
-0.02979061 0.15210330 -0.00274087
0.02756188 0.07624897 0.01285996
-0.07090843 0.06691387 -0.03131156
-0.03953302 0.19372571 -0.01682736
-0.05572995 0.05383464 0.02164608
-0.02139334 0.18115257 -0.02556579
-0.03412597 0.05108096 0.00791995
-0.06154680 0.14353298 0.01276851
-0.06276551 0.09884786 0.01157481
0.07762462 0.09880100 0.01283057
-0.08221268 0.16885823 0.01148326
-0.00703939 0.12379780 0.00098204
-0.03835613 0.12419311 0.00224165
0.00648846 0.14113851 -0.00392759
-0.01416200 0.13898396 -0.02202014
-0.02954144 0.15204203 -0.03220471
0.03930323 0.09779564 0.02940853
-0.04593013 0.05891949 -0.04104806
0.06125285 0.05121402 0.02304294
-0.03227145 0.06435315 -0.03891928
0.03509851 0.07891957 0.00593819
0.03235455 0.11557600 -0.01928416
-0.04378843 0.06937046 -0.03588754
0.06814909 0.05689745 0.01557968
-0.01947940 0.09146428 -0.03352427
-0.03385435 0.09060066 -0.02822229
-0.05949698 0.05853422 -0.03239854
-0.07267246 0.07993043 -0.02962821
-0.05816485 0.05958249 0.01138223
-0.02042379 0.06930600 0.01958887
-0.06837124 0.10798109 0.01267993
-0.05288883 0.08981620 -0.02179047
-0.00475596 0.09786722 -0.03051217
-0.03359285 0.12260001 -0.01903822
0.06339354 0.08387868 0.01987110
-0.01601995 0.10114116 0.00057596
-0.06556354 0.05760122 0.02241157
-0.03028255 0.09185061 -0.03047929
-0.00461191 0.18675584 -0.03068363
-0.07355202 0.07569225 0.01370728
-0.06324732 0.05688907 0.02882195
0.08516614 0.14817455 -0.00691044
0.07193206 0.07530434 0.00179668
0.01350666 0.14847665 -0.00942587
-0.06624813 0.07370593 0.02534892
-0.07664458 0.15056598 0.01091731
-0.02375789 0.06845169 -0.03754940
0.01707690 0.08578572 -0.00853842
0.07195476 0.06305773 0.00363468
-0.05141975 0.10122386 0.00749690
0.08149669 0.10612778 0.00338326
0.04846857 0.12992837 -0.03597080
-0.06411205 0.14903097 -0.01688386
-0.08463049 0.14243552 0.00316677
-0.05830973 0.07668058 0.02396920
-0.01703517 0.11330405 -0.00805789
0.02308566 0.06829259 -0.04194981
-0.05205709 0.07578069 -0.03511011
0.00730766 0.13890484 -0.00433986
-0.00915009 0.07360412 0.01266597
-0.04361923 0.06137218 0.01147318
0.05961292 0.05362136 0.00044926
-0.04781068 0.09491202 0.01715314
-0.06266946 0.16271476 0.00777282
-0.04137111 0.09879807 -0.00103800
-0.04136663 0.14038052 0.00214972
0.03964351 0.05579212 0.00392215
-0.06865846 0.08956875 -0.03438838
-0.01585217 0.17151937 -0.00613177
-0.07136146 0.10736351 0.00663938
-0.06924019 0.16796571 0.00667596
-0.03461882 0.15241030 -0.03812065
0.03501861 0.12584588 -0.00606156
-0.04431576 0.11261784 -0.00445307
-0.03888350 0.08704470 -0.02390546
0.00387730 0.10121342 -0.00012862
-0.03443458 0.08877382 -0.01941004
0.04385847 0.05279026 -0.00094841
-0.06387553 0.07717356 0.01717241
-0.05666386 0.16100653 -0.00505217
0.03623024 0.05983414 -0.04748733
0.00847783 0.10856262 -0.02741650
0.03944830 0.05423614 -0.00046499
0.00361375 0.05859514 0.02452939
-0.01972877 0.07443403 -0.02948340
0.03013420 0.15618160 -0.00065472
-0.05902380 0.09001692 -0.01985051
-0.00205952 0.08394313 -0.00941124
0.03509165 0.08199719 0.02777307
0.04711094 0.09709209 0.01802819
0.07638615 0.08186067 -0.00403503
-0.01688503 0.05562358 0.01622098
-0.05640280 0.16269425 -0.02707076
0.07254659 0.11383305 -0.00087294
-0.02648669 0.13487948 -0.02025709
-0.07379919 0.14969157 -0.01295716
-0.03962411 0.17473093 -0.01133115
-0.07686915 0.05588103 -0.03642817
-0.08746314 0.17469776 0.00919283
0.03683322 0.10693495 0.01356575
0.06149947 0.05633011 0.01497699
-0.06887380 0.15324658 -0.01575243
-0.08285135 0.09931725 -0.01346295
0.03363565 0.08281675 0.03218750
-0.08860666 0.05753221 -0.02438766
0.06447196 0.07189761 -0.00917021
-0.03630016 0.08233431 0.01824130
0.00826218 0.06428131 0.01515433
-0.01085427 0.04827152 0.01372842
-0.00372000 0.08581001 -0.02723551
-0.08451584 0.08755852 -0.00107283
-0.03072690 0.16392714 -0.03195555
0.02594223 0.06769209 0.02037030
-0.02391164 0.14662437 -0.00840573
-0.01543395 0.09239466 0.00657258
-0.05631495 0.08518047 0.01471496
-0.09097355 0.16452615 -0.00228516
-0.05131822 0.15894379 -0.00057163
-0.07847297 0.06641776 -0.03818785
-0.05312576 0.18221298 -0.01027716
-0.00931776 0.10816079 0.00278731
-0.07730089 0.09037933 0.01104392
-0.07132966 0.14801392 0.00377177
-0.05963005 0.07164855 0.03974026
0.03940494 0.09958647 0.03009984
-0.01497715 0.15172210 -0.00817802
-0.09277306 0.15386267 0.00555652
0.05879436 0.10568870 -0.02251787
0.02747952 0.16504022 -0.02530274
-0.02161453 0.15572351 -0.01873627
0.07232580 0.10423714 -0.01394134
0.06349875 0.06189036 -0.01617265
-0.04833170 0.14926250 0.00374978
-0.00730519 0.08419907 -0.03453374
-0.05705095 0.11152001 0.01307004
0.05135199 0.05587300 -0.02298599
-0.01524007 0.11910985 -0.00396879
-0.01663007 0.09693681 0.00116301
-0.08344810 0.14174318 0.00637634
0.04139263 0.16062988 -0.01522950
0.06257073 0.13546659 -0.02297237
-0.05650280 0.10389804 0.00829074
-0.04129833 0.16859724 -0.03811160
0.03625662 0.05548144 -0.04660892
0.05576946 0.10982830 -0.00839062
-0.03087846 0.14244418 -0.03169491
-0.04752156 0.11601742 0.00104406
-0.01904552 0.06678739 -0.03336342
-0.00514669 0.09757676 0.00389737
0.04201663 0.08151932 0.02706593
-0.07620417 0.07706854 0.00904643
-0.02459356 0.18588850 -0.02063517
-0.00907558 0.06606589 -0.02087020
-0.06579365 0.16491634 0.01170208
-0.00947654 0.06211378 -0.00508700
-0.06851235 0.06194873 0.01346044
-0.09247383 0.17051339 -0.00324344
0.06090096 0.12851271 -0.02518891
-0.10277545 0.15843302 0.00770491
0.01544168 0.15535636 -0.02430581
0.05708040 0.10904883 -0.02172180
0.03942865 0.05580816 -0.02396552
-0.03074474 0.15780771 -0.03722201
-0.03865800 0.13746201 -0.03119439
-0.06602424 0.14272119 0.01297937
-0.07448087 0.09583525 0.01240028
0.06408071 0.05505557 -0.00248393
0.03613646 0.10972072 -0.03167824
-0.08298723 0.10235561 -0.01212306
0.05919334 0.05056573 0.00575549
0.08113523 0.08106297 -0.00245573
0.02938693 0.08910701 -0.03553408
0.02732214 0.06918657 -0.03503105
0.06517464 0.12253628 -0.00625244
-0.05516746 0.15868536 -0.02868701
-0.05088749 0.16022938 -0.00622590
-0.01606356 0.07103246 0.01475054
0.05697408 0.12694453 -0.02923142
0.05825768 0.12180614 -0.03157892
0.00995240 0.05961634 0.01598794
-0.05830294 0.12229264 -0.02137259
-0.08863794 0.18083765 0.01133414
-0.03390650 0.05755665 0.00929013
-0.04728432 0.05579360 -0.03492151
-0.00892838 0.13520627 -0.02634048
0.05818366 0.14951609 -0.01632999
-0.04906793 0.17589980 -0.00635749
0.04323597 0.08435442 0.01891897
-0.03608616 0.06838112 -0.03072989
-0.05566965 0.17765585 -0.01885777
0.01118557 0.07627296 -0.01412805
0.05278330 0.05528467 -0.00901936
0.05496024 0.12658760 -0.00328113
0.05542634 0.08002849 0.00439812
0.03484523 0.06598413 0.01551845
0.08387604 0.08793539 0.01090667
0.01931309 0.13579085 -0.03474789
0.04814031 0.09511726 -0.00833693
-0.01052877 0.06124157 -0.01399294
-0.01397480 0.06369032 -0.01884884
-0.07891373 0.08810423 -0.02329836
0.07668083 0.06922951 0.02572025
0.02450030 0.07586910 -0.03707946
0.03749479 0.12312944 -0.03128921
-0.02195845 0.14951245 -0.00796408
-0.06942346 0.15202861 0.00911865
-0.06973161 0.13926378 0.00241911
-0.03139272 0.05666249 -0.00736733
0.01102857 0.15190995 -0.02338342
-0.06381421 0.06792414 -0.03510785
-0.06375467 0.18139009 -0.00283616
0.07395398 0.07353029 -0.00203669
0.02260018 0.15275154 -0.01279827
-0.03960194 0.05826366 -0.01074163
-0.06185989 0.15844966 -0.02234196
-0.05224625 0.16014603 -0.03158971
0.07437334 0.12322403 -0.01989300
-0.04847316 0.11678603 -0.02241432
0.09221669 0.13054186 -0.01004388
-0.00736390 0.12124029 -0.03761663
-0.05700700 0.17894694 0.00414646
-0.05000274 0.15549468 -0.03284697
0.03050893 0.14734054 -0.00584865
-0.05746530 0.13070726 -0.00339011
0.09028247 0.14669728 -0.00976232
0.06366540 0.05818447 -0.00311113
-0.02350660 0.09397327 -0.00099660
-0.07971640 0.15554051 0.00291467
-0.04589238 0.09157540 0.00710793
0.05262280 0.13629693 -0.03037039
-0.07974126 0.07288240 0.01167793
-0.02562595 0.15906119 -0.04271956
0.04264611 0.05317225 -0.01279065
-0.04260064 0.11057062 -0.02133246
-0.03216963 0.05251077 0.00635202
-0.05772555 0.15341055 -0.02949392
-0.05913779 0.05022205 0.03214721
-0.02596773 0.16734266 -0.02501357
-0.03744676 0.06595890 -0.03794278
0.04324661 0.10464644 -0.03242139
0.01780898 0.15505846 -0.02374367
-0.09081966 0.16508150 -0.01116564
-0.01603347 0.10492264 0.00373105
0.04298550 0.12214306 -0.03186592
-0.03077443 0.13603795 -0.02229305
-0.02790794 0.10035502 -0.01961353
-0.09964947 0.14743491 -0.00567130
-0.05937081 0.16886292 -0.02731238
0.00598180 0.15624060 -0.02576534
0.01734060 0.11740058 -0.02312570
0.02268736 0.10174847 -0.00686469
0.06003831 0.10054523 -0.01592465
0.04078979 0.05382140 0.00394419
-0.08594842 0.18323621 0.00821193
0.03460325 0.05397170 -0.02081895
-0.04210464 0.11449360 -0.00279963
-0.02757084 0.09540462 -0.03141326
-0.04447086 0.05244556 -0.02784462
-0.07947957 0.16516992 -0.00269787
-0.05639515 0.13536613 -0.00813310
-0.03011494 0.16883586 -0.03520573
-0.07612056 0.15143859 0.00903349
-0.06622443 0.11537568 0.01203217
0.04756425 0.06799495 -0.03580745
-0.05651646 0.05210920 -0.01639165
-0.08431512 0.17211871 0.01569883
-0.04388599 0.18286765 -0.03381116
-0.07185523 0.13807438 -0.01384095
0.02320243 0.08673690 0.00709081
-0.05553611 0.09129274 0.02098612
0.08360051 0.11381043 -0.00624028
0.04105736 0.05515353 0.00420864
-0.02962385 0.13641495 -0.01780552
-0.02626745 0.08874241 0.00868764
0.00054885 0.14728986 -0.00680501
0.03821742 0.06542761 -0.02478449
-0.05856480 0.17801416 0.00028482
0.01464053 0.09896142 -0.01519396
-0.06718246 0.09803458 0.01018090
-0.08135799 0.09396145 -0.01889367
0.03645842 0.07405575 0.01373352
0.05063904 0.11947284 -0.00204645
-0.09571055 0.17031902 -0.00740322
-0.03729204 0.12862150 -0.01002857
0.03790724 0.06949604 -0.03958419
-0.04694649 0.06159039 0.01750340
0.04636438 0.09468532 0.02011707
-0.00132905 0.08961907 -0.00050772
-0.06840260 0.16058417 -0.01223917
-0.04432739 0.05516528 -0.00786220
-0.05140281 0.07398558 -0.03606492
-0.09660664 0.15459798 0.01107699
0.01179780 0.11603202 0.00009012
0.01583862 0.06577929 0.01065929
-0.06303987 0.06765446 0.02996098
0.06167028 0.05097503 -0.00362752
-0.00388400 0.08379631 -0.02909728
-0.05340080 0.16565335 0.00477604
-0.02921865 0.18768649 -0.01725552
0.07485452 0.09771658 -0.01238563
-0.06364621 0.05848689 0.02254925
-0.02813085 0.16150263 -0.00604337
-0.05826621 0.05292574 0.01880497
-0.07028726 0.05760019 -0.01445027
0.07659626 0.09907424 -0.00517329
-0.08624483 0.15029147 0.00876572
0.01273065 0.11833431 -0.00788962
0.00250780 0.11265847 -0.03333107
0.08797733 0.13824646 -0.01314793
-0.02113850 0.13071135 -0.02589503
0.05941049 0.05305454 -0.00162894
0.04963462 0.07694319 0.01149772
0.06021755 0.10671103 -0.01391460
-0.04926984 0.07269154 -0.03239405
0.00965113 0.10894198 -0.01332574
0.03191588 0.05716743 -0.04597365
0.07225759 0.11568102 0.00068640
0.04236192 0.05453999 0.00785698
-0.08731501 0.14586097 0.01554674
0.04568358 0.10051452 -0.03407326
-0.03519523 0.09359999 -0.01940026
-0.03983380 0.05264298 0.00223807
0.06812999 0.06169111 -0.00970032
-0.04111622 0.14196759 -0.00167487
-0.07567857 0.06486622 -0.02612622
-0.05939342 0.08898740 -0.02784806
0.02774598 0.09736309 -0.03321501
0.02273730 0.08982553 -0.03653320
-0.00702604 0.18825284 -0.03625649
-0.09597342 0.17287582 -0.00223543
0.00651788 0.12033737 -0.00193055
0.04542961 0.06020233 0.02209587
-0.00839001 0.13090618 -0.01029064
0.04260994 0.08756381 0.01577931
0.03247726 0.08229114 0.02798161
-0.07545732 0.05746920 -0.00297309
0.07606386 0.06421214 0.00737942
-0.06204526 0.06363557 0.04046904
-0.02436821 0.16941890 -0.02760609
0.07826130 0.10343868 -0.00504810
-0.05523370 0.05557501 0.00414293
-0.09673279 0.15414423 0.01382485
0.04756049 0.08211691 -0.02952758
0.03843285 0.05310952 0.00614098
0.04577773 0.08303994 -0.00799439
-0.05485519 0.14694083 0.00409038
-0.05536286 0.09116210 0.01742523
-0.02688573 0.17780814 -0.02555639
-0.03647581 0.06719393 0.02562062
-0.01961112 0.09791383 -0.02853341
0.00610004 0.10075492 -0.02863547
0.03153683 0.09339409 -0.00421146
0.04783699 0.07664730 0.01061522
0.09108238 0.14586371 -0.00925935
-0.01603372 0.18743356 -0.02984916
0.07573305 0.06510528 0.00570353
0.00993794 0.06106039 0.00096739
0.03125045 0.11914710 -0.01809586
-0.06752384 0.12775044 -0.00975974
-0.08434348 0.06889151 -0.01324124
0.00513072 0.10224950 -0.03146105
0.04137807 0.06434429 0.02025093
0.02952107 0.05761264 -0.01912650
0.07413257 0.09888962 0.01456530
0.04031871 0.09917237 0.02845084
-0.01848435 0.15083867 -0.00735212
0.04400409 0.11500622 -0.00064597
0.07932220 0.06960263 0.00410144
0.00116525 0.09028262 -0.00825946
-0.05448454 0.16527811 0.00484490
-0.05174544 0.08970011 -0.02349401
0.04310505 0.07584446 0.01603111
-0.03984934 0.15787408 -0.03855293
0.00109193 0.09542409 -0.00159493
-0.02328808 0.18726549 -0.02848131
0.06853575 0.08967248 0.00077195
0.00343259 0.12369131 -0.03276705
0.08268140 0.14268263 -0.00605532
-0.03038376 0.07686986 -0.03068961
-0.02433968 0.05628936 0.00970623
-0.04352676 0.12177695 -0.00040678
-0.08105298 0.09762438 0.00861451
-0.06657489 0.05539800 0.02145825
-0.06142281 0.17370492 0.00153025
-0.02111173 0.09144051 -0.03069447
0.05542537 0.05356562 -0.01517653
0.05538014 0.06574279 -0.02449942
-0.05416188 0.12745604 -0.02276323
-0.09105271 0.17048860 0.00667335
-0.05417864 0.08766526 -0.02807928
0.03992397 0.06218898 -0.03446602
-0.01878504 0.15696952 -0.00379829
-0.07516654 0.10502478 0.01044187
0.03308927 0.11212352 0.00654185
-0.08195272 0.17503159 -0.00279691
-0.02104519 0.17610525 -0.01117106
0.02548200 0.10057080 -0.00236645
-0.07390352 0.08868052 -0.03059394
-0.05816170 0.18038823 -0.00414138
-0.03889527 0.18555120 -0.02049458
0.01150811 0.10217008 -0.02159226
0.04666902 0.12874228 -0.03659545
0.02143329 0.06210753 0.01013685
-0.01436848 0.16777916 -0.00926887
-0.04041396 0.06997390 0.01394304
0.00297817 0.14494768 -0.00888172
0.06213164 0.08805816 0.00485774
0.02392159 0.10850053 -0.01273323
0.02209667 0.08439250 -0.00478962
0.05573523 0.13818805 -0.03160547
-0.05930300 0.07322603 0.02454177
-0.04413169 0.08671108 0.01895999
0.05076249 0.11160753 -0.03206407
0.07401177 0.06493481 0.01793960
-0.07478600 0.17456269 0.00803410
-0.03717508 0.11949516 -0.00331932
-0.06859601 0.14971897 -0.01501112
-0.02255293 0.10813721 -0.01068720
0.05748535 0.05299734 -0.00705022
-0.05042025 0.10791019 0.00332541
-0.02752618 0.08351023 -0.03108989
0.01840671 0.06788075 -0.02473829
-0.02634838 0.12982607 -0.01736071
0.04194866 0.07411867 -0.00197778
-0.01018018 0.13373752 -0.00842144
-0.06846128 0.14857952 -0.01176737
0.08223680 0.14894889 -0.00988809
-0.02474235 0.14521252 -0.03970156
-0.06985552 0.08709350 0.01487470
0.01035210 0.10806192 -0.00432016
-0.05665446 0.05873963 0.01275245
-0.06076112 0.07498860 0.03653361
-0.03906379 0.12744291 0.00244399
0.00739485 0.05256320 0.01271356
-0.03219352 0.17374685 -0.03501352
-0.00470162 0.07751462 -0.02180330
0.06560334 0.09910884 -0.00383471
-0.05258277 0.05857185 0.01552969
-0.01008276 0.14665329 -0.01739923
-0.04446869 0.07617794 0.02276024
-0.03803232 0.17842357 0.00493325
-0.00898701 0.08637231 -0.03035087
-0.04458237 0.08987278 -0.01230212
-0.05229502 0.09553690 0.01542866
-0.06967492 0.17295076 -0.00805625
0.06751025 0.12416130 -0.00698321
-0.00338042 0.10956938 -0.03732780
0.06445942 0.13132900 -0.01888762
-0.09827537 0.17280652 -0.00537213
0.00279167 0.11330071 -0.00234298
0.00712521 0.05864070 0.00944451
0.05581169 0.05535299 -0.00909695
-0.06743555 0.16134880 0.01353347
-0.03876546 0.09689760 0.00333369
0.04857650 0.05479054 -0.00838023
-0.04275252 0.07571875 0.02803453
-0.00602796 0.10552882 -0.03360150
0.04134915 0.10524218 0.00709953
-0.10358692 0.15835153 0.01781701
-0.04719362 0.09996535 -0.00082615
0.02210602 0.10383832 -0.02659835
-0.04523298 0.18302023 -0.01606774
0.05938479 0.13396411 -0.01416011
-0.01871698 0.10150518 -0.02850908
0.07904831 0.08111355 0.01883024
-0.03969549 0.10482126 -0.00732509
0.01896864 0.06144024 -0.03270645
-0.03221707 0.16311137 -0.00090089
0.06489796 0.12266105 -0.02706607
0.02766960 0.11371314 -0.01837042
-0.03426965 0.07227297 -0.03433599
-0.05910446 0.15809327 -0.01806326
0.01787608 0.16111177 -0.02195817
-0.04723292 0.05542526 0.02876157
-0.08879645 0.17492110 -0.00579493
0.01646837 0.06673928 -0.00079595
-0.06067438 0.07597460 -0.03468829
0.07672197 0.12545882 -0.01882223
-0.03889450 0.09350366 -0.00879981
-0.05423604 0.05709917 0.02460225
-0.08140177 0.14740221 0.01930828
0.05729167 0.11619740 -0.02787755
-0.03306450 0.05033009 -0.04365256
-0.06945881 0.05877528 -0.02416174
-0.03397252 0.08626837 -0.02958480
-0.03830808 0.08878458 -0.00447303
0.02086862 0.05637163 0.00830367
0.03970788 0.14994854 -0.00342788
0.07375623 0.12403242 -0.00929564
-0.02265192 0.05419528 0.01947280
-0.03915840 0.05001383 -0.02085768
0.01566594 0.08440389 -0.02280581
-0.02073220 0.19012403 -0.02680187
-0.07080571 0.17334123 -0.02038093
-0.08748436 0.08964624 -0.01624724
-0.05282313 0.15570663 0.00494730
0.08242118 0.10877747 0.00025077
0.04547240 0.08200414 -0.02500045
-0.00378601 0.08182454 -0.02859306
-0.06609780 0.05372376 -0.01095875
-0.01819338 0.12177124 -0.00555352
0.06541358 0.06727608 0.02743370
-0.02073349 0.12058175 -0.01597743
-0.07184816 0.08833982 -0.03068269
-0.04476906 0.05593354 -0.00238254
