-0.11258709 1.35320616 39.05527496
1.76662791 1.90257967 40.47990799
0.39927864 0.27915692 39.60564804
0.22704041 0.07143451 41.05913925
-0.25441587 1.40509069 40.07000732
2.35905480 2.01654100 41.29290390
2.53417110 0.95702291 39.25552368
0.93922353 -1.59929085 40.92828369
0.52590513 0.41407698 39.69985962
2.00237393 -0.03854376 39.42873001
0.25262749 2.03866100 39.98639297
1.73961699 0.36041310 39.17691803
1.70484543 -1.82035553 40.26169968
1.76099730 -0.55676359 39.93060303
2.35891581 1.35968339 41.82934570
0.46341622 1.94158006 40.03440094
0.94288009 -1.81828654 39.60302353
1.18277597 -1.88395643 40.76133728
0.57492387 -1.65088439 40.92452240
1.12322557 -1.33948731 39.69978714
1.46694624 -2.22492361 40.69688797
1.97304952 -0.68754429 40.36452484
0.56448293 1.64347351 39.23405838
0.67425275 -1.53685355 40.28193665
0.88076216 -0.22704931 41.65258026
1.37152076 -0.80861253 40.07118225
1.34300852 -0.04186333 39.32287216
1.41898203 -2.21256351 40.39724350
1.79002118 0.56811571 41.79488754
1.12348318 -0.04388375 38.63780975
2.06397510 -0.47824410 40.46179199
2.24443054 1.69874907 39.31782150
1.83680844 -0.60450310 39.98254395
1.79883027 0.08726488 38.79325104
2.38001394 1.11116183 39.16882324
1.26086009 0.78803962 41.73216248
-0.26129925 1.83013153 40.07575607
0.31189173 -0.00704300 39.57780075
0.89403355 -2.25999498 39.90840149
1.84408307 -0.59102958 40.27965546
0.51794058 2.04189253 40.10595703
1.54622793 1.71783853 39.26831436
1.08123183 -2.02295446 40.85709381
2.14499187 0.49799466 41.19449615
-0.31989253 1.93228376 41.07030106
1.54647970 0.40504208 39.30876541
0.34627885 1.18848073 41.94869232
0.49639136 0.92926842 39.28303528
1.39268875 1.85818982 40.80871582
1.30471706 2.33045959 39.29279327
2.39402914 1.21510756 41.24521637
1.11777830 0.27184314 41.61683655
-0.02197766 0.38086817 39.23812485
0.26708513 -0.16942887 40.33913422
1.13466799 -0.21032636 38.64968109
1.12321806 -1.27520835 41.22582245
2.19018269 0.29195917 40.12295151
1.74331975 2.26094294 39.00095749
0.42806381 0.46494573 38.90130234
0.93458652 2.09873343 39.90240097
2.72859812 1.73131645 40.54735565
1.44171000 -1.14792585 40.07823944
-0.36880553 1.85310626 40.95278168
1.81411386 1.80622768 41.62605286
0.80950117 0.08775726 39.43582916
0.40461141 2.02515173 39.07734299
0.60295463 -1.76530600 40.78796387
0.31573302 1.99673450 39.91077805
0.94835973 1.82745349 41.43328094
1.10070491 -1.06914103 40.00946808
0.40077698 -0.51949823 40.85555649
0.85949022 0.41544715 41.60778427
2.55074596 0.26346385 41.01475143
1.97993612 -0.48608705 40.45475388
0.43495172 2.05820799 39.19076538
-0.18345094 0.92787880 39.48864365
2.61474180 0.90816039 41.30013657
0.78968191 -1.30353045 41.08121872
-0.29588580 1.65087438 41.51973724
0.76729894 1.22312129 41.71669006
0.79003561 -1.45922685 41.12666702
2.55798388 0.72594368 40.36229324
1.14545155 -1.56238341 40.98865891
1.69745183 1.85262299 40.98749924
-0.14087915 0.44861123 38.95560074
1.31416261 -0.14139579 38.80989838
1.15679169 -0.60697031 41.41095734
1.38742995 -0.97365838 40.11490250
1.04155934 0.17791274 38.80392075
2.23985529 1.26466572 39.12992477
0.22174698 -0.07954991 39.30203629
-0.30081558 1.36058199 40.68906021
1.85484147 -0.37939578 40.17647171
2.31730890 0.34987441 38.71566772
1.33635521 0.24521649 39.25819778
0.55678219 -0.48474586 41.18883514
2.29284763 1.81673479 41.13788223
0.20337129 -0.10873231 38.65982819
0.17473090 0.19703318 40.04615784
2.27940822 1.92259812 40.40856934
1.61120892 -1.16541874 40.45563507
2.50442266 1.51631665 41.25109482
2.68666172 1.58868170 41.55224991
0.49475074 -0.31843841 41.50646973
0.21553534 0.04709331 40.09033585
1.58501410 1.79892731 41.11759567
2.19638920 -0.24869449 38.78598785
1.87994409 -0.44547704 39.57958221
0.55939966 -0.61034358 41.19288635
1.14405131 0.26341689 39.20307922
0.21957189 1.25938594 41.85273743
1.74733901 1.58256996 41.83657074
0.90098846 0.34924099 39.17333221
2.19323778 0.45299801 41.09716034
0.00224936 2.13846493 39.38410187
2.03239679 0.79786021 38.99828339
1.87468946 -0.46076116 40.95745468
-0.02856958 1.41127515 41.81852341
0.68350238 -1.95779419 40.48661423
0.12773085 0.12763005 41.15250015
0.68095070 0.06426619 41.52786636
2.53083467 0.31468317 40.16109085
0.70801729 -0.54381239 41.26911545
1.44827700 0.16655384 41.66446686
0.59150887 -0.41659957 41.38890076
1.83563876 1.08288229 41.81818390
1.77841449 2.45127249 38.96608734
2.54363775 1.50238311 40.81781769
-0.20359623 0.60086912 41.31269073
0.21349436 1.19585168 41.76375198
0.91233432 -2.26651192 40.24840546
0.02203000 0.65378284 39.84420395
0.79972053 -1.57896304 39.69557571
0.64580393 -2.42215014 40.41426849
0.17338586 0.58311760 38.71810913
2.30931139 2.22202253 39.41361237
1.67534292 -0.30412078 41.29470444
1.17817628 -2.24960613 40.72412491
0.09496403 0.26569107 41.04164886
2.26740980 0.13315625 38.71828842
1.52695620 -0.89700288 41.29302597
2.54565310 0.81979448 39.64965439
2.34334397 0.46630859 41.15813065
1.01897347 1.12734580 41.75311661
2.62254381 1.66103661 41.13916779
0.98338699 -2.02081871 40.49084091
1.89345515 -0.68883294 40.44885254
1.24580646 1.07504082 41.79751205
1.97742987 0.20598571 39.34463120
1.40503895 0.52854782 41.77225494
0.14948130 -0.28859839 40.63382721
1.18303621 0.55560863 39.30250931
2.71249795 1.85948980 40.92562866
1.56746578 -0.65556049 40.19299316
1.74900377 -0.71251357 40.24663162
2.14076900 0.09556645 40.36976624
1.52724552 -1.75972450 40.42747498
2.24496555 1.92258644 41.03341675
1.95229077 -0.75698441 40.59308243
0.29495496 0.08877462 41.08099365
1.13919210 1.76403344 41.28360367
-0.15297878 1.65500331 40.51084137
0.26950616 -0.16832653 38.80310059
0.11582756 -0.02601673 40.31731033
1.06515503 -1.55708003 41.08573914
0.00091171 2.05961704 39.28881073
1.52987337 -1.78335321 40.28429413
1.26233435 1.25013185 39.22083282
0.58474177 -0.08641623 39.56491470
2.40662575 1.88071299 40.62644958
0.60766166 -1.10404420 41.10816193
1.51475394 -2.02604866 40.62827301
0.43354225 1.77046812 41.57336044
2.39674830 1.97942293 40.69065857
1.05536413 2.04494524 39.71244812
1.37796497 2.01898146 39.72493744
1.30531251 -1.61030948 40.84629822
0.53519720 -0.14471392 39.12779236
2.62148905 1.59275031 41.36529922
2.53196263 0.70331889 39.80802155
1.46356201 -1.99961579 39.93818665
0.58723515 2.15535069 39.33210373
1.49682903 -1.27153897 41.27029419
0.73483300 1.84142113 39.13594437
0.53398889 -0.09978051 39.32985687
0.75355315 1.60796237 41.66118622
1.76555228 -0.82575524 40.39542770
1.70858622 2.39490509 39.11462402
-0.26508045 1.36423850 40.98791122
1.40430820 1.72804749 39.17177582
0.13190901 -0.14125814 39.27787399
0.55208385 -1.92100453 40.08704376
-0.21602261 0.71243429 40.75032425
0.41613382 -0.94426179 41.05820084
2.33803344 2.14701748 40.29818344
1.48377657 -0.96143484 41.20645905
2.32936931 -0.37603635 40.87814713
2.57132411 1.97989452 38.89184952
-0.13522100 2.04254770 40.22693253
1.14674735 -1.83592761 40.91969299
2.34117961 0.91592145 39.14595795
0.36261463 -0.97614110 40.87731934
0.15976524 0.78873765 38.63676834
1.28773642 0.57417637 41.58315659
1.55465198 -1.84796989 40.61420059
2.09219408 -0.55640495 40.49544907
1.68706369 -0.47420701 39.39654922
0.28759682 0.75288492 38.80011368
0.36442673 -0.25917497 38.94472122
0.01166809 0.93087351 38.84864807
2.50496173 1.16833639 40.45251465
-0.28085256 1.10444748 41.02829361
0.35717887 -0.73119974 40.86687088
0.23013282 -0.64505941 40.84430695
2.70165920 0.82765383 41.55215454
0.24238783 -0.37491393 38.74762726
1.72913659 -1.60966325 40.60961533
1.02327514 0.06271640 38.82071686
1.75723100 -0.32382950 38.97670746
0.44342202 0.43112290 41.41351318
0.72561204 -0.92554533 41.21198273
-0.26460338 1.35829258 41.75207520
-0.30635810 0.36176395 40.94083405
1.13567555 -2.09806967 40.10140991
1.67727017 -0.60224855 41.26772690
2.58653307 1.57515967 41.18517303
0.33472073 2.05469561 39.70992279
1.78592515 1.84747946 40.80903244
2.42868853 -0.14890668 40.80972672
-0.27106869 0.32311764 40.93994904
1.14180911 1.55667400 41.84624863
1.11073899 0.25572383 39.04069519
0.45623237 0.10515049 39.76982880
1.00487280 -0.86728173 41.34957886
2.76801872 1.78104997 40.25247574
1.43794131 1.75964618 41.47095108
2.28811455 1.43008721 39.10264969
1.69518924 1.49223018 41.74803925
1.23162282 -1.93915701 40.27846909
1.95151770 -0.85741526 40.75861359
2.32555032 -0.38572139 40.88918304
2.55782366 0.71009046 40.60927200
0.13400233 0.58423591 39.75149918
1.11934257 0.23424041 38.78913879
0.59541869 -0.40835360 41.30665588
2.68200970 1.81813121 41.09173965
2.54947925 1.98676693 41.20154572
2.32929039 2.11028862 40.19184875
1.43374360 1.51618528 41.76179504
0.90778589 0.31614190 41.63818741
0.78668833 0.22995740 38.78175354
0.73943877 -0.17976418 38.78887177
2.35345793 0.02787898 38.74058914
1.86251867 0.52425671 41.85802841
1.31436336 -0.18871124 41.51930237
2.37106133 2.03626299 39.83392715
0.56109399 1.11550832 39.22943497
1.56670046 -1.17428827 41.11066437
0.42647165 1.06160772 39.12628174
0.76777804 -2.55801201 40.48781586
2.39336586 0.53051651 41.40378189
1.49104273 -2.01881218 40.37521744
-0.33103442 1.68292904 41.05409241
0.05035925 0.29923859 39.29888916
1.19582188 -1.74260318 41.01433945
-0.26728594 0.87572449 40.83557892
1.11387706 -0.91710973 40.12394714
2.51478410 0.11293545 39.01768494
1.33877993 0.31307667 39.26524734
0.69451720 -0.06186489 39.66431427
1.67449188 -0.10633669 41.33957291
0.50462151 -0.66785240 41.11220932
1.24216115 0.50147820 39.36728668
0.56712091 -1.66955924 40.01108932
2.01296306 0.01341727 39.95121002
0.99550509 -1.59162986 41.15410233
1.25016487 -2.47489214 40.03044891
2.42932200 1.25143623 39.02348709
2.66508389 1.28284979 41.51717758
0.97516316 1.82770371 41.64247513
0.91904181 -1.78941739 40.99679947
2.10683680 -0.18525951 40.74414444
1.13151264 1.29520309 41.81488800
-0.24282181 1.51316583 40.25524902
0.29893857 -0.28010929 38.94937134
0.90642774 0.89557916 41.82643509
1.88383055 -0.08587705 39.46149826
1.08803844 -2.06794691 40.32342529
2.62840128 1.75585675 40.59014130
2.52643299 2.35394812 39.06813431
1.15196848 -2.13368893 40.12333298
2.01904082 -0.23174557 40.35706711
0.65772289 -1.84127188 40.80472565
0.25861520 0.15036009 40.21918869
0.07590759 1.20226657 38.94919968
0.46752542 -1.15446937 40.43475723
-0.07112086 -0.04585135 41.04048920
0.21614778 -0.09666798 41.30479431
0.56145912 -0.52237999 39.89679718
2.57830358 1.41892242 39.18905640
1.48101521 1.87928569 40.46772003
0.32640177 -0.11097752 39.94830322
0.20800757 0.15430109 38.64288330
-0.29423475 1.67294657 41.07291794
2.26725602 0.54829335 38.51052094
-0.41484082 1.28892267 41.36023712
-0.28878045 1.23122525 40.29617310
1.14157081 -0.40288410 41.43579102
1.09562349 1.77292883 39.07069778
2.27458119 1.84593189 41.23027420
1.22222328 2.28577185 39.08731079
1.20311642 -0.32482865 38.86968231
2.07805634 -0.25873932 40.58382416
2.41706419 0.58415037 39.86275482
0.09103358 0.55642992 39.49685287
1.77788806 -1.27381372 41.10261154
-0.06509674 0.80453897 41.72472382
0.48261935 0.32283747 39.13465500
0.51569611 0.32763922 38.91795349
1.25853157 -0.08854966 38.99764633
2.29781294 0.78092986 38.98762512
1.72018123 -0.51452792 39.86001205
1.16127455 1.32911241 41.77082062
2.13709617 0.25012958 38.79897690
1.49638462 -1.98844528 40.48714066
1.37059486 -1.06396151 40.06014633
0.30259240 -0.28501722 39.71466064
1.32789493 -1.67021716 39.81748199
0.58488661 -1.16439128 41.12756348
2.30065680 0.95219767 39.11819458
1.54737401 1.22600293 39.09027481
0.69951457 -2.35184479 40.38724136
0.94460398 -0.87595242 40.09860611
0.13369250 0.37289721 39.42029953
1.95690966 0.56405681 39.69281006
2.19497681 0.68606699 38.78347778
2.61495376 1.85685468 41.53025436
-0.01541209 1.31168830 41.68380356
0.32051426 1.77973580 40.93898010
0.72569454 0.33278385 39.10347748
2.09336376 -0.38370937 38.68666077
2.31792831 1.96010184 39.71289444
0.57444131 1.87342596 39.21074295
2.06958580 0.10514070 40.04504395
2.28509712 0.45091754 41.70600128
2.61938453 0.86015570 40.31774521
1.04093540 1.60551310 41.78458405
1.06969023 0.37901571 41.78735352
1.10718143 0.49269187 41.84470749
1.62928045 2.08364391 38.83131027
2.39488554 2.10447454 40.95609283
0.39333212 -0.10499648 41.21017838
0.15916681 0.54548329 41.57535172
2.34378815 0.68116403 39.24758530
-0.17575312 1.80368960 40.24626160
0.16677284 1.67166400 39.04092026
0.60530365 -1.59341550 39.98503876
1.78234124 -0.74703443 40.21332169
1.25245607 1.54250193 41.72382736
1.78633976 -0.42373395 41.17171860
2.39316320 0.00293799 40.92218399
1.49600887 -0.16667780 41.57291031
0.81605196 0.69886088 41.66298294
2.27165365 0.75361890 38.89921951
1.84728336 0.48025352 41.70349503
1.99201846 0.01273465 40.16721725
0.47234082 -0.12580739 41.47768784
1.58308494 0.91405541 39.31800842
0.19449413 -0.15956447 39.16666031
0.35822976 0.40268406 39.27379608
2.50239277 0.78788745 40.70866013
0.43304437 0.20876397 38.73991776
0.32636297 0.47303033 41.38015366
0.20777267 -0.67584729 40.78509521
1.50627971 0.41439611 39.14189911
0.46164930 -0.35274005 39.64295959
1.48377109 2.39066410 39.12730026
-0.05628443 1.31426704 41.72718811
1.80030096 1.31419992 41.94629288
1.12844706 -0.54690850 40.03870010
1.43883240 -0.01863685 39.09892654
1.79023314 0.47819698 38.85376358
0.27676493 -0.48001248 40.89327240
1.97863650 0.48921281 38.73483276
-0.09846079 1.35143518 40.71791077
1.61946201 0.00025888 41.67587662
0.57016790 -0.08872704 39.05639648
1.66739547 1.74496329 39.48081207
1.64477944 -0.11915453 38.81526947
1.27110100 2.24704456 38.89207077
1.17520225 -2.44702721 39.84805298
0.59993833 0.37957266 41.53903961
1.44723213 0.47696108 39.16733932
0.58883041 1.65998673 39.14465714
0.01929450 1.50394464 41.79804230
0.68387520 1.85550404 39.20957184
-0.26428497 1.36358953 40.41111374
0.12774074 2.09413862 39.36692429
2.06400537 1.62024486 39.20016098
1.91139460 0.20050651 39.31190491
0.37929404 -0.28308731 39.57347107
1.89116597 -0.33475339 39.73051453
2.58735061 0.92836487 39.84289169
1.59789252 -0.32413718 41.41547775
2.19248629 1.96889150 38.79567719
2.63993740 0.73891979 39.91412354
1.77294767 -0.42725217 41.07226944
0.39693260 -0.11678696 39.30468750
2.58130836 2.07114697 38.97268677
2.05430293 -0.47726315 41.13885117
0.36370659 0.17450270 39.82011032
1.40019250 -1.64855874 40.81226349
1.20265484 1.01920307 39.14577866
1.79747391 -0.30848590 39.10586929
0.38253564 -0.07815239 40.89899826
1.55686069 -1.36875439 40.23789215
1.67008567 -0.11267152 41.44882584
0.11116278 1.94057262 39.10508728
1.82547462 0.38309029 39.52210236
0.54279512 0.02177747 39.53089523
0.31060714 1.14425790 38.75693512
2.65181017 1.60956502 40.84542465
0.36269498 0.30459213 39.58654022
2.29948521 0.26268181 41.02369308
0.79210436 -2.33111095 40.68514252
1.84957218 0.53084821 41.64796448
2.76320076 1.91557062 39.14252853
0.51063472 -2.26058245 40.48280334
0.52795893 -1.99924028 40.64744186
0.18828315 0.37483397 39.63299561
0.42734748 0.48252392 41.51262283
0.54095787 -0.54916000 41.28006363
1.82507110 1.37042749 39.15424728
-0.04938543 1.83208764 40.30811691
0.11069679 0.70576489 39.72955322
0.79169154 -1.14215779 41.23247147
1.52037549 1.55795860 41.74518585
1.55660391 1.65938914 39.15444946
2.20300126 1.22113347 41.91382980
1.77398849 0.50302601 39.29121780
2.28870440 -0.05507889 39.06174850
0.35610944 -0.66270119 40.23545456
1.29065442 -0.03646860 38.72544479
0.31754106 -0.01662100 39.69938660
-0.19527709 1.64036143 41.62148285
0.50553197 0.25333142 39.48176575
0.52587813 0.29327962 39.17579269
2.02602673 -0.34370589 38.78611755
-0.12713420 1.35333312 41.11561966
2.08516407 -0.31411180 38.92118835
2.49879050 0.82629538 42.01384735
1.98085523 1.69778538 39.39657593
2.30284667 2.40707779 39.01569748
1.52284706 -0.08966645 38.78410721
2.65248680 1.10584652 40.72252274
0.68678558 -2.24207449 40.45992661
0.74819881 -0.17538242 41.52571487
0.23523641 0.48781216 39.39750290
0.08352804 0.59667480 41.40519714
1.28748214 -1.70718026 39.83472061
0.03472674 1.89757752 39.20482635
1.74873972 -0.40275243 41.27690125
2.42075443 0.14240104 39.20961380
1.23184872 -0.17675009 38.77050400
0.50425482 -0.11274375 39.67709351
1.22445881 0.56427157 39.17573929
2.05149746 0.40334523 39.66929626
-0.28426385 1.25837183 41.10268021
-0.36778414 1.21371460 41.37661362
1.10590196 -1.68408203 41.06024551
1.53107882 -1.99145138 40.31966400
0.09192502 1.41996658 41.76955032
1.26936984 -0.43766603 39.98279953
1.39827347 0.98760009 39.05511475
1.80509114 1.94798279 39.50823212
0.37737024 -0.67899334 41.06104660
0.90068632 -1.98240972 40.67166138
2.30217957 1.44623911 41.86769485
0.49141032 -0.43925509 40.10518265
0.58137608 0.89832121 39.30774689
0.67596096 -2.14731979 40.66033936
0.30748844 -0.63785422 40.39056778
1.32002926 -1.19540501 40.03713989
0.19552350 0.08918147 38.56089020
0.96270984 -0.17918639 38.94555664
0.81492746 2.14801788 39.15294266
1.52549815 -0.95148140 40.17852020
2.09283090 -0.31105754 38.85144424
2.00356817 0.32748795 40.24144745
2.42075229 2.04892445 40.61328888
0.86230850 1.97744644 40.46260834
0.01782179 -0.50128710 40.47673798
2.00143933 0.47718203 41.71396255
0.97870111 -0.49005520 41.43745041
1.03927684 -2.00787759 40.82348633
1.52351868 0.65341514 39.22633743
2.53089762 0.67739910 40.04216766
2.04340267 0.76643002 39.08366394
2.62527561 1.50002015 40.12666321
2.18340635 1.17935586 38.98725510
2.36599350 1.69603634 39.38084793
-0.18711555 0.15051731 40.94168472
0.84397233 -0.05709519 38.90704727
0.85408795 2.23489857 38.98801422
1.43777049 -0.11812244 39.12266159
2.62620521 1.69805133 41.07614517
0.54472619 -0.49894243 41.37596893
1.25380123 1.90394843 40.29814911
0.89170218 -2.27817678 40.19876862
0.54127353 -0.92820144 41.13493729
-0.00535536 0.26695901 39.13922501
2.29650164 0.67017990 41.73344803
1.68984234 -0.26990485 41.10792923
2.79476833 1.94046199 39.05054092
1.81958723 -0.44391173 40.27227402
2.58658171 0.35526446 40.30607605
0.88853997 -0.22131535 41.44567871
1.68096733 1.46362507 41.69819641
1.57900620 -1.78352344 40.44120407
2.67914057 1.66365135 40.31118774
2.43693781 2.02285433 40.21348190
0.21172947 0.29191858 39.28266907
0.38111013 0.34766072 39.53704071
1.17761004 -2.27256584 40.13764191
-0.01844203 -0.05748497 41.05268097
0.26472700 0.27970356 41.07689285
2.74015427 2.07228470 40.36085892
1.60798967 -1.25702858 41.14580536
1.10000718 -1.51347697 39.67486191
1.72363949 1.33589280 39.09412384
1.46923435 -2.12619829 40.30807114
0.82852447 -0.70037639 41.32981110
0.66160613 -0.98089641 41.15015030
2.68166590 1.09918344 39.56581116
1.32764387 -1.18405592 40.10870361
-0.26437759 2.14313984 39.95186996
2.33556032 1.35296178 41.10551071
1.06935287 0.16616417 41.66610336
1.29737222 -1.81567073 40.88486862
2.64636517 0.67189139 39.93836212
2.38986325 0.56731641 38.81529617
0.24018234 -0.54273671 39.77155304
0.99589300 1.33228421 41.77854538
-0.25322008 1.42238104 40.82852173
0.83913684 0.78228790 39.29172897
0.58110827 0.27801320 41.52108765
1.18015873 -0.17747660 38.58669281
0.52344829 -0.63982940 41.17806625
1.39552665 -0.88599038 41.27247238
1.81176376 -0.20814572 40.99429703
1.80165839 -1.40424716 40.41562271
0.37967026 -0.10353086 38.77836990
0.44268447 0.15364751 41.47822571
1.16516972 2.23598576 39.01961517
1.99505520 0.78248018 38.94791412
-0.21043479 0.75435758 41.62004471
1.66465926 -0.71794617 40.23506165
2.56140614 1.29739702 39.35330963
2.38025546 2.06193495 39.99296951
1.94802892 -1.20660007 40.91020966
2.03140140 0.69695073 41.78972626
0.84429908 0.81839585 41.71418762
0.14198124 0.24099955 38.63452530
2.37320232 -0.12310800 40.53039169
0.31180465 0.96888721 38.72974014
-0.23552322 1.99667776 40.89208984
2.28391027 2.09183931 39.36704254
-0.14874017 1.12348700 40.99464798
-0.21171725 1.42561567 41.82247543
1.40510309 -1.25180793 40.15835953
0.47326672 1.16343105 39.17969131
1.17999566 -2.01764631 40.82304764
2.19748306 1.54811180 39.22639847
2.51842928 0.84153372 41.77019501
1.74755859 -1.30839169 40.47078705
1.19487822 -0.05347484 38.64113998
-0.01338565 -0.21134101 40.93052673
0.77678990 -1.35604060 41.05900955
1.87194467 0.48406011 39.06335068
1.72768486 1.25923657 41.78564072
0.67452800 -0.24892823 40.05364990
0.82779765 -0.20053425 39.88950729
1.90768111 0.85374773 38.97324371
0.26811403 0.78924882 38.66637421
2.17951584 0.48069245 40.88579941
0.49481314 -0.33180395 40.07374573
1.81280541 1.58762264 41.84795761
-0.23274088 1.51586163 41.61221695
0.10077882 -0.46704540 40.72449493
1.63652682 -0.58109236 40.27132797
0.16210437 0.14514616 40.11163712
-0.21372187 0.76989824 39.26681137
2.33621788 0.86031061 39.01422501
2.04684424 -0.40021646 38.86861801
1.66000319 1.17250478 41.73192978
1.17007518 -1.17460263 40.05539703
1.39204109 -1.76666152 40.87452316
0.95608819 0.40146396 41.57324600
2.16500306 -0.38464391 40.51275253
1.90488267 0.26042235 39.37817001
-0.19317758 1.48904276 39.43274689
0.10683680 0.37957564 38.55307770
1.91101742 -0.55134463 39.21147537
1.85288382 0.48620147 38.66107559
1.44671679 -0.28000537 41.42432404
-0.34307659 1.78712487 39.96805191
0.28033572 -0.25922275 40.74151611
2.60420251 1.43081081 39.73295212
0.22013670 1.44624877 39.02822876
1.90637362 0.89449859 41.98691559
-0.32039821 1.59634268 41.30913162
2.23130894 0.48365152 39.62484741
2.49626303 0.88700676 41.04481888
1.11294436 0.06048060 41.54993057
1.14178967 0.03967457 39.16526031
2.67716026 1.79840469 40.25354385
1.49713004 -1.31609106 41.16176987
0.26558661 0.83135593 38.65066910
0.89864647 -0.52310383 41.37221909
1.44044304 -2.40623713 40.28170013
0.39989799 -0.46378562 40.91359329
-0.18519711 1.60752714 39.53111267
1.06223822 -2.40092087 40.59100723
2.64433956 1.09385192 40.05835342
1.41981316 -1.88043737 40.79367828
1.78744197 -0.26642400 38.87009430
1.79778337 -1.29547751 40.96053314
-0.38251972 1.92734110 40.97148895
2.61845112 1.09325266 40.36991501
1.08805680 2.21825361 38.81401062
-0.18138099 1.36123681 40.78795242
0.03060126 0.37079623 40.90031052
0.56080747 0.27376065 41.49967194
1.54642224 -0.91564542 40.29799652
-0.18346608 1.39481783 41.34883118
2.59418488 1.09252310 40.42082596
1.15819299 1.56029367 39.31870651
1.95723724 -0.34620482 40.24312210
1.68664813 -1.02524364 40.21641541
2.42406821 -0.09796987 40.83807373
0.21715498 0.34497961 39.49893570
1.50708556 -1.67882955 40.34524918
1.94172931 1.65490496 41.80833817
0.42884982 0.58571106 39.52216339
2.66818047 1.48922551 39.71346664
2.57300138 0.52902859 40.54239273
0.83545804 0.20984127 38.88658524
0.71894169 2.16773796 39.34791565
1.36985719 -0.16057342 39.05844879
1.76712143 1.18202305 41.83858109
1.90512538 1.85104072 40.66616058
2.52542806 0.90459096 40.67644882
2.05126572 -0.16738228 38.53713608
1.12981248 -2.39381695 40.71390533
0.19420797 0.06351577 40.21619034
0.88369954 -1.26342535 39.78906250
2.68672752 1.31942737 39.99727631
-0.28755808 1.95839632 40.62047195
0.42461264 0.07202874 39.54722977
1.11133981 -1.41457975 41.18680573
0.94029224 -1.18242764 39.77941895
0.66576093 -2.08474636 40.69836426
0.00555813 0.58319408 39.84995651
2.27877140 0.77160197 39.01982498
0.54561001 -0.40117258 41.36418152
0.48563433 1.33178461 39.19452667
1.49330735 0.51847196 41.76074982
0.59423548 0.51765716 39.05088425
2.54375029 2.31489468 39.07946014
0.49055195 -1.90284681 40.48100281
1.39791453 -1.27899981 40.12538910
-0.09886503 0.04064237 41.00961685
0.58152133 -0.56808227 40.05983353
0.95323086 0.95405185 39.18401337
1.84282756 -1.17736590 40.57184219
1.24279261 0.06029658 38.85447693
0.47951972 0.25850931 39.94057465
0.84453118 0.21424690 38.67966461
-0.26635981 1.26535106 39.35429764
1.60200930 -1.09591746 40.21845245
0.57137930 0.26987627 38.77824783
2.18760538 0.41515610 41.37668228
1.48537326 2.19308472 38.89964676
0.42940533 -0.40716755 39.80203629
0.38266289 0.85243195 41.58744431
0.73067397 -2.31282330 40.48623657
0.55477083 -1.60997593 41.04076004
2.41858912 -0.17134234 40.74016190
0.68023872 -0.34650725 41.38373184
2.50083351 1.40053070 41.53150558
2.38653278 -0.08668832 40.68334579
1.07462370 -1.99467719 40.53775024
0.00826228 2.08545494 39.37894440
0.85793686 0.39915225 41.68507767
2.26287580 1.81663942 41.18239975
0.42637765 0.23039123 39.30762100
-0.24865520 1.58893228 41.72990417
0.26860803 -0.04335440 39.40523911
2.40575647 0.08110132 38.87503815
1.99449420 -0.39050287 39.07929993
1.12317455 -1.54956746 41.09910965
-0.21661258 1.37759757 41.50992203
2.41307569 0.47692776 41.57413483
2.34953547 -0.21248797 40.90579987
0.79327524 -1.30481446 41.02730942
1.77622795 1.38046873 41.84914780
1.51776052 2.32391167 38.90595245
0.48708546 0.55886525 38.83541870
0.02943635 0.24117258 39.14856720
2.36608171 0.16131480 39.41175461
0.34351689 -1.28350222 40.98809814
1.26516294 -1.15328026 39.77888489
0.60493690 -0.30789730 41.29748917
-0.07676744 1.27317476 41.30128479
2.57879806 0.70189089 41.55878448
0.50748831 0.05141637 38.83395004
1.51882601 -1.31175089 41.03100204
2.25868559 0.00424208 38.66856384
1.71576238 -0.51065958 39.94321823
2.27235937 0.17256835 40.89075851
0.00494289 1.80220830 39.25582123
0.40613008 0.14203492 41.19908905
-0.15510261 1.95368886 39.48133469
0.82731241 1.68371630 39.17657471
0.90050042 1.48894465 41.89894485
2.44540787 0.37406835 40.12550735
0.49557769 -1.05342925 41.19735718
0.86356771 1.29918873 41.81986237
2.33776617 1.91569161 41.40871429
0.41348642 2.13346863 38.94077301
1.95619893 -1.20338655 40.98369980
0.91578943 0.32816482 41.59787750
-0.31623983 1.49386430 40.45429993
1.48451173 -0.28682509 39.07448578
1.27205777 -2.35558748 39.82444382
1.11306512 -0.05252887 39.23597717
0.16919768 -0.02318994 40.47835541
-0.23620391 1.55400896 39.90422440
0.76503855 -1.55030382 41.02199936
0.31984812 0.16363700 39.08990097
0.28768456 -1.08456182 40.85533524
-0.02799666 1.84001899 40.59797668
1.58789575 -2.22726917 40.32434082
0.66617543 -1.46582150 39.68538666
0.56655151 -1.48605311 40.95217514
0.00488615 0.27267081 40.52289581
0.23454356 -0.14400589 39.87613678
2.59615946 0.77494287 41.27173233
2.30446196 0.59079629 38.86419678
0.60177559 0.72507209 41.66659164
-0.17527580 0.06239006 40.87612152
0.46487290 0.37963992 38.91705704
2.24157405 0.41098735 38.78317261
0.03451300 -0.12178804 40.89671326
2.36811972 0.59105361 41.37049103
2.06666946 -0.09269755 40.21565247
0.47497284 -1.66064990 40.86818314
1.23870170 0.84952271 39.22486115
-0.05437720 1.82178283 40.25798416
0.40825808 0.65932369 38.87612152
2.20710611 1.05793107 38.95728302
1.56591189 0.05101573 38.93840027
1.87411475 1.37439525 39.13486099
0.37906820 0.64328885 38.81206894
0.25331926 0.37323371 38.54621887
-0.20100892 1.53431070 40.63480377
1.22050452 -1.53621244 39.60280991
1.16751266 -1.81903875 40.90592575
2.06520057 -0.46002084 40.33370209
-0.29442465 1.33596337 40.32164001
2.66612244 1.73033524 40.07387924
0.78408146 -0.03873102 39.28596497
1.24396205 -0.77516562 41.43882370
-0.23646641 0.54534805 40.77944183
0.63108218 -1.03532195 41.26152802
1.28049946 2.39029551 39.05348206
2.38863611 0.10162430 39.33170319
1.63206851 -1.65831637 40.84691238
1.86750793 -1.14810550 40.69257736
1.12466550 -0.50786793 41.39247513
0.91404641 -1.34111476 41.13230896
1.10617161 0.13424720 38.70761108
-0.19343567 1.61699998 40.61697769
1.39017630 -2.36719704 39.97553253
0.05144811 0.75225067 41.73030090
2.17631006 -0.28532657 38.93285751
0.28452724 0.95315778 38.76301956
2.39241123 1.49934673 39.43464279
-0.19236672 2.08862782 39.42072678
0.48278463 -0.21315680 39.09516525
0.72787297 -1.84868753 40.84130478
0.39315987 -1.13693941 40.97456360
1.25314188 -2.16321945 40.75152588
2.46345282 0.46505511 40.14664841
1.01790166 -0.86021012 41.25073242
1.97296190 1.04669058 41.88847733
1.66072369 1.41447210 41.87919998
2.10258794 -0.39098066 39.05090332
2.43200541 2.35493183 39.25753021
0.27723062 0.60225064 38.73094940
1.94677448 -0.35598552 39.46805573
0.63788360 -1.39574659 40.35274887
1.85502791 0.41656941 39.44656372
-0.01670361 0.56788683 40.02745056
1.37688506 1.84168291 41.15033722
2.46187925 1.66749728 40.24962616
0.82365417 -2.14860344 40.75767517
2.67278600 1.02047670 41.30390167
0.40971208 -0.36567268 39.63049698
1.78987634 0.84170347 41.81669235
2.26878691 2.28798437 39.37454224
0.93990499 -1.42408812 39.73468399
1.58120608 1.59416056 41.81906128
-0.26755023 1.00377440 40.22335052
2.61408901 1.01661479 41.38516235
-0.05692422 0.20836112 39.21915817
2.29271030 1.97561061 41.16715240
1.47225738 -0.54102695 41.39545822
0.70449328 -0.04582730 39.26985931
2.02319670 -0.32588744 40.67190552
1.40280843 -0.38400269 41.43214417
-0.16495693 0.91998303 39.39818573
1.53298020 -2.08826447 40.00130844
2.34731698 0.38047346 38.83317947
0.03270590 1.14685464 41.82655334
0.17091930 0.34329420 40.22157669
0.28350556 0.70119601 38.64717484
1.24667180 -1.85043788 40.86551666
2.40144968 0.28582641 39.01714325
-0.21933770 1.61992955 40.28099442
1.41285288 -1.33334720 40.00167084
2.11755300 -0.55155671 40.52368546
1.87791657 -0.39505553 40.11654282
2.16482472 1.19466329 41.95651627
1.49267864 0.90537298 41.64315033
1.33367085 -1.21680677 41.18213654
1.82295895 0.64912951 39.16163635
0.11461759 0.63562155 39.52296448
1.41807914 -2.04442883 40.52601624
2.26186991 0.39105541 40.84049988
0.52506781 0.66509312 39.02785873
-0.29185259 1.33646202 39.91849899
2.29436159 -0.27077579 38.68180847
1.83552670 -0.66628766 40.35283279
0.98220247 -0.71137738 40.00375366
1.07702982 -2.05888605 40.17060471
2.27867508 -0.02680171 39.14871216
1.40038133 -1.73893404 40.88862610
2.02405071 0.89957488 38.92827225
1.66126645 -0.28795204 39.09588242
0.22478968 0.57053822 41.56203079
1.04116762 -2.18397474 40.03940201
1.20442510 0.11892717 38.68570709
0.03037000 1.11114311 41.88373566
2.50333214 0.71727526 40.89581680
-0.28640711 1.53913510 41.50038528
0.67267102 1.46956527 39.15953445
0.96319228 -1.13069034 40.09810257
2.56922674 1.06613970 41.36759949
-0.15089595 1.14344108 40.84962082
0.45199752 0.51989156 41.57507706
-0.01238501 0.49793881 39.92274475
1.11874914 -1.50804079 41.19626236
0.44880950 1.54389799 39.15071869
1.40703678 0.88516724 41.71368790
0.77004004 0.24907649 41.52844620
0.81821728 -1.63225281 40.86389160
0.64807343 -0.29817918 41.32260513
0.74569273 2.20176411 38.91094971
0.01872313 0.83106470 41.67715836
2.30045223 0.79366904 41.94464874
-0.15151358 1.83395672 41.64764023
2.59491158 1.44353175 39.25326920
2.65756679 1.86304688 39.12667847
1.41893387 0.16637345 39.15349960
1.84957266 -0.24199945 41.15188217
2.34673309 -0.12715295 41.06104660
0.55823970 -0.05837440 39.61003494
-0.33120453 1.32708633 41.76881027
1.55764604 0.09068359 41.63947678
2.59383488 1.12972784 39.34122467
1.27716088 -1.53359175 39.89788818
-0.12142813 1.92945766 39.57258224
2.09287310 -0.13650575 39.22164917
0.27508968 -0.72531837 40.90290451
1.79137635 -0.24140666 41.10331345
1.81511450 -0.37200472 39.59470367
0.84711081 -0.68288004 41.38608932
-0.27613628 0.98393095 40.29278183
1.54358196 0.70534474 41.69582748
0.84362435 2.23467350 39.01184082
0.45715272 -0.28751343 39.47044373
1.19813991 1.87761891 40.97646332
0.64811283 0.28624722 39.20006943
1.81045556 -0.33262399 40.33193207
1.73279035 1.46249807 39.04692078
0.75163013 -0.03946721 38.74244690
-0.27687252 1.77832317 40.24065399
0.66511035 -0.64735079 41.34684372
2.21258569 0.44452816 39.59420776
2.54855609 0.22579291 40.38076019
1.93215823 2.15981865 39.89839172
0.97142982 1.86996531 39.03184128
1.85348868 0.49044096 39.45305634
1.37082922 0.15473041 38.87321091
-0.20341957 1.69211102 39.36137390
0.07508588 1.06042588 41.77148438
2.74848819 1.04912567 40.20745468
2.59439301 1.25277245 40.20414734
1.89850903 -0.20533776 41.06978989
2.50488830 1.15161324 39.09741592
2.16356182 -0.24401322 41.10382080
0.94079578 -1.25863743 40.12351227
0.99253631 -2.20004272 39.95396423
0.68519276 0.28566295 38.94216919
2.54789925 2.02879095 38.87395477
1.43257201 -1.19801795 41.22850800
1.51112044 -1.27415550 41.09987640
-0.32190323 1.75614214 40.10844040
2.41146421 2.08435869 40.74478912
2.10834837 2.26947451 38.97869873
0.40492386 -0.04833931 41.20771027
1.01123619 1.18916118 41.78238678
1.61459470 2.01860189 38.83872986
2.17876005 0.10381953 40.31584930
1.74103153 -0.36062622 40.99763107
1.21459603 -1.23967147 39.71875000
1.13825846 1.62279713 41.82767105
1.45021188 -0.23303917 41.48626709
1.38641334 1.01765895 41.79570389
0.50731856 -1.86380756 40.68123245
0.37139523 1.35785103 39.02552414
0.86129272 0.40828925 41.77889633
2.02843213 1.93688202 38.78008270
2.31643391 -0.13764186 38.92328644
-0.25617647 1.58103275 39.46691513
2.11833501 0.31012017 40.12634659
2.22556615 0.16242136 40.37063217
0.31904060 0.13689905 39.46880722
0.33524108 -0.29849300 39.32861710
0.32442570 0.43454334 40.96876907
2.21426439 0.45919770 41.48443604
0.52120566 1.02081966 41.68120956
0.26039237 1.69796216 39.02093887
0.81206203 0.96557283 41.82507706
2.24591565 0.76555014 38.77822876
0.08920407 0.86186242 41.69641113
2.52892995 1.34196913 41.25437927
2.83460045 1.69543529 39.28013611
1.25633836 2.19149256 39.20979691
1.52864373 -0.01430861 38.73941803
0.04533350 0.63623148 39.52626801
2.31455064 0.54975873 39.37197495
0.76587605 -1.99488842 40.71229553
2.02357388 -0.93853593 40.85519028
-0.32553864 1.35025251 41.29956055
0.48820806 0.40166742 41.50024796
0.42189819 -0.85300094 41.03522491
0.19960010 0.30553311 39.35291290
1.26874065 -0.85103768 41.39712524
1.41272867 2.40587616 38.96380997
0.41829896 0.09926480 39.34033203
-0.26026833 1.31179285 40.12463760
2.33798671 0.60922796 39.37419128
2.37251139 -0.02752379 40.47096634
0.15836799 0.52656174 39.69896698
1.24933243 2.12783909 38.92894745
-0.28626561 1.32658064 39.72510910
-0.08289921 0.65753639 41.57796860
0.55789471 -1.61213636 40.40926361
0.39103526 0.26629600 39.39972305
1.18208051 -1.45404804 41.05324173
1.53923011 1.82459521 40.94268417
0.57317394 1.39273286 41.70237350
2.08874583 1.22150064 39.06285095
-0.17701387 1.53131843 40.61877060
1.77918386 -0.60793895 40.32648087
2.28646708 1.71286511 41.55836868
-0.19361770 1.05821204 39.76795959
1.59391356 -1.75624502 40.49953079
1.59967065 0.60561955 39.34171295
-0.25066090 1.41527009 39.76403809
1.29076600 -2.03418851 40.70858002
1.07192171 -1.79689181 40.90360260
1.89471889 0.08913334 40.00901794
2.06053066 0.12004906 38.66308594
2.61116505 1.72391582 39.27360916
2.04439855 -0.58342928 40.63423538
0.59873885 0.32014334 38.80812073
0.30305386 -0.03821505 39.51937866
1.02142060 -1.02360463 41.34146881
0.55306172 -0.10449725 39.40291595
0.53237784 1.69325709 39.23017883
0.30436450 -0.19358124 39.67041397
0.15792346 1.58705950 39.12421036
1.50369263 -1.62961400 40.11647797
2.21707964 -0.11456433 38.52833176
0.83485597 2.04757690 39.67026901
2.54173183 0.70065397 41.66395950
0.25830764 1.99923527 39.65419006
2.51241207 1.51227272 39.34016418
-0.31569374 1.52683568 39.92720795
2.62491369 1.65035367 40.43986130
2.08671904 -0.77907515 40.72887421
1.88880551 0.44733831 41.68457794
1.21703577 -0.23379827 41.46775055
-0.26066601 1.51046371 39.52011490
0.95483005 -0.42006418 40.15908813
1.67100191 -1.24579656 40.37089157
1.92122841 -0.99530476 40.78688812
-0.38910139 1.82799792 41.04291153
0.38814753 1.84226656 41.24613190
0.78387320 -1.07127249 41.17913818
1.15224910 1.50221586 39.16653061
0.41567314 0.84813261 41.70191193
1.07340765 2.29932022 39.00510025
1.62553823 1.77231777 41.31065369
2.43226767 -0.01189338 40.57264709
2.53809357 1.72235143 40.60907745
0.90688527 1.92461133 41.08847809
2.73550963 1.26277781 39.32631302
1.04272151 -0.12006291 38.72433472
1.84186459 0.50644338 41.73805618
2.28671741 1.71599877 41.09442139
-0.18480003 0.49819183 39.38322830
2.19366980 1.67694509 39.26906586
1.09587193 -1.65733826 40.97016907
1.39206636 -1.93339658 39.86299896
0.85017622 0.17111374 41.54780197
0.13019753 0.48794740 41.35547256
1.76945126 0.42014363 41.48321915
0.88438272 -0.29196620 38.82529449
1.41032195 -1.70764148 40.13500977
1.70723724 1.46371150 39.24167633
0.11236429 -0.61832160 40.74995422
1.37072361 -2.40848303 40.18989182
0.84370202 -0.95189601 41.20655823
1.61934042 0.06931949 38.82744598
2.46860504 0.24867859 40.33792877
1.90252399 0.35695150 39.76124954
2.10102129 -0.06859571 40.97540665
2.00274634 1.52812481 41.91157913
2.63824821 0.90228039 40.08789825
0.36033630 0.27248448 41.37187958
0.21361780 -0.20265789 39.43202209
2.22739315 0.08490673 39.34328842
1.06494129 0.36832121 39.12791061
0.27334350 0.48566419 38.51800156
0.22993773 0.74245661 38.66336441
0.52016145 2.18693066 39.47386932
2.47287989 1.52779782 41.46102905
0.16276336 -1.09900284 40.83003616
2.52475429 0.53322297 40.45401382
-0.24715042 0.87371576 39.87278366
1.04069984 0.02806540 38.77602386
-0.28475463 0.79141444 38.97980118
2.20449519 1.46573591 41.85805511
2.55919552 0.35455635 40.41320419
2.17537093 0.11116010 39.35377502
0.81081104 2.24344158 38.93746567
2.63216090 0.53816694 40.77502823
2.56340694 0.93628854 41.48814392
-0.35220659 1.69998658 41.01728058
0.68193054 0.01026602 38.88024902
0.90395266 -2.20239449 40.07759094
-0.07919228 0.52372134 39.59976578
2.35674453 1.50785339 39.13240433
1.90104961 -0.51853371 39.81865311
0.21721059 -0.25912488 40.13124084
1.59461117 -0.26463509 41.55671692
0.20620787 1.11723983 39.10421753
-0.25883865 0.51438326 40.83050919
2.47020102 2.07451963 40.42903900
2.44641542 0.78019869 39.11997986
0.89263952 0.01713684 38.70364761
0.95172024 1.61672139 41.74620819
-0.12719524 1.95481753 39.93076706
1.45001650 -1.80725777 39.98020935
0.17548156 -0.26311433 40.56590652
-0.21700478 1.34956813 40.99428177
2.39431620 2.05608702 40.54782867
1.75076771 -0.66476935 40.33301163
2.45411682 0.25767216 40.77439499
2.65998840 1.44809842 39.72229385
0.34798694 -0.09600550 41.22708893
2.50141859 0.72488564 41.54026031
0.18722677 0.20685209 41.13839340
2.39861512 2.13507557 40.83617401
2.17441392 0.07744991 39.20157242
2.33945298 0.48676836 40.92587280
1.04248631 -0.39284694 41.49492645
2.23404408 1.97082722 40.09556580
-0.40502191 1.24769115 41.33464050
1.88851619 0.11443678 39.76425171
2.56847525 1.08097732 39.64472580
0.54119062 -1.90184343 40.39641953
1.73705840 0.42166117 39.32105637
1.61460614 2.07497263 39.59584808
0.91109109 2.15883541 39.19698715
2.52827406 0.61752456 40.78994751
1.71584749 1.91506946 40.88956451
-0.08498383 1.44924986 41.17615891
1.69267583 1.79993272 40.72694778
2.25609159 1.10813618 41.86433411
2.18536639 0.59059840 41.85226440
-0.03115880 0.18406181 38.99404526
1.94474006 0.76537251 39.03437042
1.99641728 0.04113840 39.28565598
1.86270404 -0.47188714 39.09985352
1.88877869 0.77088165 41.90505600
0.59444386 0.47295791 41.58791351
2.09837103 0.70562673 38.67231369
2.36670303 0.20531158 39.02215576
0.91674560 -0.02274349 41.60123444
-0.19177783 1.31418061 40.96319199
2.54952335 1.08455265 40.46720505
0.22444618 0.62511647 38.66647339
0.71096623 -1.64364386 41.09399796
2.60149217 1.75058496 40.90094757
-0.11632800 1.23676932 41.76458740
1.98299563 -0.17977974 40.12860870
-0.03607047 1.93675888 39.26829147
0.47630769 0.31245798 41.33978271
2.59232187 1.46859694 39.33062744
-0.14151204 0.79230005 40.69850922
2.59826899 1.43838048 39.40091324
2.06465459 2.18790817 38.92293549
2.49757290 1.22342205 39.25159073
1.37134564 -1.91979694 40.70801926
-0.05438685 1.53380382 39.16690826
1.40684295 1.06780601 39.10315704
0.90722698 -2.15385580 40.43685913
2.54010677 0.93452060 40.65373230
2.31621242 0.32003573 41.49639511
1.51348770 -1.82685351 40.88581848
1.30466950 -0.09589899 39.07394791
2.43964124 0.63504535 41.33852386
2.31854439 2.16866636 39.40613556
2.09207678 -0.13176504 40.23237228
2.78197384 1.85960853 39.72846222
0.88040149 1.26754439 41.81573105
0.73084247 -2.15863037 40.54884720
1.02458644 -1.42930937 39.68567657
-0.35512745 0.74847931 41.34902573
0.64431024 -0.31130993 38.91483307
0.89871460 1.08812380 41.74260330
2.52074838 0.44983256 40.65607071
1.21263194 1.49070096 41.88393021
1.92969382 0.72342896 39.13409042
1.10932732 -0.16736655 41.56846619
1.10349214 2.12000561 39.42885971
2.38002920 0.75587714 39.34577942
1.14590776 1.31122935 41.73299026
2.01128054 0.48374587 41.83410645
2.41100311 2.16796923 38.97136688
1.81946635 -1.51560760 40.83422089
0.30435538 1.79128397 41.41042709
1.22094512 -1.81654990 39.52795792
2.57541680 0.86051416 40.97678757
1.38309038 1.69245422 41.14213181
1.18345141 0.36463845 41.75118256
2.68159342 0.90254533 39.96372223
0.51910466 0.42847207 38.91134262
1.61264598 0.61186963 39.33381653
1.16973686 0.04638325 39.14860535
1.59437764 -1.80236375 40.15557861
2.68619251 0.88096553 40.36750412
2.10258436 -0.74882436 40.66822433
2.62079048 0.95541579 39.81625366
-0.26045990 0.95699906 40.82596970
1.88827109 -0.54251432 39.95048523
-0.15475345 0.08288021 40.92964554
2.03948927 0.21399537 38.59807205
0.64511287 -0.51024508 41.24987030
2.43894386 0.40922299 39.38723755
2.66303968 0.75522864 39.93863297
0.64413875 0.86991000 41.62819672
-0.11126769 2.10840464 39.74934769
1.73463035 0.74373049 41.75308228
1.38457322 1.30427921 41.83219147
1.19331980 -2.24906063 40.67030334
0.30514836 1.01158094 41.78607941
1.64222026 -1.33370805 40.77278519
0.89949095 -1.57757556 39.64521790
2.14969015 -0.17621346 40.54018021
0.30090767 -0.20558344 38.71903229
2.22908616 0.09064914 40.46099854
1.40901637 2.29973555 38.85217285
1.45207989 2.16363239 38.84312057
1.77233601 -0.49920592 39.87654114
2.21664405 1.72783077 41.25006866
1.02765942 -0.40098119 41.50450134
1.70418918 -0.32024565 38.78399277
2.38779020 1.88625002 40.59412003
1.24229455 2.04344082 39.73353195
1.12632906 -2.28679991 40.57964325
2.47959518 0.80894977 39.56973648
2.69359016 1.24580634 39.99476624
1.21193016 2.40437174 39.00149918
-0.14620709 1.85449624 39.87524414
1.01397300 -2.18505144 40.79352188
2.04840708 0.72052574 41.86702347
1.23305225 0.22286609 38.93261719
1.10361600 -1.72037959 40.90898895
2.77937222 1.88228643 39.14883423
1.82800257 -0.60177541 40.30976486
1.61985040 -0.47228482 41.42952347
-0.12170541 2.03545475 39.50822067
-0.37606704 1.42665780 41.59029770
-0.36262345 1.68966866 41.04544067
1.82606125 0.13744141 39.66971970
2.17325163 0.05702135 39.37590790
1.32175994 0.15600233 38.84733963
1.10829949 -0.52492452 41.43724442
1.18048012 -1.19838893 39.82898712
2.25612736 1.10112739 41.94196701
2.08129811 -0.20009556 40.24208832
2.62237287 1.45029986 41.42943573
1.01217997 -1.07748044 39.99817657
2.17430019 0.96143949 39.07985687
0.81991839 -0.02455484 39.24266434
2.36332297 2.04745054 41.22869492
-0.35463047 1.89193559 39.79864120
0.15331697 2.19980955 39.55568314
0.68767452 -1.44117939 39.97648621
0.44633430 1.72151530 39.15834427
2.54849052 0.75545478 40.69620132
0.61908615 0.28079957 41.59549713
0.33744490 1.99684417 41.16930389
1.01823592 1.95457351 40.11267090
0.30941933 1.55324578 38.98017502
-0.21168840 0.22800410 40.58462143
2.09951639 1.99659908 39.47942734
-0.18746376 0.91338080 41.72829819
2.33318567 1.25066209 39.10124969
-0.35217083 1.50225914 39.77958298
0.15605855 0.00287434 40.38855362
0.53027070 -0.33654952 39.86091232
1.36393845 1.24487817 39.07646942
-0.15989697 1.62966943 39.36244202
1.27026200 -2.06238890 39.83086014
1.95482957 2.12980461 39.17938614
0.84590769 -2.33965540 40.49953842
0.64349425 -0.28701127 41.36482620
0.14704370 1.09573650 39.05118561
1.11428428 -1.67304885 40.99600220
1.03540325 -2.31802702 40.66344833
0.37838775 2.06269503 39.08689117
1.47123158 2.17045593 39.30078506
0.98074400 -1.38691115 39.60383987
-0.29910898 1.64881766 41.21800232
-0.20357692 1.82230163 40.18244934
2.15422964 0.60891086 39.71901703
1.12700629 -2.11281776 40.13337708
2.49809456 0.23279393 40.90782928
2.62294841 0.84783190 40.59642029
1.98173261 -0.46595472 38.81381226
2.56392980 0.48611259 40.72835922
0.01735842 0.77010345 41.66461563
0.61376184 -0.17979340 39.38766098
1.13702834 -1.09941900 40.03373718
1.57826829 -0.43543932 41.30627441
0.15435481 -0.78430796 40.81283951
2.55834103 1.05764866 40.03694153
0.92363489 -1.39711809 41.05937958
1.67233372 -1.56645358 40.66294098
1.63218498 -1.43429387 40.99066925
-0.21796918 2.09255266 39.56564331
0.34365249 0.95111972 39.00146484
1.95938742 -0.07708862 40.05978394
-0.20655143 1.54025137 40.24868393
1.13857079 -1.21390259 39.99853897
2.65080929 0.62924075 39.80622864
2.66073847 0.81414944 41.50955963
0.40064442 0.04903042 41.40178299
1.00234962 -1.46182513 41.16537094
2.56856322 0.85069883 40.15291214
2.45955706 2.23032522 39.33532715
0.59284753 -1.74464869 40.04766846
1.05947626 -2.25288916 39.98267746
-0.25713122 1.36057711 41.45230103
0.48147887 0.58171445 41.58371353
0.18537724 0.58349484 41.47710037
0.09656966 0.45664930 40.90338135
1.31808424 -1.70749974 39.73884201
2.65982366 1.75940216 40.56775284
2.23685026 0.27209842 38.64336014
0.26086873 0.17880683 39.21593857
1.74968219 -1.47330630 40.78871155
0.22582287 0.14422217 40.14465714
0.76417446 0.08293711 38.79350281
2.12245607 0.40842375 41.25582504
1.58099103 0.45259652 39.38383484
0.89055526 -0.47119150 40.06421661
0.28101063 -0.16212812 39.53748322
2.03932762 -0.73070914 40.78575897
1.27760351 -1.54695773 39.71655655
1.26188612 -1.66675901 40.94553757
2.41980600 0.72964144 41.79093170
0.24736333 0.10098550 41.13491440
2.14157987 0.42459428 41.31172180
2.51940012 0.53309429 39.94653320
0.47763920 -1.62621582 40.86706161
2.16975904 0.33557370 40.08684540
1.73147106 0.14926414 38.89099121
-0.08272576 0.03484027 39.06261444
-0.07772362 0.58458263 39.92764664
0.85033047 -1.31868553 39.81680679
1.76176286 -0.12459189 41.09797287
1.18842411 1.77509475 41.11065674
2.06336021 -0.29018959 40.64957047
1.25942218 1.47485769 41.82600403
2.64522171 0.65844584 40.44475555
0.34536725 0.72210044 38.76594162
0.19094133 1.32024348 41.86450195
2.50027442 0.29049718 40.17767715
0.56341547 2.13506556 38.92989349
1.89690828 -1.40708196 40.82888031
2.41913438 0.29195201 39.39913559
1.27798653 -0.29830918 38.85646057
0.56885755 0.67407614 39.24512100
0.39489001 -0.27232504 39.29736710
0.98037100 -0.64066857 40.04815292
1.75677156 -1.22952080 40.44454575
2.73717022 1.33234465 39.78442001
0.79859173 -0.18736212 38.84828568
0.90869105 -2.14032888 40.31798172
1.22001374 -2.03064728 39.67044830
0.61182117 1.28023875 41.65182495
1.07032788 -1.68622804 41.00920105
1.56929040 1.61469555 39.19152832
1.12692773 -1.42167461 39.75357056
0.58831137 -0.82351273 41.11623001
2.36802697 0.71569479 40.01073456
1.03610885 -1.15474677 39.90229797
0.70051676 1.34899795 39.14449310
2.41123486 0.61062604 41.05785370
2.72560263 2.19500637 39.02781677
0.12122321 1.88497233 41.07750320
0.59692293 -1.13818157 40.99435806
1.59903347 -1.67746735 39.99553299
1.20118833 -0.11792220 39.01035690
1.71059418 -0.33948782 40.93671799
0.91658413 -2.10772514 40.79795456
1.16871309 0.75171125 41.73723602
1.15849185 0.50248402 41.62432098
1.80678189 -1.31363595 40.37099457
1.82221353 2.41755295 38.99935150
2.13796759 0.48331976 39.81308365
1.96192479 0.62058544 38.86476898
0.20323330 -0.12374350 39.79409790
1.78006673 0.25339416 39.10354996
1.41177869 -1.03042889 41.20594025
-0.22744191 0.36941248 40.92761993
1.01513195 -1.20023024 41.19361496
1.51398957 2.11940956 39.82096863
0.15722716 -0.20258504 40.59879684
0.89423728 -0.63289577 41.38826370
2.23530912 2.08616161 39.37769318
0.36005068 0.48183900 41.19122696
0.20509338 -0.79008174 40.76094055
2.61842299 0.87381053 39.84214401
-0.23901629 1.76864123 40.02960587
-0.13328230 1.10210574 41.89775848
1.18749571 1.30292857 41.84206009
1.24364781 -0.32693678 41.36841965
2.08569574 0.31058413 40.94124603
1.24734175 -1.66808259 39.69706726
1.26409602 1.06264400 41.84894562
2.44219327 0.24502125 40.35906601
1.51875114 1.52748883 39.24387360
0.47410345 2.04559374 39.16524887
0.67700213 -0.03444972 39.19782257
0.64034468 0.50787175 41.59174347
2.26024270 2.01862192 38.92886353
-0.31781459 1.08090305 41.79402542
0.04539192 1.60740852 41.92953873
1.00082493 -2.28226042 40.57709122
1.02745843 -0.85343599 40.04110718
0.32417607 0.85937393 38.73057175
0.71554404 -1.42464185 41.10605621
2.35667658 2.18930912 40.01093674
-0.21281457 0.98565936 41.47984314
2.11493516 0.62729669 41.84577179
1.47776532 -0.95371640 41.33254623
-0.36273146 2.02262640 40.59871292
1.84866416 -0.12812710 41.16465378
0.31183571 -0.15648359 39.28737640
2.04438353 -0.43388841 38.93017578
1.79433084 0.25192034 39.55807877
2.40230751 0.61162919 41.70608902
1.71134043 -1.71805394 40.46185684
