0.03596529 0.23460418 -0.01749172
-0.03020769 0.18930712 -0.02378832
0.03335863 0.19307896 -0.02629255
-0.02233262 0.07728280 -0.03285924
0.02635002 0.18163121 -0.00794031
-0.02093295 0.18163104 -0.01175485
0.00450132 0.17121640 0.00890111
-0.00516266 0.11479212 -0.03508072
-0.02460395 0.16304950 -0.01485794
-0.02605855 0.20941631 -0.02363872
0.00022975 0.12069998 0.00554977
0.00145294 0.05972888 -0.02425625
0.01002920 0.05612960 0.03231932
-0.02543832 0.12352679 -0.01199722
-0.00837225 0.19022572 -0.00028481
0.02072315 0.09255666 -0.02618744
-0.01030696 0.16370079 -0.02856406
-0.03062173 0.07789133 -0.00635716
0.02809276 0.20590772 -0.03198802
-0.02264227 0.14609449 0.00665558
0.00466314 0.07874310 -0.02643042
0.01787989 0.15438077 -0.02207661
0.01392533 0.10556424 -0.00458466
-0.02577951 0.16940431 -0.01702974
0.02129969 0.17358489 -0.02073127
-0.02875264 0.05661824 -0.02505977
-0.00255039 0.06217639 -0.01288935
0.02479188 0.16882291 -0.02709346
0.01392224 0.24460387 -0.02414808
-0.00414563 0.14124261 -0.03459523
0.02377090 0.13260701 -0.00014579
0.02104248 0.12097192 0.00089160
0.00299175 0.06215703 0.01152571
-0.00443241 0.17357928 0.01293285
-0.01772349 0.08074206 0.00382934
-0.02392298 0.12882581 0.00370998
0.00102166 0.24784723 -0.01301621
-0.03243933 0.14320947 -0.00464774
0.00599638 0.22385043 -0.00317038
0.01034854 0.20089340 0.00345982
-0.01038304 0.21187422 -0.00135494
-0.02985939 0.08621460 -0.01738064
0.02184956 0.24713251 -0.01704027
-0.00611750 0.21721518 -0.01102620
-0.00062324 0.07322449 -0.03205249
0.02645514 0.14387918 -0.02764614
0.01594469 0.21353374 -0.01478126
0.02134475 0.13189758 -0.00248618
0.01392277 0.05795728 0.03095102
-0.02727667 0.12925290 -0.00536837
0.00609839 0.23011145 -0.01818258
-0.02232424 0.23879147 -0.02335256
-0.02532019 0.15370816 -0.00501995
-0.01377508 0.17293361 0.00930783
0.03282841 0.06935591 -0.00186955
-0.01624283 0.16748984 -0.01474391
-0.01076854 0.07715758 0.01384700
0.01751065 0.24415909 -0.01997579
0.03360710 0.06630435 0.01277208
-0.03556344 0.08255447 0.00963737
-0.02267994 0.18487519 -0.02453321
-0.01265746 0.06081659 -0.00962787
0.01821632 0.08104401 -0.03580083
-0.02263053 0.23444535 -0.01970871
0.03034591 0.13559417 -0.00804443
-0.00930792 0.06238223 0.01886500
-0.01609014 0.24574721 -0.01780519
0.02404323 0.08121096 -0.01371561
0.00460587 0.12795575 0.00460819
0.02609047 0.23423761 -0.02093711
-0.02090693 0.11398317 -0.02869538
-0.02855522 0.08056286 -0.02579489
-0.02771248 0.08313192 -0.03126936
-0.00569439 0.20831825 -0.03077915
0.02197585 0.13177574 -0.02896737
-0.02630845 0.20179173 -0.03279554
-0.03326781 0.14468293 -0.01218576
-0.01019693 0.14387402 0.01539751
0.00931211 0.09169714 -0.02145482
-0.00829752 0.06343066 0.00267451
-0.02955727 0.07670908 -0.00362156
0.01130004 0.24080515 -0.02493085
0.00591728 0.14381967 0.01516896
-0.02554902 0.20508307 -0.01293866
0.03094330 0.14728965 -0.01147258
-0.03436338 0.09693596 -0.00205891
0.01975763 0.13173321 -0.00299381
-0.01308859 0.09255812 -0.00976994
-0.03395592 0.05961732 -0.03041672
0.01009537 0.12685111 0.00499968
-0.01527143 0.10219349 0.00258729
-0.02229657 0.22609238 -0.01647251
-0.00834021 0.12641236 0.00805786
0.02030233 0.16635206 0.00297755
0.00162880 0.06359115 0.00153523
-0.01248842 0.07909090 -0.00972103
0.02002442 0.18901981 -0.02945041
-0.03079263 0.17629084 -0.01995807
-0.02082114 0.08130149 -0.03303790
-0.02102032 0.13674708 0.00847375
0.01259596 0.21414079 -0.02936232
-0.02800613 0.17870502 -0.02337300
0.03181271 0.24557710 -0.01531704
0.01307209 0.07511225 0.02493110
-0.00964922 0.07984579 -0.01539192
-0.02017892 0.16072004 -0.02672300
0.01045705 0.09630101 -0.01406389
0.01365161 0.07932413 0.01619311
0.03221164 0.18440846 -0.00594942
-0.00756272 0.15064548 0.02085461
0.01092309 0.11293156 -0.00021334
-0.00851100 0.07837484 -0.02973237
0.01958116 0.05991810 0.00377555
-0.00441942 0.08234896 -0.03565219
-0.00883398 0.21183471 -0.00145038
0.02429389 0.05502862 0.00297573
-0.00681992 0.20326161 -0.03052988
-0.00512291 0.14336585 0.01623302
-0.01699624 0.08626723 -0.01329503
0.01381920 0.17731626 -0.02975624
0.02325835 0.07472995 -0.02843317
-0.00512244 0.06113867 -0.01488362
-0.03028008 0.05626995 0.01965221
-0.04078740 0.08769247 -0.00912087
0.02059620 0.16834883 0.00533191
0.01067321 0.16521508 0.01096624
0.02570596 0.05461175 -0.00779397
-0.01023949 0.14324372 -0.03407389
0.02489180 0.09844010 -0.02682033
-0.00830977 0.17595288 0.01256620
-0.01149760 0.18762061 0.00520003
0.00431491 0.11555420 0.00312007
-0.01542487 0.08016159 0.01145300
-0.02276449 0.06996546 -0.04158752
0.01447715 0.08331247 -0.00402961
0.00374385 0.15903631 -0.02882478
0.02799132 0.06024408 -0.02780173
0.03552826 0.07077912 -0.00136640
0.00382058 0.09483902 -0.00757555
-0.02270958 0.16974591 -0.01721907
0.00318905 0.13227601 -0.03436440
-0.01546447 0.11910847 0.00210218
-0.01190076 0.20057681 -0.00468560
-0.01201830 0.08039865 0.02937856
-0.00876742 0.14002234 -0.03089100
0.02232146 0.10681678 -0.02441141
0.01423453 0.05820400 0.01392143
0.02922437 0.17594856 -0.02349018
0.02163194 0.24085389 -0.02269682
0.00455626 0.13086034 -0.03419928
0.00221765 0.20644659 -0.02438825
-0.03188846 0.06208357 0.00090718
-0.00893449 0.11959112 -0.03356782
0.03243116 0.23497465 -0.03115697
-0.00923347 0.09375270 -0.01534656
-0.02513079 0.20670298 -0.02333944
-0.00660393 0.11809199 0.00750710
-0.03120393 0.08026224 -0.02343975
-0.01673986 0.13947712 0.00769637
0.02206385 0.10272597 -0.02658333
0.02684995 0.19628772 -0.00627382
-0.01006737 0.20573807 -0.03246707
0.00620214 0.13324244 0.00659267
-0.01381996 0.07405263 0.02714196
-0.01852669 0.06588107 -0.04677372
-0.02027250 0.14899486 0.00537981
-0.01709031 0.11173992 0.00467719
-0.03861908 0.08901250 -0.01849900
0.00426275 0.12937950 0.00849654
0.02712802 0.17339197 -0.01748160
0.00065679 0.17244327 0.01451781
0.01163911 0.19401948 -0.00293824
-0.00203751 0.05966467 0.03395218
0.03135038 0.14459276 -0.01832353
0.02647266 0.14253065 -0.01010795
-0.01609802 0.05874137 0.02321381
-0.02313767 0.12878698 -0.02297742
0.02769137 0.17175534 -0.02531076
0.02668631 0.16448824 -0.01938654
-0.04494948 0.06864066 -0.00607238
-0.00147651 0.08897671 -0.01082174
-0.02257022 0.11441907 0.00212990
0.01258481 0.05845743 0.00330321
-0.02864782 0.13593584 0.00517521
-0.00217654 0.06024692 -0.00262269
-0.02645763 0.06604625 -0.03993940
-0.02122023 0.18152446 -0.00482853
-0.00826856 0.10895606 0.00603077
-0.01098639 0.06564575 0.01210644
0.03343122 0.20080668 -0.00918581
-0.04460207 0.06674649 0.00367507
-0.03817967 0.11784653 -0.01463012
0.02620913 0.14621432 0.00790574
-0.02527729 0.08574556 -0.00997078
0.01139268 0.16034013 0.02215914
0.02516334 0.12353116 -0.01567559
-0.01537784 0.08739727 -0.00490867
0.00147531 0.08304767 -0.01498970
0.01738213 0.20362709 -0.00076588
-0.01245184 0.06887683 0.03571079
-0.03599725 0.13679755 -0.01813272
-0.02983334 0.23919980 -0.02010980
-0.03103912 0.13068055 -0.02182258
-0.02795805 0.18346994 -0.01974095
-0.00811789 0.24225153 -0.01917392
0.01563990 0.21114831 -0.02574066
0.01170341 0.08085694 0.00786054
-0.00277709 0.12237933 -0.03678696
-0.03303348 0.11886492 -0.02736356
0.00535085 0.12606199 0.01019383
0.00098356 0.10577778 0.00067217
-0.01116621 0.21426210 -0.03084973
-0.01525281 0.21815270 -0.03256746
-0.01812801 0.10925278 -0.03369340
0.01406468 0.12864006 0.00832964
0.02238816 0.08326897 0.01576405
-0.02657310 0.18729693 -0.02434352
-0.00251093 0.17202458 0.02249941
-0.03384969 0.13753735 -0.00408647
-0.02753812 0.13697428 -0.01992409
-0.03015596 0.07043109 0.01984210
-0.02082514 0.12474661 -0.00034282
-0.00553314 0.06413031 -0.00354472
0.01483650 0.18080649 -0.02643987
-0.00917835 0.08969688 -0.01188180
0.03415971 0.05898600 -0.00263778
0.00747559 0.16767691 0.01318682
0.00535220 0.15869723 0.02188559
0.02467453 0.11138390 -0.01451191
0.01908129 0.20272444 -0.00626026
-0.03121430 0.11346160 -0.00911933
0.00781083 0.10416438 0.00374239
-0.03017000 0.10892498 -0.03157173
0.00277373 0.11325254 0.00911915
-0.00589402 0.13905947 0.01263460
-0.00406191 0.09280157 -0.02539986
-0.02700663 0.12314317 -0.00528335
0.03159770 0.22492890 -0.01657438
-0.03592820 0.11059979 -0.01343891
-0.01941423 0.06721936 0.03572310
-0.01921066 0.14570111 0.00230550
0.01486187 0.09592135 -0.02666511
0.02347136 0.17192692 -0.00910891
0.00107136 0.12623854 0.00632570
-0.04091542 0.05081446 0.01743136
-0.00276400 0.05994403 -0.02297161
-0.01442767 0.06214684 -0.00348792
-0.02254684 0.06194025 -0.00790025
-0.01678686 0.12240511 0.01187391
-0.01346354 0.23992160 -0.01146823
-0.01434391 0.05871578 -0.00069852
0.02327924 0.13240093 -0.00666391
0.00896195 0.11446894 0.00680437
0.00523735 0.19326590 -0.03447382
0.01093337 0.11399135 -0.03058492
0.01416147 0.09624764 -0.02035980
0.00016005 0.20456998 0.01112817
-0.01477412 0.11683792 -0.02636021
0.02539883 0.18013871 -0.02435743
0.02720106 0.24205866 -0.02747584
-0.01299529 0.10461461 0.00028551
-0.00405824 0.24271783 -0.01214656
0.01820290 0.06279847 -0.03867026
0.03044084 0.19452788 -0.02928822
0.02561240 0.15675431 -0.01940652
-0.01597472 0.09557705 -0.00125313
0.02657608 0.16697837 -0.02709644
-0.01294442 0.20768838 -0.00558618
-0.00320942 0.19153064 -0.02892175
-0.01746866 0.15506560 -0.02581562
-0.02101457 0.16101970 -0.02078552
0.00399308 0.22238433 0.00075450
0.03179207 0.16338019 -0.00258788
-0.00586298 0.05046643 -0.03386676
-0.02948697 0.21361881 -0.01917621
0.03155889 0.05636471 0.00990910
0.03164551 0.05492670 0.01183547
-0.02984944 0.07769680 0.01713713
0.01194541 0.07601567 0.02786889
-0.00893265 0.06204233 0.01948013
0.02790396 0.14357905 0.00674502
0.01427520 0.05986954 0.02503612
0.01846458 0.11482880 -0.02458693
-0.01323313 0.20374916 -0.03075177
0.00094600 0.21945789 -0.01914075
-0.00995632 0.12714444 -0.03386481
-0.02446460 0.06514461 -0.04118676
0.02722765 0.13264820 -0.01393104
-0.02575392 0.15712233 -0.00811768
-0.01616279 0.18243079 -0.02133384
0.01916710 0.05944297 -0.03809717
-0.00167911 0.09445796 -0.00445026
-0.02330755 0.18037120 -0.02034247
0.00715758 0.11314823 0.00625870
-0.02779589 0.16873385 -0.02356109
0.00803815 0.10220087 -0.00152729
-0.03589816 0.07566570 0.00522235
-0.02439548 0.14440337 0.00045186
-0.01079148 0.22327842 -0.02769205
-0.02314685 0.18046136 -0.02960309
0.03519674 0.19495592 -0.01214584
-0.02126364 0.20798150 -0.01743195
-0.01430767 0.06540945 -0.03520755
0.02269151 0.05571277 -0.02333840
-0.02953074 0.08160253 -0.02957567
-0.00438840 0.07706662 -0.00624821
0.01588685 0.09609418 -0.00771571
0.00238944 0.06459980 -0.01312117
-0.01696802 0.11724988 -0.00344078
0.03287326 0.17239681 0.00107600
-0.02061074 0.23848525 -0.01478710
-0.02378651 0.05702052 -0.03895058
-0.03022941 0.12902640 -0.02214878
0.02803861 0.07178029 -0.02724101
-0.00158218 0.17357257 -0.02790918
0.00908947 0.20841226 0.00775081
0.02367724 0.07083505 0.02353733
-0.02851236 0.10148693 -0.01578206
-0.03169295 0.05686889 0.00831626
-0.00452269 0.07744991 -0.04363009
0.02979592 0.19123322 -0.01078320
0.01774195 0.09169981 -0.02994741
0.01053438 0.17033599 0.01675467
0.00656757 0.21754247 -0.02145138
0.02707472 0.07064395 0.01778105
0.01109062 0.06013536 0.02899864
0.02863586 0.23403434 -0.02863728
0.02977115 0.05458716 -0.00654325
0.01857349 0.24160177 -0.01619149
-0.01196818 0.09741321 -0.00594850
0.01561908 0.08215038 0.01845960
0.03407452 0.18085475 -0.02777920
-0.01103205 0.07984931 0.01210737
0.01634179 0.09587754 -0.02522569
0.00986422 0.22146834 0.00660008
0.02777190 0.24414031 -0.02203052
0.02276596 0.07868612 0.00609000
0.02548355 0.17636372 -0.01068054
-0.00102951 0.07991563 -0.03000182
-0.01959250 0.09177555 -0.03265168
-0.01705120 0.05136851 -0.03642358
-0.00863016 0.19512022 0.00965969
0.03540304 0.20277946 -0.02717583
0.00831293 0.05524791 0.01359588
0.03014600 0.06757437 0.00827528
0.00623122 0.11730547 -0.03693222
-0.00498863 0.06770030 -0.04685387
0.00230243 0.18136892 -0.03106417
0.01374755 0.17740987 -0.02833868
0.01146983 0.07685580 -0.01816143
-0.01846405 0.15144438 0.01668931
-0.03388717 0.08417792 -0.01021761
-0.01240859 0.09598184 0.00108662
0.03380466 0.04846527 -0.00117283
-0.03271983 0.10502778 -0.00223831
-0.02616276 0.07709785 0.02281757
0.00426385 0.07700607 0.00407473
-0.01698066 0.18515968 -0.00402458
0.00559543 0.21568117 0.00851830
0.03304231 0.21880510 -0.01593690
-0.02708659 0.16799986 -0.02437969
0.00378600 0.12614775 0.01269313
0.00125048 0.08001797 0.01698894
-0.02096170 0.08015198 -0.03154185
-0.00400891 0.06164360 0.03284609
-0.02117087 0.05826923 -0.04223503
-0.01621295 0.09872810 -0.03273030
0.02845605 0.12859625 -0.00904854
-0.03253551 0.09856953 -0.02005534
0.00390327 0.05830336 -0.02086096
-0.00298061 0.13555382 0.01908292
0.01792156 0.13448045 0.00479563
0.01644504 0.24442664 -0.02146401
0.03395019 0.17004891 -0.01462823
-0.00716166 0.06019150 0.03985304
-0.01516323 0.21336815 -0.02801198
-0.02186045 0.22329006 -0.03091024
0.02268855 0.07427297 -0.02915765
0.02568916 0.07979430 0.01557618
0.03531019 0.21903771 -0.02614418
0.02690133 0.06692605 0.01982897
-0.00348870 0.08531665 -0.02587325
-0.02543382 0.06113252 -0.03552724
-0.03069381 0.08093870 0.01948480
0.01084884 0.10051691 -0.01251466
0.02665732 0.06860996 -0.03058550
0.02514401 0.18297261 -0.02861593
0.02244923 0.07552740 -0.01841673
0.01835131 0.05804919 -0.03702526
0.00895565 0.06146686 0.01057824
0.03009439 0.17772105 -0.01293329
-0.04373067 0.05079009 0.00971441
0.00577785 0.17640676 -0.03164618
-0.01355271 0.18031517 0.00516773
-0.01882355 0.06565826 -0.04333870
-0.02359413 0.06294650 0.01952026
-0.03105549 0.13508426 -0.02274155
0.00501513 0.17530511 -0.02920010
-0.02183207 0.18849947 -0.03343133
0.01586854 0.10757348 -0.00478515
-0.04488838 0.06336701 0.00012933
-0.02838667 0.11025551 -0.00466753
0.00395599 0.05313974 0.02561620
-0.03867262 0.06021667 -0.01197800
0.02737035 0.19349428 -0.00804428
0.03211100 0.16915283 -0.00985292
-0.01760877 0.07704180 0.02909184
-0.01587426 0.07086274 -0.04708719
0.02984431 0.19499841 -0.00784948
-0.03017097 0.23218527 -0.02852415
-0.02101489 0.05688861 0.02741701
0.02342319 0.09642726 -0.02150749
-0.04847511 0.07075804 -0.01433118
0.01643607 0.10253730 -0.02759726
-0.00358569 0.09160774 -0.02815275
-0.02424821 0.15557469 0.00986946
-0.03176147 0.08022886 0.01117910
-0.02819883 0.22749087 -0.03147390
0.02721773 0.18444036 -0.00844343
-0.00663513 0.09667574 0.00501283
-0.01460521 0.06230190 0.02983858
-0.03463980 0.07823101 -0.00124914
-0.02032173 0.08985467 -0.00248628
-0.03275118 0.07822532 -0.02658466
-0.02627887 0.14142831 -0.02637167
0.00628715 0.12605479 0.00666449
-0.00526817 0.11896609 -0.03237669
-0.03624729 0.05530359 -0.01498167
0.00928166 0.13747121 -0.03697109
-0.00980259 0.24358723 -0.02019168
0.00898301 0.10672621 -0.03006340
0.03554910 0.06953304 -0.00778589
0.03082427 0.18299918 -0.02229164
-0.00016687 0.07875539 0.00156159
-0.02575892 0.06034245 -0.03942640
0.00245793 0.17049357 0.01843054
0.02545732 0.20153506 -0.00698568
-0.00885265 0.16085450 0.01985769
-0.00757605 0.21270916 -0.01489095
-0.03546935 0.15430993 -0.01982524
0.01650551 0.05536909 -0.03291246
0.00810659 0.15091659 -0.03643278
0.02199586 0.24169639 -0.02302504
0.02294106 0.08146926 0.01631591
-0.03360934 0.08771986 -0.01157735
0.02899558 0.18463272 -0.00545428
-0.03571079 0.05254685 0.01732312
-0.01697660 0.16137685 -0.00630744
0.01216783 0.16210628 0.01725292
0.02859319 0.07914356 -0.00677665
0.02650942 0.19414859 -0.00803165
0.02405141 0.24026866 -0.02207293
-0.03961127 0.07852635 -0.01208301
0.00286239 0.11984864 -0.03388302
-0.01019158 0.24860469 -0.01610424
-0.02098300 0.21753907 -0.01298081
-0.01052012 0.14903152 0.02113542
0.02679554 0.13749832 0.00516357
0.01029518 0.10775293 -0.03123712
0.00930732 0.13282922 0.01241114
-0.02961765 0.14461392 -0.01817317
0.02430908 0.09386879 -0.02286033
0.01821880 0.17473312 0.00663001
0.03344619 0.06520199 -0.00554873
-0.01613544 0.06217796 0.02859718
-0.03319705 0.13852367 -0.00960894
0.01948863 0.17070720 0.00713869
-0.04027568 0.08927130 -0.00710733
-0.01332396 0.09919885 -0.00100946
0.00085731 0.10881393 -0.03155561
0.00983986 0.09884962 -0.00100253
0.01277274 0.10805880 -0.00205906
-0.02839584 0.13131823 -0.01842069
-0.01538919 0.17331357 0.00526993
0.01174871 0.09671618 -0.02826014
0.02745418 0.17172122 -0.02639037
-0.03544167 0.06097566 -0.00760319
-0.03104400 0.19387561 -0.02728178
-0.03220224 0.12104881 -0.01708765
-0.00725464 0.13655451 -0.03485541
0.01047414 0.11454669 -0.00251077
-0.01396701 0.05674645 -0.04555175
0.01123825 0.14964388 0.01549362
-0.01620945 0.14357051 -0.03057729
0.02584715 0.18382505 -0.00452253
0.01372077 0.11479449 -0.00747366
-0.00562103 0.13344626 0.00935216
-0.01182270 0.24704221 -0.01956051
0.03185041 0.18018064 -0.02312134
0.00468567 0.21014728 -0.02243520
0.00209570 0.05902365 0.01902379
0.00391038 0.18215488 0.00931751
-0.03499086 0.14351116 -0.02217910
0.02758666 0.05076963 -0.00204602
-0.02612911 0.08762300 -0.00809314
-0.01499300 0.05912174 0.00264795
0.00749381 0.06170631 -0.00703901
0.01141280 0.21931989 0.00691824
-0.03028855 0.12589337 -0.02266602
-0.01096240 0.06110642 -0.02048441
-0.00554281 0.06135439 -0.00651082
0.02199309 0.13077280 0.00415600
0.01670451 0.07504435 -0.03551136
-0.02094396 0.14905523 -0.00098002
0.00617815 0.14799367 -0.03399815
-0.02389198 0.07767150 -0.03121837
-0.03435010 0.08364724 0.01182268
-0.00193243 0.06011054 -0.00604410
-0.01353277 0.08690706 -0.01342082
0.00913883 0.15864366 -0.03264318
0.03162527 0.18841243 -0.00971070
0.02151015 0.11767570 -0.00676214
-0.00729858 0.20156901 0.00950895
-0.02576712 0.16100480 -0.00965870
-0.01885760 0.09064794 -0.01074480
0.00732002 0.19800249 -0.03359880
0.00942670 0.07856160 0.02343324
0.01822960 0.14922854 -0.02782157
0.00827405 0.20571831 -0.02323864
-0.02425311 0.10012877 -0.00547442
-0.00340697 0.06259985 0.00974856
0.03509737 0.18854353 -0.01007776
0.01752384 0.06561730 0.00353079
-0.03867505 0.07686110 0.01013713
-0.03028625 0.05884955 -0.02878661
0.01253320 0.22068423 -0.00567647
-0.01873112 0.07686709 0.02745452
-0.03338528 0.07807177 -0.01410268
0.00180079 0.05917655 -0.00601374
0.00913386 0.05868677 0.01593173
0.00341542 0.18527807 -0.03243650
0.01281376 0.11669355 -0.02874634
0.01731001 0.18477866 -0.00231458
-0.02910772 0.07783555 -0.01785678
-0.00818730 0.17599781 0.00788700
-0.01221015 0.17775276 0.00686826
0.03324573 0.17134027 -0.02704080
-0.03039742 0.13635097 -0.00750276
0.00471623 0.10806327 0.00322538
-0.00204341 0.17935088 -0.02774809
-0.03236988 0.14077596 -0.00484705
0.00439472 0.11413850 0.00908230
-0.00474357 0.18137024 -0.02538691
-0.02920322 0.21831238 -0.01666907
0.01279714 0.05781659 0.01861342
-0.01968514 0.17419985 -0.00924084
-0.03315426 0.12972882 -0.00588046
0.00526474 0.20202005 -0.02761004
0.02996034 0.05308037 -0.00154745
0.03721021 0.18510216 0.00035669
-0.02060180 0.19395618 -0.03185328
-0.01324240 0.13025075 -0.03332720
0.00112778 0.05928312 -0.03543167
0.03090043 0.10118896 -0.01579102
-0.02926084 0.18604746 -0.02155808
-0.02873716 0.07852623 -0.01165295
-0.00129121 0.05947491 0.03214034
-0.03098213 0.10442303 -0.02482323
-0.01936119 0.07846262 0.02292114
-0.01189199 0.07311895 0.03068427
0.00591026 0.07739486 0.01130893
-0.02380941 0.16479789 -0.02435741
0.01594078 0.15992031 0.01478287
0.00960258 0.09321734 -0.01177236
-0.03298336 0.11598940 -0.02804712
0.02520751 0.15674528 -0.02783980
-0.02755014 0.14189720 -0.00435304
-0.00646919 0.07960687 0.02999013
-0.02627712 0.06024843 0.01182023
0.02897037 0.17866094 -0.03015707
-0.00097345 0.09462080 -0.00869079
0.00627964 0.17976844 -0.03152325
0.01185606 0.09214509 -0.02746109
-0.04232568 0.06673271 -0.00854618
0.03046833 0.05192321 -0.01003605
-0.01351575 0.09363110 -0.00653602
0.00496087 0.12125850 0.00923797
-0.00654921 0.24299705 -0.02344213
0.00839004 0.05825542 0.00100661
-0.00287868 0.07334749 0.02946176
-0.03343534 0.08672823 -0.01666382
0.02721558 0.13111155 -0.01233217
0.01183526 0.08239283 0.00311532
0.03160043 0.21122734 -0.02163192
-0.01802267 0.19643089 -0.02707922
0.01741045 0.06423704 -0.00474538
-0.03894456 0.06911519 0.01378127
-0.01264765 0.04977095 -0.03834198
0.01720314 0.07359616 0.01857944
-0.00180383 0.09410560 -0.03387235
0.02459236 0.17924087 -0.01919188
0.03437190 0.23369789 -0.02165498
-0.02608033 0.18867457 -0.02548053
-0.00060819 0.14842878 0.01658360
-0.04152756 0.05714487 0.00394785
0.03099963 0.07505947 -0.01041183
0.02820262 0.07541341 -0.00239044
0.01159479 0.24172220 -0.02215675
-0.00707712 0.18597123 -0.00201422
0.03157578 0.05699471 0.01641713
-0.00965286 0.19815682 -0.00319477
-0.01987477 0.21589884 -0.03323939
0.01454142 0.13224730 -0.03007399
-0.00640421 0.10673373 0.00345420
0.00174397 0.14613676 -0.03906532
0.02935260 0.17786323 -0.02784453
-0.03998788 0.07198789 -0.02180326
-0.00771088 0.09232464 -0.03193506
-0.00527959 0.09499837 0.00398603
-0.01945729 0.05228375 -0.03615938
0.02545732 0.18384734 -0.00296661
0.02490342 0.08221313 0.00661604
-0.02259322 0.21338522 -0.02990448
0.02674468 0.13605867 -0.02631919
0.00581102 0.09215856 -0.01564404
0.03418194 0.23853110 -0.02323806
0.00007514 0.07799217 -0.01981698
0.00597452 0.22741877 -0.01980538
0.01539394 0.13629791 -0.03500857
0.03195787 0.15564762 -0.01086764
-0.00140782 0.13874716 -0.03842095
0.01248599 0.06239134 0.01456966
0.01065676 0.21938363 0.01200702
0.00037769 0.06195826 -0.04490814
0.01028641 0.10846625 -0.02880889
0.00609039 0.13353828 0.01430349
0.01883610 0.20706920 -0.01060547
0.01865084 0.16925335 0.01240011
0.02834711 0.16453485 -0.00318030
-0.01138246 0.18246837 0.00407659
-0.00154698 0.23596624 -0.01762151
0.00446385 0.23978247 -0.00757153
0.00239376 0.06192219 -0.04255685
-0.00280661 0.06186610 0.01032033
-0.00346098 0.07698238 -0.02345737
0.02534053 0.09745790 -0.02305086
0.00584665 0.18275250 -0.03119236
0.03004981 0.17524582 -0.01111000
0.01211255 0.11867318 -0.03281681
-0.02794887 0.22372682 -0.02140490
0.01252197 0.09687100 -0.02843649
0.00297488 0.18332462 -0.03092603
0.00606157 0.06217230 -0.00190777
-0.02379436 0.05926033 -0.04504264
0.02145376 0.05331657 0.01161854
0.03211898 0.16133636 -0.02809194
0.02889897 0.19227102 -0.00642241
0.00780382 0.13628028 0.01877179
0.03175635 0.17450418 -0.02653012
-0.00348367 0.20842239 -0.01202091
-0.01471137 0.07776251 0.02893647
-0.04222450 0.06209952 -0.02479579
0.00799280 0.16521293 0.01719475
-0.02066636 0.17126104 -0.00785859
-0.00489701 0.09968600 0.00446811
0.03087761 0.16138963 -0.00351608
-0.02923430 0.07655532 -0.03333461
-0.01982053 0.08620825 -0.03375958
-0.03011499 0.19136135 -0.02395145
-0.02008542 0.24608281 -0.01622360
-0.00735030 0.09373166 0.00494166
-0.00599429 0.17135945 -0.02493990
0.03221605 0.15383260 0.00345502
0.03022535 0.22675186 -0.00776163
0.02428737 0.24277775 -0.01605020
0.03107318 0.21896209 -0.01388358
0.03211092 0.07713831 -0.00720085
-0.02221739 0.19299673 -0.02874731
-0.00249438 0.24012619 -0.02761325
0.02663027 0.07854191 -0.01444932
0.03511997 0.20999828 -0.02490498
-0.00497785 0.19295248 0.00459318
0.02151502 0.15278597 0.01102467
0.03047857 0.19915837 -0.02140415
0.01636926 0.08031803 -0.02037542
-0.00301362 0.20897111 0.01303097
0.01183581 0.09853980 -0.02923857
0.00569495 0.13539959 0.01648677
0.01566249 0.24086782 -0.01753608
-0.02276661 0.23718277 -0.02272885
0.01804825 0.21859187 -0.00801619
-0.03353593 0.11717705 -0.02325074
0.01337840 0.16247168 0.01208117
0.02618306 0.14419396 0.00183280
0.01696052 0.24185723 -0.01381336
0.00534449 0.13353620 0.01395980
0.02594631 0.07592389 0.02058546
-0.02520756 0.05802117 -0.00608027
0.03426411 0.20204327 -0.01742563
-0.02342191 0.07868987 -0.03331121
0.03223235 0.24109605 -0.02411869
-0.02940607 0.13389590 -0.01367423
-0.00927331 0.05976485 -0.03142111
-0.02935253 0.15534955 -0.02248126
-0.02706952 0.23613673 -0.02978976
-0.03009265 0.15586586 -0.02355078
0.00091645 0.22222298 -0.01708951
0.02249833 0.16302063 -0.02272057
-0.01658672 0.12902537 -0.03134231
-0.02892376 0.10250723 -0.03036428
-0.01444685 0.08487960 -0.01990107
-0.01205003 0.08888876 -0.00924208
0.00838976 0.10428895 -0.00344533
-0.03038576 0.18766302 -0.02674406
-0.00554613 0.13758460 0.01657207
-0.00185220 0.19989613 0.00785866
-0.01730163 0.09145973 -0.03623596
-0.01386622 0.07932297 -0.02481497
-0.02440822 0.15765060 0.00792439
-0.00263371 0.23610587 -0.02220263
-0.00493973 0.05618870 0.02364824
-0.01420561 0.16292410 0.01595385
0.01581762 0.11444013 -0.03012256
0.02535940 0.10478261 -0.01776255
-0.01683069 0.12016787 0.00579629
0.00443030 0.08192602 0.00697801
-0.03507546 0.11688665 -0.02112870
0.01024711 0.14539728 0.02315810
0.02245836 0.24006002 -0.02323365
0.01227986 0.20570406 0.00366532
-0.00351485 0.21727489 -0.00222544
0.02048890 0.11505363 -0.02861748
-0.01231074 0.19368821 -0.02831440
0.02448987 0.05503026 0.01354836
0.03017188 0.16260485 -0.00466953
-0.00497893 0.09463503 -0.00342546
-0.03399779 0.08015309 -0.02125833
0.02747742 0.15289882 -0.02845786
-0.02230222 0.07645407 0.02306681
0.02063851 0.24582765 -0.02846084
0.01513899 0.08180332 -0.00528646
-0.00251358 0.05872309 -0.03292732
-0.01864512 0.11813226 -0.03125665
-0.01421077 0.15815389 -0.03165241
0.00377390 0.07886158 0.01337492
0.00231360 0.14796124 0.01987878
0.02424060 0.22376952 -0.02259356
-0.03061015 0.09153637 -0.00715008
0.02400513 0.07621280 0.00954093
-0.01039947 0.05512907 -0.03561787
-0.02512296 0.14150433 -0.00285292
0.02556419 0.18758923 -0.00531785
0.00267003 0.06339636 -0.02128597
0.01893828 0.21930420 -0.01630275
0.00340416 0.07637635 0.00723670
0.00519559 0.19699946 0.00866525
0.03073527 0.14574133 -0.02641202
0.01075155 0.19132574 -0.02982728
-0.01199394 0.13312295 -0.03576582
0.01057995 0.17643176 0.00958784
-0.00034116 0.20472065 -0.02217361
-0.01665767 0.06221763 -0.01092575
-0.01789154 0.06961726 -0.04329567
-0.01580926 0.15146466 0.01232063
0.02719277 0.16533275 -0.02349033
0.02076044 0.05311384 0.01083365
-0.02309993 0.16227376 -0.00983348
0.00903835 0.05559193 0.02312028
0.00936936 0.14304060 -0.03756381
-0.01119440 0.11263739 0.00793200
-0.02881867 0.23906790 -0.02083360
0.02442529 0.06001966 0.01790538
-0.02673483 0.10408375 0.00023517
0.02715366 0.12741055 -0.00850636
0.02034427 0.24274319 -0.02168569
0.01561243 0.07671654 -0.01959794
-0.01273491 0.21349403 -0.01323872
0.03464440 0.23786315 -0.01456957
0.02801666 0.17975028 -0.00551242
-0.01850230 0.07998517 -0.04028547
0.00336312 0.08014920 -0.01219281
0.00781341 0.19018027 -0.03351623
-0.03130990 0.12039980 -0.00226166
0.00429127 0.08682413 -0.03349143
-0.00702055 0.05949280 0.01782993
-0.01166547 0.12241539 0.00693214
0.03038103 0.17636424 -0.01412839
0.01296741 0.09941140 -0.00172184
-0.01210922 0.10679533 0.00324803
0.01638229 0.15621310 0.01829611
0.01393735 0.24287468 -0.01775416
0.02711204 0.12570375 -0.01583334
0.02733994 0.12385420 -0.01822758
0.02388648 0.19104552 -0.00650461
-0.02453996 0.05977199 -0.02765645
0.01958738 0.09333235 -0.02854268
-0.00787415 0.07984713 -0.00537898
0.01421225 0.07845847 0.02018818
-0.01613989 0.06094993 -0.00203824
-0.02458292 0.12190011 0.00780050
-0.00304073 0.09066150 -0.00741657
0.03055899 0.07049093 -0.02141720
-0.02117802 0.14676777 -0.02467691
0.01896058 0.13062701 0.00019001
-0.01798242 0.08795252 -0.00171392
-0.01813747 0.05761982 -0.01348548
0.00019462 0.18776938 0.00646742
-0.00987953 0.21251842 -0.00800614
-0.00444354 0.21018153 -0.02723433
-0.01593922 0.07930609 -0.02336932
-0.02451058 0.08658682 -0.02365654
-0.00134106 0.24757881 -0.00936005
-0.00354430 0.21626909 0.00676670
-0.01715151 0.06128720 0.00238513
-0.01037139 0.07944309 -0.01859649
-0.03514203 0.08206648 0.01129799
0.00483668 0.09433540 -0.03656213
-0.03242262 0.12892832 -0.00739502
-0.00587370 0.20385653 -0.03312714
-0.02326915 0.06328144 0.00944489
-0.02177656 0.17535961 -0.02063633
0.00669529 0.09755838 -0.01402822
-0.00765886 0.07708991 -0.04722606
-0.01135869 0.20924154 0.00402937
0.01297546 0.13851905 0.01662774
-0.01441612 0.04980624 -0.04204310
-0.00959527 0.08981752 -0.01528019
0.01418165 0.08921781 -0.00936527
-0.02841392 0.14874080 -0.02431169
-0.03424787 0.11515952 -0.00712427
0.03163380 0.15665236 -0.00912290
0.00313625 0.24069750 -0.02530491
0.00202526 0.23972413 -0.01314596
-0.02525450 0.13992651 0.00699566
0.02574762 0.22461051 -0.01537275
0.02854612 0.10281233 -0.01339813
-0.02427575 0.07319935 0.02715919
-0.03564309 0.05835520 -0.01811485
0.01896750 0.24462108 -0.02268492
-0.01047088 0.08367994 -0.01238873
-0.00791981 0.14834934 -0.02995839
-0.00673260 0.07839441 0.00638670
-0.03416182 0.11087850 -0.01422247
0.03037455 0.18827234 -0.01674270
0.02296183 0.06761490 0.02325901
-0.03978467 0.06363712 -0.02559229
0.02838252 0.18268056 -0.02333503
0.01982343 0.12356500 -0.01014382
-0.00820641 0.06098199 0.03236019
0.03569774 0.06694963 -0.00623022
-0.02386744 0.06232889 -0.00342089
0.03418550 0.22150505 -0.00784149
0.03711713 0.18142338 -0.00864672
-0.02878829 0.05439916 -0.02486104
0.02223252 0.08592910 -0.00069498
-0.02237547 0.06594629 -0.00142327
0.02149724 0.21598215 -0.02795587
-0.00858561 0.06291234 -0.01428723
-0.01276188 0.17052409 -0.03485110
0.00853803 0.20536757 0.01063002
0.00999263 0.12010761 -0.03244951
0.00288319 0.15563802 0.01961820
-0.02901709 0.13055085 0.00375540
0.02750248 0.20891483 -0.02669884
-0.02081977 0.14686751 -0.03072229
0.02081066 0.13102351 0.00153143
0.01982117 0.05794480 -0.03592454
0.03302883 0.14984936 -0.01983448
-0.04250700 0.06465477 -0.02520993
0.00899948 0.06408488 -0.00809082
0.01287585 0.07605723 0.00352648
-0.00400406 0.07359455 0.03107248
0.02865368 0.17852473 -0.00808013
0.00186698 0.18861485 0.00136714
-0.01321791 0.13839287 0.01097387
0.01319356 0.10660295 -0.00111189
0.00527336 0.12149255 0.00500123
-0.01487189 0.16366966 -0.02413860
-0.02273717 0.22438452 -0.02890572
-0.00692805 0.12487252 0.00709520
0.00393411 0.18454377 -0.03471915
0.00646387 0.16352475 0.01987222
-0.02167978 0.23511171 -0.01783090
0.00647354 0.06076383 -0.00630952
-0.01499363 0.22149569 -0.01400407
-0.03364339 0.07011363 0.01764103
-0.01512604 0.18684463 -0.02440198
-0.00470843 0.16181733 0.02402597
0.03010339 0.23282960 -0.02619576
-0.01040709 0.18402109 -0.02928740
-0.01776313 0.15277576 -0.02997932
-0.01127619 0.21637651 -0.01052262
-0.03751427 0.07742158 -0.01379073
-0.04369815 0.06789467 -0.02490839
-0.02588688 0.07885775 -0.00731235
0.02740483 0.15633164 -0.01781037
-0.01625936 0.06034770 -0.03280929
-0.02418346 0.12467606 -0.00045419
-0.00259320 0.09197868 0.00293488
-0.01661424 0.05934834 0.02599966
0.02125618 0.08070169 -0.02923892
-0.01359352 0.08073251 -0.04202736
0.00954847 0.07791624 -0.03226298
0.02425796 0.07760087 0.01190667
0.02278034 0.05921414 -0.01229743
-0.01951717 0.08667588 -0.01138343
0.02255580 0.06047899 -0.00524034
-0.02418227 0.12150021 0.00178244
0.00849080 0.24086544 -0.01143776
0.01013057 0.20602688 -0.02286453
0.00476369 0.05939942 -0.02531251
0.02266844 0.21799946 -0.00834561
-0.03475250 0.05603795 0.00495521
-0.00475771 0.12258641 -0.03665933
0.03021072 0.06435093 0.01367763
-0.02976823 0.15837282 -0.02748562
-0.02286752 0.19545716 -0.01436334
-0.01626651 0.06214121 -0.01795744
-0.03193298 0.14581770 -0.02010319
0.01768107 0.14477029 -0.02720430
0.02426978 0.23069206 -0.01853177
-0.01207807 0.19502428 -0.02987507
0.00418160 0.20942588 -0.02212993
-0.00005194 0.09313352 -0.02697281
-0.00167494 0.05563683 -0.03621486
-0.02425536 0.17957933 -0.02848613
-0.03756247 0.07576073 0.01063613
-0.03929559 0.07033729 -0.01745157
-0.00470461 0.15681534 0.02099527
-0.02911992 0.24326162 -0.02555594
0.02092458 0.05633566 -0.02034594
-0.00678797 0.06327037 -0.00448277
-0.00799552 0.06388609 0.01253707
0.02419290 0.05155986 0.00101726
0.02995564 0.07011312 -0.01913242
-0.00830096 0.16766264 0.01615265
-0.01278984 0.06131698 -0.00669780
-0.01297537 0.11662658 0.00496970
-0.04240740 0.07136855 -0.02700580
-0.01330442 0.07997086 -0.02741366
-0.00413680 0.08235626 -0.01804071
-0.02343284 0.07647771 -0.03974845
-0.02502089 0.21165332 -0.03206696
0.01614775 0.20076980 0.00033728
0.02652202 0.17924646 -0.03170404
-0.00863283 0.15490656 -0.03243294
-0.01299359 0.05827602 0.01952064
0.01102486 0.06776660 0.03362636
-0.00874380 0.07847043 -0.00667233
0.02907317 0.16179036 -0.02445997
0.00740467 0.20977250 -0.02084658
0.00295854 0.22299677 -0.00443621
-0.01458317 0.16635714 -0.02164233
0.01699443 0.23812169 -0.01977436
-0.01162391 0.07029525 -0.04756765
-0.01398401 0.08093987 0.00476998
-0.02392315 0.20549786 -0.02871366
0.01755295 0.12522314 -0.00292915
0.02296731 0.05542590 -0.01243066
-0.01299205 0.05773439 0.03407239
0.03503499 0.19550699 -0.01725222
-0.03352582 0.11201610 -0.00694682
0.00786162 0.08098204 0.02784290
-0.00207759 0.22408584 0.00442583
-0.02721135 0.18456337 -0.01421745
-0.01356769 0.24261969 -0.01933656
0.00786039 0.08422594 -0.01464851
0.00575568 0.23728889 -0.01478989
0.01734019 0.07645994 -0.02700478
0.00707658 0.07897469 -0.00738015
0.00859741 0.11723024 -0.00105470
-0.00491217 0.07984550 0.02450412
0.03051998 0.05256236 -0.00315090
-0.02860960 0.21992461 -0.02168879
-0.04218440 0.05640259 -0.00855941
-0.02140357 0.11362182 0.00553361
0.00546726 0.08111031 -0.00487687
-0.04733422 0.06473129 -0.01284430
-0.03033088 0.09290646 -0.01518582
0.00971211 0.18119818 0.00917282
0.02025961 0.14849892 -0.03056375
0.02446113 0.14519428 -0.02941673
-0.03470231 0.05903625 -0.01237000
-0.02310051 0.06272233 0.00187268
0.00215872 0.08995433 -0.04176775
-0.03070691 0.14071916 -0.00451551
0.01780134 0.14965194 0.01475314
0.01931281 0.24337292 -0.01785985
-0.00961320 0.06510663 -0.04466935
0.02409120 0.05797137 -0.03283049
0.01938116 0.08083443 -0.02916327
0.01398122 0.08276019 0.00319600
-0.00936616 0.07903959 0.02830820
0.03581405 0.22515526 -0.02543835
0.00176867 0.10154700 -0.03639928
-0.03909786 0.05563161 -0.01979545
-0.00973921 0.15229182 0.01543960
-0.03573586 0.08231342 0.00638133
0.01668988 0.22190458 -0.02005273
0.03054676 0.05798458 -0.00347520
-0.00737071 0.08154890 0.01736457
0.00594021 0.11881366 0.01190299
-0.01621792 0.17884380 -0.02569797
-0.00693846 0.13193165 0.00721761
0.01805615 0.12417822 0.00341377
0.00852565 0.18817601 0.00046853
0.00430355 0.24475731 -0.01494518
-0.03442628 0.12774095 -0.02199251
-0.00004370 0.06060061 0.01012342
0.00549226 0.24038523 -0.02333041
-0.01476931 0.19076538 -0.02742907
-0.01406313 0.20397693 -0.03173736
0.01950239 0.19319701 -0.00813750
-0.00606345 0.09042234 -0.02312497
0.03255583 0.10486983 -0.00793936
0.02637189 0.12612829 -0.01719717
0.01680644 0.05978070 -0.02302955
0.01480283 0.15929130 0.01454276
-0.02232100 0.05168830 -0.03990532
0.02430830 0.11724344 -0.02223217
0.03013152 0.21023315 -0.02335811
0.02983469 0.06841403 -0.02480575
-0.02518558 0.24164054 -0.02539098
-0.01508080 0.07793441 0.01672162
-0.02804691 0.08740540 -0.00286249
0.01687287 0.12400335 0.00441343
-0.02271724 0.13549626 -0.00509218
-0.00419577 0.11739956 0.00530523
0.00149092 0.15941288 -0.03163365
-0.03611589 0.05354835 0.01883113
-0.01570697 0.21836531 -0.02779081
-0.02463866 0.07608039 -0.02207863
-0.00306170 0.07924140 -0.01415508
-0.00638345 0.05187152 -0.03735992
-0.01201280 0.05066656 -0.04647384
0.01437027 0.11793607 -0.00550855
0.02052619 0.24193153 -0.01828460
-0.01969595 0.18124747 -0.00915645
-0.02031355 0.17372708 -0.00979097
-0.01664306 0.11307780 -0.00362241
-0.00260507 0.20510089 0.00792151
-0.00733076 0.15805614 0.02039608
0.03528628 0.08010983 -0.00360665
-0.01568515 0.14318998 0.01140939
0.00449420 0.08687910 -0.01901159
0.02581423 0.16300613 0.00370805
-0.02537600 0.23533525 -0.02364037
-0.03474831 0.05256104 0.01018378
0.01560181 0.06485800 0.02468488
0.01815000 0.11150283 -0.01698261
0.00720477 0.20414142 -0.03339224
0.01660431 0.20094171 -0.03436526
0.02235634 0.05887362 0.00736913
0.01047300 0.21995668 0.00534176
0.01889947 0.06465108 -0.03513301
-0.01508627 0.11254302 -0.02874099
0.02541064 0.15690111 -0.02599953
0.01749055 0.16475217 -0.02793420
-0.01703763 0.07776759 0.01548007
-0.00114904 0.09588833 -0.03400072
0.03289410 0.07607876 -0.01093553
0.02418290 0.07782198 0.01411205
-0.01617540 0.22112854 -0.01785583
-0.01601626 0.10330531 -0.00175657
0.01185179 0.05660359 0.02683454
0.02100147 0.05667790 -0.00637871
-0.02361205 0.10676907 -0.02947376
0.00238960 0.08766263 -0.01390915
0.00761664 0.15686785 0.02126364
0.00223777 0.08222901 0.02959443
-0.02721776 0.22885028 -0.01960330
0.00908666 0.20078038 0.00821303
-0.03277511 0.11782763 -0.01016530
0.01746432 0.07271336 -0.03490045
0.02606319 0.08172690 -0.02935427
0.01117686 0.07795915 -0.03518884
-0.02026204 0.15965331 -0.01156670
-0.03094493 0.12628375 -0.02536695
-0.03799579 0.05938366 0.01555479
0.03790554 0.18139260 -0.01550451
-0.02692270 0.09961186 -0.01102684
0.01703985 0.07779955 -0.03239462
-0.02811759 0.21643117 -0.02723958
-0.02510663 0.15273251 -0.02426129
0.00199055 0.05972850 -0.02556556
-0.03080320 0.08954480 -0.01125713
-0.01390950 0.09994186 -0.00085273
-0.01791538 0.22649604 -0.02318341
0.02529288 0.05530577 -0.00035228
-0.03808802 0.10527591 -0.00696380
-0.02291559 0.15076329 -0.02648479
0.02311588 0.09738097 -0.02425581
-0.01144735 0.06706054 -0.04588892
-0.02565095 0.06155285 -0.00604700
0.01204400 0.07814305 0.02967123
-0.01674647 0.05350611 0.02139382
0.02235712 0.09677209 -0.02414271
0.00952850 0.09500308 -0.02028399
0.02163360 0.16102095 0.00696320
0.02492533 0.08134474 -0.02706939
0.02906733 0.22033238 -0.02439876
0.02136028 0.14026420 0.00639588
0.00188293 0.09249597 -0.02718142
-0.02282636 0.08468580 -0.01104233
-0.02802645 0.23825699 -0.02757475
0.03351091 0.06465081 0.00685755
-0.01182208 0.07695080 -0.03020689
0.00285318 0.16562848 0.02039813
-0.01443691 0.04959516 -0.04768994
-0.00059753 0.06540208 0.03238183
0.01049051 0.05891921 0.00300328
0.03226631 0.15286662 -0.02679924
-0.00027458 0.24889645 -0.01933556
-0.03524645 0.14109735 -0.01146375
-0.02644777 0.18035042 -0.02355183
0.02137246 0.08356881 -0.01327880
-0.00360165 0.17781991 0.00606614
-0.02065563 0.22804722 -0.02763719
0.03150507 0.15133838 -0.01683608
-0.01277078 0.09367086 -0.03140513
-0.02927115 0.14558719 -0.00063360
-0.00504901 0.09019879 -0.02809362
-0.01006374 0.09678741 0.00375750
-0.02446317 0.07994384 -0.01008778
0.00584073 0.07653244 -0.01286371
0.02926894 0.09834356 -0.01947667
-0.00630110 0.24468404 -0.01420481
0.03003337 0.14853810 -0.00594522
-0.03346761 0.05975156 -0.00015530
-0.00005504 0.06299940 -0.00290370
0.02028293 0.07580726 -0.03485101
-0.02716902 0.15685135 -0.02234125
0.01021553 0.09215051 -0.03130420
-0.02658103 0.17937899 -0.01762109
0.01820099 0.06281962 -0.01952970
-0.02212643 0.12260761 0.00169168
0.02372406 0.17216964 -0.00604995
-0.03159674 0.21722533 -0.01882031
-0.01409216 0.11593041 -0.02933320
0.01231275 0.10405290 -0.00933725
0.00090066 0.08696185 -0.01992862
-0.00533310 0.05491839 0.01955002
0.01751445 0.21445392 -0.00048529
0.02215184 0.17177638 -0.00614808
-0.00200348 0.24345800 -0.02664794
0.00953577 0.09629551 0.00362684
-0.01426638 0.16066773 0.01793684
-0.01877419 0.08745158 -0.02911856
0.01863834 0.07982218 -0.02464325
0.01331784 0.16765279 0.01345307
-0.03287414 0.13991877 -0.01323902
0.02545771 0.06722977 0.02393232
-0.00476249 0.21888618 0.00267145
-0.00494890 0.12160999 0.00639734
-0.00972122 0.05912568 0.00850855
-0.02859427 0.12764256 -0.01547130
0.00729956 0.12900347 0.00809720
-0.01866147 0.08260947 0.02334441
-0.02146449 0.08914477 -0.01855026
-0.00588499 0.16731258 -0.03302658
-0.01648406 0.13400331 -0.03147493
-0.00388020 0.17912039 -0.03142358
-0.02588394 0.11972106 -0.02141118
0.03328677 0.05480939 -0.00143116
0.03276473 0.16909586 -0.01119595
0.00241121 0.06326176 0.01793886
-0.01437553 0.17759827 0.00417944
-0.00410330 0.23767519 -0.01093183
-0.00166238 0.19526790 0.01079539
-0.02182023 0.16160256 0.00500024
-0.01266170 0.10172795 0.00596308
0.01473239 0.11335106 -0.03242072
-0.00584091 0.20808651 0.00298226
0.01209898 0.09007990 -0.00749733
0.02256667 0.09953459 -0.01807972
-0.04022250 0.07265351 0.00382546
0.00179205 0.23213302 -0.01376533
-0.00853447 0.18465373 0.00480291
-0.01726714 0.08184929 -0.02096500
-0.02612958 0.09957179 -0.02855403
0.00406471 0.14767122 0.02058158
0.01718274 0.12120058 -0.00224331
-0.02858932 0.10389928 -0.03049907
0.03173245 0.05000831 -0.00204009
-0.02808037 0.20831841 -0.02821596
0.00778230 0.13305813 0.01390706
-0.01882361 0.08077226 0.01651032
-0.01603399 0.12255288 0.00969475
-0.01271619 0.09605963 0.00227098
-0.01898296 0.08487943 -0.04034064
-0.03219401 0.09160807 -0.00531622
-0.02364576 0.18667714 -0.00673920
-0.04039039 0.06967030 0.01106432
0.00155557 0.11452286 -0.03307653
0.02135522 0.07876759 -0.01532023
0.00235775 0.06471414 -0.01250921
0.00696975 0.08165329 -0.01774523
-0.02796623 0.11749677 -0.02278872
-0.02503387 0.07766520 0.01936077
0.01271816 0.18983270 -0.03455537
0.00063159 0.24069938 -0.02021223
0.03166185 0.17086093 -0.00332278
-0.00316343 0.10491897 -0.03035479
-0.02569957 0.11570340 -0.01846830
-0.02895832 0.16186681 -0.01516598
0.00896126 0.20207676 -0.02523167
0.02088070 0.08142743 0.01469398
0.00632252 0.08250594 0.00300770
-0.03254075 0.07966721 -0.00666112
-0.02491338 0.09329279 -0.00552083
-0.01822598 0.08297262 0.02200914
0.00986824 0.07931195 0.01007949
-0.01450867 0.15095542 -0.02560786
-0.01880366 0.22318977 -0.02387276
-0.00728453 0.14651275 -0.02891091
-0.02964461 0.10429133 -0.02108368
0.00413557 0.07942965 0.01269995
-0.02235027 0.07872530 -0.02783944
0.03108995 0.06637868 -0.01391251
0.02941285 0.23681264 -0.03177102
-0.01405275 0.16611047 -0.02389356
0.02160711 0.10202239 -0.03182424
-0.00422144 0.24298286 -0.01188663
0.02664240 0.07058894 0.01317115
0.00076460 0.12189911 0.00947187
-0.00068716 0.05982431 -0.02261010
-0.01486016 0.21646656 -0.02519461
0.02609176 0.13069633 -0.00629286
0.02671753 0.09616584 -0.02417464
0.01943992 0.15585087 0.01733760
0.03475992 0.05981191 0.00599674
0.02536225 0.12582175 -0.01016114
0.00322064 0.23217802 -0.01745157
0.00714403 0.21514291 0.01043093
0.00483408 0.23119396 -0.01305128
0.02415319 0.05271456 0.00947045
0.03390864 0.05212292 0.00344198
-0.03518280 0.09340899 -0.01061628
-0.02582342 0.23885620 -0.02322251
-0.01958931 0.07902880 -0.02041620
0.01933276 0.06033723 -0.03188369
0.01995103 0.17499186 -0.00295410
0.01181907 0.24286568 -0.02486942
-0.02429872 0.13182345 -0.01939662
0.02230421 0.11922212 -0.02032722
0.00344305 0.16403036 -0.03560048
0.00945629 0.12888861 -0.03591260
0.01463458 0.05971082 -0.02597029
-0.02093100 0.07460157 0.02377507
0.02314564 0.05598143 0.01621118
0.01621916 0.05593079 0.01671175
0.03066740 0.18926007 -0.02579294
-0.00750204 0.09701865 -0.00212347
0.02702740 0.17337617 -0.00432896
-0.01793162 0.08931625 -0.02746334
-0.02480131 0.11104296 -0.00051219
0.02974368 0.10218530 -0.01425417
-0.00820841 0.07713050 -0.00415259
-0.01804645 0.14528254 -0.03161249
0.02410837 0.13683522 -0.02455829
0.00391243 0.08161321 -0.02532333
0.02375386 0.10977386 -0.02069442
0.03327699 0.22673830 -0.01114739
-0.03551403 0.06137595 -0.02889809
-0.01924753 0.17824945 -0.00730931
0.00919042 0.21399367 -0.02364090
0.00783837 0.11459981 -0.03585274
0.02298709 0.06152720 -0.01472599
0.03184113 0.16690531 -0.01428606
-0.02363384 0.23210865 -0.02959313
0.01695888 0.20918818 -0.01976270
-0.01649057 0.08587825 -0.03216966
-0.01694691 0.13894038 0.00630039
-0.03056448 0.05815712 -0.02220278
0.01734574 0.09172224 -0.03576826
0.02039198 0.05841289 -0.01220925
-0.03702805 0.07111163 -0.02904627
-0.03284040 0.05899834 0.00353598
-0.00782457 0.12461080 -0.03391685
0.02740483 0.14146227 -0.00738013
-0.02494899 0.08102257 -0.02763975
-0.03606505 0.13148317 -0.02528218
-0.02773115 0.08894071 -0.03182783
-0.02761894 0.24238995 -0.02622767
-0.01168034 0.08336805 -0.01042383
-0.02394907 0.08429579 0.00740780
0.03021908 0.17378610 -0.00885754
-0.02992461 0.07947223 0.01922574
-0.02011666 0.21242380 -0.01093837
0.02502365 0.13154094 -0.02045465
0.01607578 0.05773153 0.02205625
0.00257835 0.08397352 -0.01991086
0.00872317 0.22698978 -0.01014535
-0.03894788 0.08034733 0.00505722
-0.03692795 0.07711874 -0.00034321
0.03220062 0.18439709 -0.01239061
-0.02259445 0.11754629 -0.00582233
0.02448451 0.21494295 -0.00914562
-0.01764062 0.14916359 0.00457390
-0.02808592 0.14833488 -0.02583163
-0.03476546 0.12508065 -0.00654324
0.00329100 0.20114082 0.00924230
-0.02311228 0.24540251 -0.02096521
-0.04351439 0.06004650 -0.02143829
-0.02672811 0.19437671 -0.01722307
-0.01230401 0.10137159 -0.03386947
0.00201869 0.16594036 -0.02915071
0.02733864 0.05556048 0.01015997
0.02024801 0.07940381 0.02094851
-0.03157780 0.11360504 -0.00291462
0.03044441 0.16273808 -0.02152118
0.00614709 0.07863124 0.01108393
-0.02077539 0.15044621 -0.02528520
0.01440726 0.21701123 -0.00353443
0.02452744 0.11031531 -0.02018573
0.01401463 0.17896840 0.00512182
-0.02566886 0.13997504 -0.00133067
-0.00611250 0.11374478 -0.03325625
0.00206331 0.14380261 -0.03216808
-0.01108645 0.14332220 0.01651966
0.02962177 0.19874468 -0.02268877
-0.01264522 0.12452637 0.00882743
-0.01330336 0.21259998 -0.02896847
-0.01471644 0.08380086 -0.02639957
0.02816465 0.20329261 -0.01186539
0.03210323 0.16064809 -0.01098250
0.01540514 0.21442038 0.00631864
-0.02351399 0.22077140 -0.01433444
0.02054604 0.17018786 -0.02799998
-0.01462703 0.12664998 -0.03021636
-0.03811463 0.06006797 -0.02378418
0.00902144 0.08386592 -0.01581062
-0.00339482 0.07994348 -0.00671520
0.00052126 0.13421908 -0.04016388
-0.02820850 0.19925079 -0.03033904
0.02472951 0.10428408 -0.01894278
0.03000130 0.19465311 -0.01592183
0.03102003 0.05775047 -0.01197691
0.02131376 0.16686487 -0.02526901
-0.01534384 0.06069878 -0.03267569
0.01437061 0.10002677 -0.01686752
0.02928762 0.16255063 -0.02786384
-0.01861278 0.12853584 0.00335842
-0.00138876 0.20635673 -0.03310772
-0.02172481 0.11897869 -0.02554213
-0.03616231 0.05134952 0.01262751
0.01138899 0.15981840 -0.02649782
0.03098421 0.14193702 -0.00447277
-0.02776097 0.17683017 -0.01619576
0.00752784 0.16902754 -0.02891175
0.01493130 0.15453331 0.02020444
-0.02617499 0.05448224 0.01291402
0.02249147 0.14882565 0.00966277
-0.01896049 0.21185718 -0.03188793
-0.01025377 0.17796759 -0.02871777
-0.01863424 0.12349287 0.00725709
0.02782657 0.14706595 -0.02705559
-0.01614992 0.08563998 0.00520853
0.02845697 0.15648742 -0.02759315
0.01772640 0.20472249 -0.00229171
-0.00366557 0.21795475 0.00015434
0.01023278 0.16960326 0.01712885
-0.00781652 0.18586656 0.00131806
-0.02065403 0.06206618 -0.00085363
-0.03457737 0.12657987 -0.02484848
-0.00119437 0.24596532 -0.02387333
-0.03230684 0.12788695 -0.02219709
0.02944679 0.05784591 -0.00114684
0.02813315 0.16877559 -0.01351183
-0.04117334 0.06139560 -0.01718097
-0.03482440 0.07909956 0.00481006
-0.01734669 0.05876874 0.00704756
0.03282127 0.16647717 -0.01236632
0.00102327 0.09558193 -0.00950959
-0.02718632 0.19376314 -0.02876730
-0.01654154 0.07822546 -0.03938375
0.00549538 0.09394906 -0.02907312
-0.01240270 0.15028374 -0.03123416
0.01841006 0.21091606 0.00174061
0.02952653 0.13419452 -0.01211995
-0.01035684 0.20290717 -0.02854003
0.02839478 0.14260907 -0.02292672
-0.04074790 0.07520121 -0.01292937
-0.01328655 0.24534082 -0.01678166
0.00715624 0.06185418 -0.04566956
-0.01614967 0.19722809 0.00198214
-0.02971389 0.08449638 -0.02562059
-0.03447127 0.08007929 -0.01864223
-0.00457142 0.06139304 0.01460570
0.03256723 0.15520737 -0.02556704
0.00651314 0.19545180 0.00559905
-0.00415454 0.05759133 0.02448912
-0.01838039 0.18467064 -0.00959828
0.00573026 0.23343167 -0.02333085
-0.00153531 0.11325054 0.00365181
-0.00883818 0.09386121 -0.01762416
0.01460892 0.09913099 -0.01967709
0.01776419 0.11060818 -0.00511568
0.03086274 0.23083641 -0.01271595
-0.01433186 0.17592119 -0.01977769
0.01940625 0.11957154 -0.00311860
-0.02922720 0.06077426 0.02421756
-0.00689318 0.10670874 -0.03560591
-0.00671535 0.13668841 -0.03199948
-0.03259420 0.06077188 0.02176056
-0.00093778 0.06083759 0.03226960
-0.00584969 0.17055567 -0.03019459
-0.03487549 0.13105147 -0.01025074
-0.02814084 0.23963788 -0.01293136
-0.02312189 0.21197623 -0.02908539
0.01405913 0.09674197 -0.02665916
-0.00800956 0.21550292 -0.02957653
