-0.26466519 0.57461309 -0.53101206
-0.35591510 -0.73612869 -0.18269846
-0.29531538 -0.61907268 0.46904707
0.02892977 -0.86669874 0.47375771
0.19840693 -0.52803862 0.60355675
0.61783457 -0.13472930 0.61079395
0.03992626 0.45136499 0.67367482
-0.44589707 0.68487668 0.22090237
-0.20178008 0.75821304 0.28438881
-0.75305259 0.41659930 -0.21298954
0.69905567 -0.55517459 0.11407537
-0.73347890 -0.35011375 -0.29915538
0.18703970 -0.22864744 0.74685419
-0.72299945 0.22459500 -0.41860375
0.10326454 -0.16833831 -0.77164388
-0.05016728 0.39446518 0.72039104
-0.34099150 -0.54764009 -0.46090499
0.02587471 0.55456603 0.63536072
0.59102976 -0.39097786 0.40677986
0.27529305 0.23346011 -0.74897575
0.06935590 -0.80301499 -0.19850072
0.30625796 -0.13111502 0.81118667
0.50031650 0.41797087 -0.48668626
0.69607091 0.24489616 -0.41473472
-0.56635308 0.19909807 0.62100852
-0.05063354 0.55017209 -0.64337778
-0.70472217 0.53432167 0.15517464
-0.40351152 0.26731977 -0.72371018
0.55938363 -0.55284691 -0.29801053
0.45466983 0.33685213 0.64464390
-0.82300317 -0.12880816 -0.08375234
0.28050801 -0.74806440 -0.20914949
0.06728382 -0.40858626 -0.71738112
-0.73248351 0.57690382 -0.06691559
-0.61623454 -0.44574216 0.26942736
-0.02764213 0.16802306 -0.77023447
0.54199910 -0.53689003 0.31253642
0.74056017 -0.05071236 -0.29070652
0.62346661 -0.60023177 0.01506640
0.26226947 0.76383781 0.27444983
-0.45709035 -0.66597283 0.24504690
0.18101409 -0.32662365 -0.72198701
-0.29214695 0.34120715 -0.71860850
-0.67396080 0.21270394 0.51085043
-0.86896443 -0.27664915 -0.04754467
-0.46287864 0.19977194 0.72023690
-0.25001997 0.76664293 -0.16531175
-0.57165146 -0.21340904 0.61674201
0.14501178 0.80007005 0.32811272
-0.11336409 0.39939892 0.73685789
-0.84713328 -0.11048262 0.00178171
-0.52167559 0.11116003 0.74478281
-0.50733292 0.18091744 -0.70039654
0.37563434 -0.73424578 0.10386342
-0.77769578 0.38317794 0.22161943
-0.10809413 -0.80797946 0.43003458
-0.30155975 0.73005354 0.06163365
-0.82413542 0.17947344 -0.02988570
0.13973290 0.08301105 -0.82093537
-0.32314503 0.71916008 0.15573803
-0.17721878 -0.68749475 0.47841060
0.15412025 -0.77850103 0.32496211
0.82842982 -0.24643560 -0.01120585
0.83862782 0.39701337 0.01964027
0.79029608 0.49993321 0.02318097
-0.77194607 -0.49329421 0.12041365
-0.59241211 -0.23922594 -0.53417087
0.38797146 0.68927443 -0.28976917
0.48913816 0.07530926 0.81967998
-0.58402193 0.44851246 -0.31800297
0.20719804 0.65036881 0.50299919
0.08870913 -0.59305108 -0.59774196
0.52186799 -0.00150897 -0.77545154
-0.80148315 0.20326081 -0.08103038
0.78340030 -0.25887591 -0.17643768
0.37581000 -0.57336128 -0.49992654
-0.78467071 0.23719670 0.21405232
-0.43610299 0.10479309 0.80476189
-0.75634873 -0.00522445 0.21286143
0.85468209 0.07809088 -0.07661617
-0.63954735 -0.48882526 0.21987283
0.38298106 0.37090594 0.63835275
0.48076785 -0.47307482 0.41264564
0.49044055 -0.65351927 0.06080409
-0.64377415 -0.12715200 -0.53927362
0.42663643 -0.21721622 0.77782297
-0.56706333 0.47768489 0.33323798
0.32630047 0.35585374 0.69028020
0.62705088 0.51935387 0.18165052
-0.17442864 0.58424592 -0.63039577
0.78105450 0.09761614 -0.27244765
0.55032420 0.24919470 0.64136469
-0.85201705 0.21379817 0.04459345
-0.57937467 -0.34262747 -0.47356114
-0.74852514 -0.07579769 -0.23962650
-0.01515475 -0.29806235 -0.72580302
0.12763193 0.49451843 -0.63561296
0.45315903 -0.59552181 0.33630595
0.00854695 -0.62442172 0.62120783
-0.82433665 -0.20895544 -0.18009502
0.22452024 0.12839545 0.77420783
0.82614291 0.25526282 0.14184777
0.24523169 -0.04934530 -0.81239927
0.24652170 -0.75552332 0.34054905
-0.44765323 0.67969620 -0.09492626
-0.02671172 -0.04788346 0.79648483
0.66163540 -0.08598483 0.47961813
0.44870815 -0.56110835 0.38518932
-0.71236122 0.06715190 0.45151618
-0.54979002 -0.07343879 -0.70622015
-0.80581248 0.35718864 0.10189235
-0.03254541 -0.84656262 0.20656388
-0.05605755 -0.19467223 -0.75858426
0.05528365 0.38210824 0.69796407
0.80197012 0.09760938 -0.20683403
0.13049237 0.61266553 -0.61902106
-0.57130945 0.50581634 0.32548913
0.47438723 -0.68311393 -0.05808130
-0.18227226 0.73637688 0.48676220
-0.48316899 -0.29488501 0.56362820
0.58490837 -0.38931966 0.45314425
0.27047446 -0.10502814 -0.82252228
-0.16947441 0.76862419 -0.31675208
0.07296833 0.85038698 0.08610082
-0.38960609 -0.72451580 0.23788752
-0.28597862 0.62779355 -0.48241532
0.46047971 -0.15898880 -0.79528832
0.57202411 0.62191415 -0.14698969
0.56829274 -0.65178537 0.18558109
-0.06939110 -0.76049137 0.53355896
0.01874803 0.84980237 -0.37536517
-0.39618477 -0.23898801 -0.69009817
-0.86152184 -0.39517197 -0.03575514
-0.75367200 -0.10179743 -0.30714259
-0.82948065 -0.54571390 -0.09319765
0.41106153 -0.30770785 0.62932312
0.20036903 0.45245492 -0.69081950
0.73101807 0.30775878 -0.33439568
-0.19100864 0.11992803 -0.82253194
0.57020843 -0.11918056 0.68140006
-0.22972345 -0.79601228 0.28594229
0.67811525 -0.26020870 0.43662569
-0.04963793 -0.15100680 -0.79168940
0.04418219 -0.23931600 0.74530089
-0.28913790 0.73383880 -0.35614771
0.71840405 -0.47423631 0.16302717
-0.33383504 -0.28611135 0.77759719
0.13850285 -0.75744092 -0.52625322
0.41274419 0.42768231 -0.54927111
-0.27909741 0.69665039 -0.45139992
-0.14082247 -0.70161283 0.53572416
-0.40606633 0.34660074 -0.59686458
-0.12503451 0.53009510 -0.63545346
0.15018456 0.80090129 0.29678985
0.55406439 -0.62418580 -0.12475025
-0.02807020 0.70819390 0.58620954
-0.74230933 0.47230563 -0.16420825
0.72794533 0.58427882 -0.01440283
0.51064503 -0.23068243 -0.58624315
-0.21683119 -0.71504092 0.38685563
-0.06105817 0.57090509 -0.60605347
-0.22875422 0.23185202 -0.74301636
-0.62650919 0.26669520 -0.49422947
0.64368546 0.04480847 -0.52014208
-0.49693465 -0.50977731 -0.37793475
-0.54081619 -0.27638263 0.48212001
-0.10090241 0.62872136 -0.61105478
0.44561818 0.00896326 -0.86731648
0.29546264 0.31953663 -0.70257139
-0.17838129 0.73399758 0.45621741
-0.60154033 0.54493582 -0.27453291
0.58153009 0.50442624 0.20193881
0.09063764 0.34929833 0.78927290
-0.83016014 -0.42652607 -0.05885955
0.14057989 0.66184843 -0.59513032
0.55493820 0.20783255 0.60207367
-0.79894900 -0.40422359 0.12627740
-0.14072059 -0.16637482 -0.78516412
-0.34426129 0.36442941 0.64371967
0.00737891 -0.62727165 -0.61764061
-0.05902079 -0.38857752 -0.71400976
-0.04928613 -0.76151311 -0.04985433
-0.33710629 -0.19337876 0.76888466
0.32118189 -0.72929168 -0.17809704
-0.35323116 0.73961520 -0.26444843
-0.10868976 0.81070578 -0.52475178
-0.66647255 -0.20725390 0.52906120
-0.49231151 -0.45481607 0.41154477
0.18958712 -0.75215876 -0.28587574
0.24975775 -0.36095935 0.70675755
0.11894176 0.42732212 0.68144608
-0.74931037 0.06537305 0.21822141
0.37707916 -0.36981246 0.67616260
-0.66094398 -0.13979207 0.56807506
0.47509751 -0.06886989 0.85673261
0.57691634 0.11252674 -0.66382742
0.82630563 -0.35719895 -0.11191957
-0.12524644 0.54521906 0.68139029
-0.68789530 0.56341529 0.16176437
-0.83724034 -0.36097455 -0.06960981
-0.77552092 -0.16254236 0.21555892
0.27092662 -0.61372745 -0.49156222
0.41535109 0.05996799 0.83353257
-0.50505304 0.40283212 0.47568366
-0.36500737 0.47247580 0.53087401
-0.49574816 0.19419363 0.64968657
-0.69115531 -0.27865976 -0.42881709
0.28075013 -0.51796746 0.58630717
-0.39051586 0.19890867 0.73271227
0.71022773 -0.57891774 0.08580473
0.01331352 -0.45310140 0.66294205
-0.05330316 -0.85711062 0.17005287
0.50858760 -0.50727117 0.29601830
0.38593155 -0.22675852 0.75926793
0.44631493 -0.07415809 0.84126627
-0.45334363 0.53557968 0.35236436
-0.65151608 0.10988717 0.57353091
0.69443870 0.58470106 0.14984627
0.17474541 0.59819388 0.60308909
-0.04592830 -0.09280169 -0.75007963
-0.04294406 0.49456924 -0.64423704
-0.25379333 0.70625973 -0.05142577
-0.53936839 0.61715400 -0.09317387
-0.49575028 0.49961799 -0.36033359
-0.78495109 0.25925395 -0.12015205
0.19242996 0.00945168 0.82038283
0.69684076 -0.16521521 -0.46780223
0.52770054 0.39560458 0.42896751
-0.72915089 -0.20336248 -0.31146145
-0.43063363 -0.41678685 -0.56210434
0.82530403 0.28200895 0.10362789
0.06899640 0.73217273 -0.56215894
0.10933027 0.75767207 -0.54755354
0.74094796 0.08353323 0.29330775
0.05749378 -0.80830503 -0.02150315
0.39688358 0.28182912 0.62759030
0.68024707 -0.37871015 0.34001693
0.20112240 -0.54585171 -0.57055771
0.22650447 0.54812765 0.55485094
-0.84654999 -0.17468011 -0.02525813
0.80854237 0.20233434 0.13117026
-0.60160029 0.30433488 0.42493176
-0.48302695 0.54833484 0.32984385
-0.53324509 0.41410780 -0.44448620
0.45343825 -0.54306269 -0.41958702
0.50177860 0.16871031 -0.73425829
-0.26687312 0.54560006 -0.54868495
-0.24476828 -0.56964684 -0.54529548
0.87084794 0.07750406 -0.03444496
0.57367527 0.26490310 -0.45442197
-0.72657812 -0.21289860 0.32856801
-0.73451710 0.33592591 0.30048996
-0.83400905 0.05603835 0.01204279
0.02177324 0.84866703 -0.40133682
-0.26315466 0.41161445 -0.73948443
0.30418453 -0.75295758 0.20375374
-0.75073004 -0.55370939 -0.06995636
0.28140819 0.71042264 -0.41125762
0.48787072 -0.00591321 0.85321963
-0.72926891 0.36513457 -0.31284562
0.36872792 -0.39972875 -0.55446196
-0.10905550 -0.30892259 0.71269786
0.55188441 -0.34920084 0.45304173
0.49512574 0.08931058 -0.81452966
-0.08420591 -0.39578545 0.70724559
0.13070846 -0.09032202 -0.84791064
0.67943275 -0.51280808 0.19522846
0.72387779 -0.38773635 0.24664138
0.83748758 0.26529449 -0.03089102
-0.58391726 -0.34838831 0.41245571
0.60163450 -0.64742839 -0.02556664
-0.02227539 0.12487859 0.77487326
-0.69233072 -0.11716695 0.34328625
-0.32476512 0.58948660 0.43377838
0.57355750 -0.17936437 0.61376238
-0.54478955 -0.06519137 0.71443987
-0.73094177 -0.48870349 0.14073612
0.19415611 -0.35091537 -0.73526144
-0.86335003 -0.01910553 -0.01664994
-0.54634523 -0.48472667 0.31796458
-0.74665010 0.52269816 0.06853884
-0.08232697 0.79904580 -0.46453592
0.14032638 -0.23689674 0.73285627
0.77151108 -0.03761550 -0.21047714
0.33234984 -0.66494918 -0.42659131
0.82618403 0.11639404 0.03560412
-0.09150229 0.22948296 0.76848066
0.48145598 0.04432350 -0.82416666
-0.38470870 -0.44646659 -0.57625508
-0.40681481 0.22195984 0.73318624
0.13109784 0.81958485 0.26578987
-0.14957806 0.77084005 -0.45976892
0.82244158 0.16313188 -0.01893825
-0.12149066 -0.59941554 0.63516092
0.52581084 0.53249478 -0.29239988
0.24162847 -0.19478689 -0.78516603
-0.37311241 0.58927798 0.38669398
-0.10001340 0.85427821 -0.40220740
-0.36028036 -0.30828515 0.67735434
0.21087620 0.46883258 -0.67179215
0.68647647 0.13870126 0.47730199
0.26548997 0.21831197 0.77390194
0.19037959 -0.63755572 -0.57963181
-0.62576091 0.17056592 -0.55929410
0.52822828 0.34866425 -0.52376390
0.53867459 -0.64317107 0.09927591
-0.21587120 -0.00421341 -0.86238909
0.28097177 -0.14892219 0.77983892
0.39633492 0.69281185 -0.21604615
-0.31345230 0.45626801 0.60006785
0.36908025 0.17534602 0.78497672
-0.06560834 0.81486070 -0.34418559
0.24542145 -0.01208113 -0.85383153
0.05906920 -0.14541994 -0.81592894
-0.35157463 -0.51765823 -0.55547595
0.48286137 -0.70777214 -0.22295909
0.52376986 0.60321391 -0.01217729
0.59477782 -0.06590480 -0.62273419
-0.56793261 0.59295547 -0.29521203
-0.69777679 -0.50569296 -0.19549355
-0.19342570 0.28559056 0.75228143
0.72911763 0.23841098 0.30958560
-0.20258427 -0.12483538 -0.79610693
-0.40267426 0.62419617 -0.36516383
-0.67867279 -0.05959088 -0.42008045
-0.21460164 -0.13467316 0.76656246
0.39369223 -0.51688099 0.36937216
0.33347681 0.71104348 -0.22317307
0.63793433 0.55640733 -0.17336628
-0.47229102 -0.70434546 -0.24006130
0.41849124 -0.68842661 0.25718582
-0.67540836 0.07032473 -0.42411828
0.29761937 -0.71381342 -0.00230742
0.47912791 0.24651088 0.58132648
-0.66750336 -0.57838845 -0.09201673
0.49018276 0.66333902 -0.01055644
0.38685194 0.69073129 0.14733939
-0.44413611 -0.15444680 -0.80186749
-0.13846724 -0.70897651 0.54843879
0.56967676 -0.01653696 -0.64042068
0.20080349 0.09608991 0.77695227
0.56796384 -0.21761194 -0.61473775
-0.25300363 0.73999035 -0.06617766
0.10061733 0.84004509 0.47494775
0.25579098 -0.75256038 0.27321893
0.28038946 0.19581032 -0.75092018
-0.47404695 0.12097707 0.76634753
-0.52950180 -0.27166566 0.60027492
-0.33767143 -0.63465261 0.37804729
-0.07502838 0.69102550 -0.56816065
-0.50956476 -0.33216619 0.50850356
0.39509287 0.21418926 0.77332163
-0.85431981 0.45219117 -0.08004193
-0.55978179 0.00177150 -0.75986683
-0.86121023 0.39907667 0.05014542
0.40794817 -0.65716636 -0.16240156
-0.58103335 0.03386259 -0.79143333
-0.82036781 -0.24168694 -0.08948576
-0.72842622 -0.14426847 0.39686453
0.44668055 -0.49386242 -0.47205406
0.36363938 0.29266620 -0.70146739
-0.54324162 0.15860152 -0.68052995
0.44008201 0.16345918 -0.71158779
0.82212174 -0.33645102 -0.03348355
0.40440065 0.19079141 -0.75025737
-0.25273412 -0.76536262 0.11482069
0.66150224 -0.28779531 0.48043716
0.84043992 -0.34851089 -0.02638435
-0.09058539 0.42576835 0.63391232
0.77447796 -0.31733963 0.25268728
0.28363326 0.67911828 0.41046989
0.79245079 0.51736820 -0.06330695
-0.12773202 0.59296453 0.64389110
0.28528649 0.74640858 0.11860354
-0.02084945 -0.02398066 -0.85175180
0.85804999 -0.41277546 -0.04045738
0.08763750 -0.81012118 -0.34341305
0.67673469 -0.58231986 0.12050737
-0.07002957 0.83040321 -0.39277136
-0.76386404 -0.26950958 -0.26238236
0.49033898 -0.36781135 0.56808031
-0.80960810 -0.06150635 -0.20081146
0.83284056 -0.44451809 -0.05026452
-0.64849222 -0.59312403 -0.11804985
0.60524666 -0.20771189 0.55724156
0.29574305 -0.70941424 0.00771103
0.66855979 0.09855705 0.49826360
-0.50277102 -0.65264046 -0.19330195
-0.74834895 0.20309666 0.33284751
-0.12112319 0.80510449 0.06090465
-0.08416536 0.10273743 0.84112680
0.17389601 -0.82890987 0.08247945
-0.24982870 0.75995803 0.36036682
0.09317908 -0.71981394 0.54665267
0.78864455 0.04206278 -0.14540397
-0.61931038 -0.08943098 -0.52238977
0.33856627 -0.06166491 -0.81018138
0.13839078 0.79558754 -0.20541535
0.72725689 0.28121191 -0.28969693
-0.65323675 -0.33019707 0.35261455
0.61341453 -0.59476209 0.19698131
-0.27406976 -0.71404171 0.01974952
-0.04056277 0.89669776 -0.39197475
0.13487215 -0.66765273 -0.55582929
0.66140151 -0.10766951 -0.48819894
-0.53932202 0.24916856 0.59038699
-0.66169369 0.11759950 -0.44966707
0.65041411 0.04560534 0.60763049
0.49954727 -0.44991803 0.43572077
-0.23409739 0.76013184 -0.02842694
0.31237707 0.09077255 -0.81447947
0.24466959 -0.27094960 -0.75353038
-0.31606489 -0.73346853 -0.28342614
0.32642436 0.13871422 0.82151926
-0.26791644 0.57006764 -0.52894700
-0.07967883 -0.23557352 0.73285246
-0.50895679 0.66339326 -0.09367452
-0.03440717 0.06646467 -0.80875587
0.38922656 -0.69800329 -0.20185740
-0.32315847 -0.26012552 0.74816835
0.49569103 -0.64245689 0.05962960
-0.31994861 -0.71660471 0.25247103
0.11542251 0.36909986 -0.66857278
0.73247635 0.39462715 -0.19820578
-0.56960499 -0.39822069 0.37566566
0.15168950 -0.63977110 0.52167344
-0.22122835 -0.57283521 0.53115213
-0.33235350 -0.56282914 0.44916284
0.46786553 -0.68668282 -0.18763492
0.78519785 0.38442588 -0.22495538
-0.72341156 -0.30509567 -0.23015173
0.80951631 0.10597704 0.11749906
-0.56428087 -0.15756792 0.69145548
0.56141484 -0.40674382 0.46824604
0.05332765 0.64259756 0.59363592
-0.03620619 -0.40227309 -0.72369874
-0.74723196 0.39022517 -0.21530868
-0.62021887 0.05867425 -0.59932113
-0.54869509 -0.38446343 0.44251072
-0.21421459 0.55323434 0.60805213
-0.02984172 0.18421099 -0.76222432
-0.84953296 0.19716261 0.07190777
-0.14568669 -0.70395994 -0.51148212
-0.05975429 -0.83376205 -0.11654459
-0.38615331 -0.69692993 -0.21158011
0.23794082 0.72782624 -0.34709397
0.43328834 -0.23869574 -0.67852664
0.03244790 -0.01311700 -0.85320199
0.35650784 0.72752726 0.01808712
0.45807889 -0.02837151 0.84756386
-0.29799148 0.50501359 0.56853843
0.13136424 0.82199717 -0.26208362
0.46011654 0.13122326 -0.77653182
0.27555057 -0.71837986 -0.20248806
-0.41886416 -0.69855380 -0.21878618
-0.30653766 0.12170616 -0.78039491
0.40873227 -0.40604320 -0.57147217
0.37778130 0.38660094 0.61992276
-0.35111934 -0.74395239 0.16635378
0.64731979 0.61328471 0.04826211
-0.22958577 0.62220168 -0.51703918
-0.16403173 -0.77988338 -0.03425447
0.22733474 0.65377033 -0.49828720
0.68192208 0.56994450 -0.04646682
-0.12776907 0.67606699 0.58066881
0.59426367 -0.19070333 0.59664524
0.14940339 0.50241768 -0.63879490
-0.82613134 0.37977108 0.15420055
0.81248295 -0.49405217 0.06414039
0.36920226 0.31340912 0.68023467
0.38107386 -0.30346602 -0.70921218
0.07130668 -0.81642628 0.42329866
-0.00194807 0.84312379 -0.54446507
0.81574833 -0.29100716 0.13456227
0.39082217 0.36996686 -0.63997769
-0.06069471 -0.40881908 0.68519485
-0.85261571 0.40090567 0.02035902
-0.79868388 -0.06668247 -0.07051209
-0.77810371 -0.13505751 -0.23011658
-0.28772479 -0.76374638 -0.13863268
-0.49476779 -0.61419964 0.21763565
0.76795411 0.19596443 -0.17585632
-0.15533671 -0.18975616 -0.74117529
0.31513792 0.08569757 -0.81801331
-0.65962946 -0.04238965 -0.41844428
-0.48938206 -0.64623559 -0.19046585
0.71841991 0.06457710 -0.24648412
0.69671309 0.55670643 0.03732707
0.44500491 -0.43285769 0.47112831
0.31855056 -0.48392716 0.59232283
-0.35709405 0.56565952 -0.43766162
0.17472674 0.52173090 0.62687492
0.48132381 -0.66591311 0.29129535
0.64836907 -0.12306455 0.51847577
0.61983323 -0.18105876 0.54360402
0.13111503 -0.10367913 -0.81921804
-0.01464112 0.59526777 0.61407018
0.37776339 -0.29249969 -0.69338250
-0.71797788 -0.56836724 -0.10509919
0.26233983 0.53492963 0.51718271
0.59618342 -0.22643110 -0.53726065
0.30243796 0.70428896 0.10782532
-0.16183159 -0.71982169 -0.49928710
0.49878246 0.28785753 0.58712626
0.50421119 -0.63496482 -0.00822418
-0.83706164 -0.36474535 0.04075553
-0.20254168 0.60366797 0.58087826
-0.26763627 0.63336623 -0.49178788
0.13439828 -0.80194962 -0.25295267
-0.03422436 -0.78443480 -0.59269691
0.58795428 -0.27524474 0.50850713
-0.73203015 0.39784473 0.26236194
0.04144447 0.36883733 -0.69921029
0.42195842 -0.25191921 0.75523818
-0.30398542 0.49883103 -0.56140983
0.67236924 -0.47802401 0.15166953
0.18748364 -0.62947273 0.54661369
0.56478560 -0.67633855 -0.13596483
-0.12231269 0.82239866 -0.32458165
0.39884901 -0.39546445 -0.62301099
0.20836404 0.81536853 -0.12955090
0.55093241 0.57566833 -0.26247311
0.67616630 -0.57849717 -0.08390724
-0.20120840 0.79903007 -0.28605327
0.08161256 -0.80937517 -0.08625055
0.08059955 0.55314434 -0.66223514
-0.54072118 0.16395432 -0.65561295
-0.78305817 0.24576239 -0.23658124
-0.71632087 -0.34497020 -0.23981825
0.30092540 0.51183093 0.54763734
0.32078013 0.34584373 0.71519661
0.15156634 0.34812808 -0.72270727
0.76874638 0.44070709 -0.12004781
-0.32572618 -0.70459080 0.36212513
0.67891932 0.34835190 -0.35292384
-0.27105743 -0.76391947 0.12938452
0.44828603 -0.71464908 0.13376795
-0.72082126 0.26055866 0.29421449
-0.31106627 -0.70159864 0.04417453
0.57266212 -0.00450856 0.72942746
0.82029831 -0.26023930 0.17580815
0.05798308 -0.79980361 0.12393333
0.03597691 0.83064663 0.46145856
0.02860412 0.25645375 0.77955019
-0.19553383 0.76954508 0.32730937
-0.59552443 0.14153185 0.61774063
0.46962103 -0.57231295 0.38355756
-0.45409140 0.06265990 -0.79230213
-0.67072356 -0.31801930 -0.46065247
0.11088689 -0.82588971 -0.45074779
-0.30567983 0.60855544 0.38025945
0.69241381 0.00762123 -0.40696964
0.19015549 0.79989827 0.14163829
0.10273906 -0.37983418 -0.69865143
-0.36128321 -0.73242497 -0.18162736
0.45987907 -0.30692968 0.64716637
-0.62695980 0.02120285 0.56721938
-0.59148192 0.61876404 -0.04906887
-0.22410572 0.05231238 -0.85203028
-0.46043035 0.68614018 0.15970150
-0.73754776 -0.30252272 0.36365771
-0.04743029 0.23430839 -0.74733746
-0.34131193 -0.63967383 0.41771689
0.79917502 -0.10328000 0.14157501
-0.53240001 -0.54110622 -0.23867829
0.56598556 0.06590916 0.70399797
-0.45430446 -0.31115091 -0.62709713
-0.76006508 -0.02239602 -0.19723800
-0.41598403 0.05234991 0.82583964
0.77628052 0.51019573 0.08585496
-0.18045506 0.75730467 0.06337609
0.29569489 -0.73664141 0.20823768
-0.02573677 -0.78268158 0.56702781
-0.31354743 0.41843578 -0.66968358
-0.54684186 0.63996863 -0.19921780
0.53499460 -0.54769146 -0.27151743
-0.42853442 0.69274843 -0.22892812
0.53353536 0.29018125 0.62543356
0.16047819 -0.16678937 0.81541443
0.00966657 0.33182406 -0.71894741
-0.08489808 0.05012778 -0.86909163
-0.39565939 -0.20505089 -0.71637833
-0.59062839 0.37881660 -0.40382290
0.06628183 -0.87995863 -0.17756124
0.16616933 -0.79595125 -0.18374656
-0.45809987 0.28798413 -0.57588744
-0.05721916 0.84519291 -0.48819244
-0.50806117 -0.12632012 -0.79399133
0.76993847 -0.41273263 0.15886334
0.60918128 -0.04380689 0.61479068
-0.26931688 0.74747169 0.23060861
-0.22837289 -0.45605448 -0.69017363
-0.54761302 -0.63133860 -0.22092922
-0.11566836 -0.75109506 -0.04763846
-0.24782217 -0.18098059 0.76822209
0.79941750 -0.27857611 -0.13476776
0.09260415 -0.65482056 -0.63748884
0.16295113 0.76432765 0.49308574
-0.48575222 0.09583591 0.83601904
0.78875351 -0.39561772 0.19970225
0.07278811 -0.82226789 -0.02857058
-0.88177657 -0.14618054 0.01983860
-0.60543799 -0.36882758 0.35148078
0.41191301 0.69721031 -0.13012953
-0.14447837 0.80369842 0.43050063
-0.16196674 0.16279832 0.80496347
0.80722797 0.03217187 0.14315115
-0.65026283 -0.09315698 0.50853062
0.64605379 0.34826455 -0.37798554
0.66368628 -0.08653151 0.52031875
0.77159691 -0.27036697 -0.08048702
0.28095242 0.79112530 -0.14206773
-0.19657655 0.79674733 -0.40279916
-0.16550392 0.39269760 0.67756975
0.13825686 -0.70974982 -0.59514427
-0.40029714 0.27189037 0.67596233
-0.45366013 -0.01278094 0.83206034
-0.49980778 -0.10865533 -0.77498567
-0.04639632 0.83137572 0.04326306
-0.71951461 -0.44300011 -0.27649918
0.84762168 0.45375648 -0.06194790
-0.47741243 -0.49308830 0.39698109
0.77485657 0.20781448 0.26312548
0.37279770 0.07540128 0.87425327
-0.09219755 0.80081141 -0.31634077
-0.13739705 0.46733621 0.66658449
0.62493455 -0.08739927 0.43455064
0.17368282 -0.79913139 0.05424319
-0.53301656 -0.11147414 -0.78240967
-0.84631884 -0.06765163 0.02745488
0.13560759 0.29151964 -0.70357537
-0.73726046 0.16543619 0.22800004
-0.74269342 -0.04838841 0.28352535
-0.69152677 0.12673792 -0.36356923
-0.46428809 0.68622959 -0.14035437
-0.79644084 -0.21643399 -0.16713107
-0.37661439 -0.23683204 -0.75362206
0.76760375 0.01607722 0.24522772
0.50001049 0.41820082 0.49432278
0.23380989 0.51060498 0.65818357
-0.01777347 0.36863676 0.71851265
-0.38575855 -0.36715785 0.60558927
-0.81795788 -0.10403549 0.09784515
-0.43404177 -0.69089925 0.25566271
0.02174969 0.51765311 0.62658131
0.21847031 0.21589477 -0.77082407
0.11225867 -0.66801703 0.57318366
-0.72476697 -0.28984109 0.33110499
0.04983943 -0.56296587 -0.63722944
-0.38375339 -0.39001054 0.56651676
0.82464135 -0.39023811 0.04591000
0.54134691 -0.31681377 -0.52632606
0.20589168 0.63235879 0.49957442
0.29039738 -0.05097320 -0.83300424
0.85636640 -0.27784169 0.07790092
-0.76585817 -0.60060596 0.01983307
0.79082012 0.18580468 -0.16224296
-0.34258035 0.54723227 -0.45916173
0.80216956 0.46453223 -0.11728124
0.35531044 0.57719958 0.42516768
0.66957617 -0.22829168 -0.45294905
0.75241530 0.04930489 0.33514217
0.49136215 0.54153800 -0.34270179
-0.81712902 -0.33699566 0.01104011
-0.56251919 0.27610490 -0.51825094
0.32456332 0.41918176 -0.65241420
0.13247918 0.12265020 -0.78867817
0.52621830 0.06159588 0.75771236
0.09561264 0.83797622 0.00946885
0.37117469 -0.52054727 -0.46422303
0.77167833 0.08786760 -0.20584935
0.08506095 0.63912189 -0.60637951
-0.13592651 -0.78551126 0.45073879
-0.71969581 0.26243585 -0.39206755
-0.18659228 0.01791770 0.82937074
-0.22164515 -0.63801861 0.49642283
-0.12671767 -0.81317091 -0.32396391
-0.67099512 -0.32581487 -0.30494565
0.01973364 -0.53327858 0.65229023
0.71277523 -0.52172601 0.19567420
0.31521717 -0.20611985 0.77550197
-0.10823233 0.81148815 0.35476574
0.80539465 -0.53922534 0.01262415
-0.39607823 0.56270194 -0.41173041
0.83507073 0.12263163 -0.07182065
0.56723928 -0.08681125 -0.72793615
0.47097561 -0.04060385 -0.81111920
-0.36322528 0.73253906 -0.00903424
0.06937087 -0.84203637 -0.27675590
-0.84477866 0.53144193 -0.03327126
0.43317744 -0.06375098 -0.78786612
0.25768560 -0.22869797 -0.77916360
-0.02877541 -0.09051681 0.84451044
0.81608558 0.34720844 -0.13459837
-0.29747236 0.12366559 0.80437529
0.78488386 -0.15292449 0.11961247
-0.78877914 -0.30373311 0.16589765
0.30978096 -0.43739450 0.63001895
0.21152775 0.70881188 -0.49920675
0.77578115 -0.29702136 0.17267445
-0.36863068 -0.21863435 -0.77394938
-0.68634510 0.58140218 -0.12886493
-0.45273376 0.69823337 0.27506527
0.63880527 0.06053362 -0.55817223
0.59894061 -0.38199013 -0.40628076
-0.50711143 -0.33117387 -0.54702067
-0.27545434 -0.72583723 0.36733893
0.30782041 -0.72892570 0.16361068
-0.40069816 -0.71376443 0.11926324
0.80051315 -0.09760325 -0.12736973
-0.40314934 -0.03834133 0.84132552
0.34842485 -0.73657668 -0.13973214
0.40434843 -0.62127197 0.32771274
0.61727297 -0.07207308 -0.59440482
-0.76650548 -0.04941350 0.13977706
-0.63207471 -0.53121722 0.20237973
0.74093974 -0.16110803 -0.21642070
0.35613769 0.64153802 -0.42541176
-0.20736858 -0.63844824 0.51858115
0.79820573 -0.03472819 0.13744955
0.21228519 -0.23220946 0.73987961
-0.52968812 0.21508418 0.63507819
-0.53712356 0.46625006 -0.35533863
-0.23718862 -0.76113701 0.23312072
0.60499287 -0.63905656 -0.08543985
0.71852493 0.12928075 0.30608210
0.56968451 0.60437834 0.04329089
0.02100979 -0.84621966 0.34544769
0.45758238 0.68521285 -0.28162551
-0.34628713 0.71736515 0.09804308
-0.49495229 0.67227519 -0.18975629
-0.70301235 -0.42036697 0.20025121
-0.12038720 0.15936343 0.78122795
-0.43120688 -0.33907965 -0.62068570
0.30967191 -0.14862509 -0.78386462
-0.74013007 -0.22703217 -0.25622445
0.71543801 0.29838410 0.37332764
-0.31568247 0.24927267 0.76676905
-0.65197992 0.40859652 -0.27548650
0.81567597 0.31134459 -0.14025533
-0.30208069 -0.29750162 0.70060718
-0.40187714 -0.50529444 0.51811194
0.69448972 -0.42740753 0.21505290
-0.46378255 -0.39147076 -0.49918967
-0.23912016 -0.69878101 -0.42529491
0.78691900 -0.45737752 0.10023689
-0.66468215 -0.60335720 0.06756011
-0.10969419 0.06793445 -0.84414661
0.68445325 0.34555280 -0.33200893
-0.74394011 -0.01053673 -0.35093412
-0.10604391 -0.08247045 0.78325319
0.10817605 -0.02819894 -0.81990325
-0.24195941 0.73823309 -0.32114682
0.79998612 -0.01053465 -0.10846521
0.16877496 -0.51346803 0.67889869
0.61791730 0.26520926 -0.52416670
0.45517576 0.35016215 -0.61951470
0.01038031 0.22830282 0.77203047
0.72790694 -0.36754304 0.36021885
0.06915204 -0.14883700 0.78780675
-0.16730136 -0.80025697 0.39663568
-0.46664023 -0.64767146 0.15875432
0.22298528 -0.80746698 0.07800546
-0.62969232 0.09535408 0.67627442
0.72646201 0.40974203 -0.25416324
-0.28343195 0.50472915 -0.57001269
0.25272101 0.27195463 0.72804534
-0.27265787 0.77265072 -0.18443306
0.28609982 0.74088049 -0.33918238
0.67501342 0.28422582 -0.39747784
0.01362850 -0.09922218 -0.80400097
-0.83902431 0.02943793 -0.09650011
0.47213370 0.19461350 0.67928839
-0.04129529 -0.75458491 0.56620061
-0.47251466 -0.15431806 0.74369168
0.39271244 -0.50375664 0.42760801
0.33709878 -0.40688708 0.58220458
-0.53500462 -0.63664699 -0.10286736
0.73134732 0.54138112 -0.08768963
-0.29909852 -0.74875534 0.26491803
0.86829507 -0.36841333 0.07281709
-0.04941791 0.31955108 0.69152009
-0.34893548 -0.70781243 -0.07486834
-0.85205281 0.46039212 -0.00006607
-0.70287859 0.40176529 0.25994629
-0.59766173 -0.11437079 0.68175864
0.21110579 -0.25677630 -0.75680399
-0.53574836 -0.64220452 -0.01376158
0.67549348 0.15614337 -0.51040530
-0.21279810 0.15436442 -0.79891896
-0.28024390 0.43563506 0.67063451
0.04149477 -0.29731581 -0.75123322
-0.08078947 -0.27868730 -0.75213182
0.34324580 0.53167903 0.47214624
0.18551745 0.41134369 -0.69413042
-0.64399588 0.06581045 -0.48579410
-0.16417430 -0.33875677 0.71969795
-0.66266370 0.03366106 0.39039165
-0.46603268 0.39442942 -0.51036274
0.52131617 0.32584232 -0.52504241
-0.78963697 0.12725450 -0.10038308
0.51905549 -0.40057760 -0.45910445
-0.40640765 0.67809093 0.23830612
0.74873912 0.55915272 0.10023834
-0.04342329 -0.79428661 0.00020057
-0.34557238 -0.71411550 -0.37598535
-0.78849566 0.31125048 0.11824232
-0.00725973 0.48237035 -0.64657021
-0.52317607 0.07463092 -0.78625131
-0.24986100 0.10702270 -0.80381155
-0.20806168 0.78393722 0.37691623
-0.59182656 0.62608087 0.20846169
-0.40387943 0.09022577 -0.81898320
-0.54610765 -0.63913071 -0.23203528
-0.52738547 0.51671934 0.26758638
-0.66161931 0.13219246 0.55612659
0.20898874 0.38893238 -0.73356295
0.51732969 -0.30783552 0.56597865
-0.10645328 0.08574619 0.81738889
-0.13410619 0.78156257 0.49552906
0.57763422 -0.54023099 -0.19234405
-0.51028895 0.38381183 0.49638677
0.06428868 0.82302535 -0.28263628
-0.67988551 0.43008912 0.25479493
0.39677197 -0.55991256 -0.42286935
0.50193834 -0.59649348 0.32497790
0.40770769 -0.52446997 -0.46572840
-0.79665983 -0.04999584 -0.15319058
0.61255670 -0.50828850 0.19766554
0.72382843 -0.51934159 -0.15693508
-0.76929235 0.02139998 -0.09179234
0.64551127 -0.61531401 -0.16172145
0.19428937 -0.54573178 0.67025936
-0.64703536 -0.00898836 -0.52193570
0.30764458 0.52774692 0.50050783
0.09763435 -0.82244158 0.39250785
-0.28282505 0.13651307 0.80778158
0.19906294 0.05812092 -0.85783505
0.46823707 0.09812441 0.82335842
-0.75334561 -0.46449095 -0.15080610
-0.46867976 0.00529682 0.82349420
-0.33071494 0.71570945 -0.17157166
0.21922362 -0.78044605 0.33141798
0.09934314 0.70346582 0.58597136
-0.64263141 0.38706025 -0.35075316
0.44476253 0.67180490 0.28555226
-0.04383298 0.85155296 -0.28974107
0.51426244 -0.51292825 -0.40675077
0.25555626 0.52585685 0.63862467
-0.67017567 -0.19295056 0.45171842
-0.64418983 0.10474657 -0.60159016
0.69003582 -0.10504280 -0.41427732
0.68130863 -0.09858276 -0.33279255
0.78075016 -0.32323352 0.10107306
-0.37685958 -0.60685933 -0.37855294
0.46448225 -0.39081347 -0.50653267
-0.33703342 -0.03712077 0.84777427
0.61649728 0.47177926 -0.27425489
-0.76757073 0.36247155 -0.21316789
0.37272382 0.33359993 0.69741035
-0.65557742 0.17166701 -0.46934170
-0.50770819 0.20615242 -0.75053763
-0.42375523 0.37911516 0.60153580
-0.14333409 0.58798635 0.61715841
0.09572773 0.81472659 -0.32672307
-0.20358029 0.79463327 -0.08712154
-0.12282951 0.41415402 -0.66483784
0.01651998 -0.83369744 0.27163213
0.61685491 0.37942886 0.34332728
-0.12226726 0.15630087 0.81555760
0.40240413 -0.28425291 0.64995277
0.05357523 -0.51047456 0.66753638
0.20249259 0.29699582 -0.71961749
0.42595536 0.40497884 0.53119636
-0.44408730 -0.67146897 -0.11219166
-0.58964634 -0.34688193 -0.42741203
0.45110708 0.49016756 0.48070478
-0.67276847 -0.05296417 -0.42602193
-0.15818553 0.77772844 0.09803945
0.55121827 0.54474485 -0.31581846
-0.54573739 -0.11086281 0.74487293
-0.18802534 -0.66288102 -0.54581571
-0.85505044 0.28281572 0.00312944
0.55807924 -0.01672238 0.75164473
-0.22052208 -0.76740241 -0.26954150
0.69966936 0.29485208 0.42124775
0.69054520 0.52915096 -0.11897284
-0.33270952 -0.50228810 -0.54064643
-0.55568206 0.59701002 0.06683462
-0.30886152 0.74872494 0.04776415
-0.52431512 -0.01536977 -0.85567641
0.33870456 -0.27998286 -0.73537004
-0.26082489 0.59107459 0.57397068
0.26227614 0.54891562 -0.57253695
-0.16499390 0.77489889 -0.45841721
0.03658831 0.77303398 0.53378582
0.04687683 0.86832452 0.50546288
-0.08963948 0.29463789 0.73347270
-0.03747243 -0.82400131 0.08182558
0.62418044 -0.63484836 0.06219713
0.59925842 0.63362992 -0.08051969
0.43375212 0.00271465 0.83887649
0.68594909 -0.37591863 0.35566252
-0.59046185 -0.41492659 -0.36343566
-0.01349987 -0.00818212 0.84753883
0.77174413 0.09899261 0.24234118
0.64909005 0.40087196 0.30368507
0.38573986 0.64763463 0.38046184
0.66264439 -0.39642546 -0.29926673
-0.10484163 0.32939091 -0.69311273
-0.17691696 0.06368648 0.83136964
0.83013642 0.30987063 0.00773520
0.79220295 0.23356117 0.04868827
0.05671041 0.83255899 0.05451283
0.48549095 0.63677323 -0.16673778
-0.58081734 -0.46471757 0.32266462
0.33917350 0.69363272 -0.24542655
0.16350773 -0.80429924 0.17711402
-0.38152853 0.57730889 0.44567353
0.69603896 -0.07647772 -0.44865295
-0.14964215 0.03848939 -0.84103286
-0.32176358 -0.69471693 -0.37292501
0.75032544 -0.57841790 -0.07722268
-0.19198292 0.73050749 -0.47224525
-0.83291566 -0.24592181 0.03163977
0.50193155 -0.03059554 0.85355794
-0.59956908 0.01723548 0.70101583
0.52561915 0.25273696 -0.63234019
-0.79087782 -0.15556881 0.12421113
0.54914820 -0.18539064 0.64080894
0.70870256 -0.05730925 0.37156105
0.04665710 -0.82222831 0.12093471
0.31743214 -0.30073828 0.75102627
0.83157504 0.42810994 0.04707881
0.40002215 0.24005319 0.70072150
0.07439622 0.85377431 -0.41419840
-0.36667377 0.56314468 0.46405014
-0.26300260 0.34079427 0.75091541
-0.04040120 -0.84291387 -0.08806150
-0.27815253 0.73326755 0.36987671
-0.45546496 0.25962138 -0.69582725
-0.72052133 0.46992442 -0.18321955
0.06220352 0.83950043 -0.12364016
0.59818959 -0.58585215 -0.18593358
-0.78202784 -0.35251281 -0.13895698
0.17715721 -0.09835053 -0.81995106
-0.37978235 0.39442733 0.56567550
-0.16453563 -0.51674736 0.67456591
-0.09111198 -0.84416437 -0.24972250
0.26346341 0.64970815 0.48552918
-0.77958047 -0.47753090 0.08824272
0.09828135 -0.42615995 -0.66613042
0.52019680 -0.42612007 -0.47503892
-0.57709122 -0.56505477 -0.23543967
-0.50529230 0.57370293 -0.29704016
0.38124609 -0.71981907 -0.25872675
0.32306811 0.61144459 -0.48180014
-0.41498443 0.61564934 -0.41085377
0.28507939 0.76702845 0.08350783
0.78967619 -0.54607260 0.00300413
-0.72509313 -0.32235363 -0.29818848
-0.33876875 -0.22153515 0.80688369
0.61984110 -0.13277356 -0.63314140
0.70626116 0.13264182 0.35748193
0.66236007 -0.56417012 0.17366566
-0.02345532 0.46836406 0.68892133
-0.83153808 0.21626821 0.01029625
-0.15651219 -0.79018962 0.14605470
-0.79267931 0.04218656 0.15798028
0.11073408 0.44375730 0.68891144
-0.27533492 -0.48619628 -0.59213364
-0.30690682 -0.72001159 -0.03540538
-0.64975238 0.49446112 0.22661404
-0.03914309 0.86212444 -0.22862171
-0.31695578 0.75921321 -0.16707183
0.74711001 0.11009102 0.40363643
-0.21257387 0.70787692 -0.44953516
-0.21937297 0.75329161 -0.40377367
-0.73876667 0.51334870 -0.13819620
0.28407723 0.65447056 0.45619199
0.61534750 -0.31731862 -0.44767493
-0.44583866 0.07659078 0.85280526
0.11757151 -0.62197280 0.58187664
-0.33139095 0.30398276 -0.73223209
-0.78330338 0.41865894 -0.12118477
-0.29845396 0.74614561 0.05089916
0.56786132 -0.61904407 0.00686824
0.70359254 0.39854702 0.33273485
0.03911086 -0.34968290 0.68037844
-0.02628479 0.84459674 0.38261893
-0.49820191 -0.61703455 0.29176930
0.00217810 0.76968479 -0.55664706
-0.78521407 0.53319359 0.08167698
0.31674042 -0.23630027 -0.74784780
0.77101314 -0.38554525 0.25375837
0.26747191 0.72962785 0.27804071
0.57182193 0.54282999 0.22827388
0.11766659 -0.66629553 0.59271240
0.70448828 -0.46746263 0.16866735
-0.72903430 0.20047526 -0.27518880
-0.28382540 -0.14677785 -0.80417991
0.38222897 -0.59342587 0.41158381
0.30777201 0.73857677 -0.11101457
0.44011888 0.64661551 0.30772254
0.09321086 0.64287877 0.61553168
-0.58230484 -0.38912442 -0.42102900
-0.34048587 0.72117555 -0.21257602
-0.45794985 0.69616604 -0.13302130
-0.38549656 -0.41754088 0.60969460
0.64622092 0.57203102 0.14248136
0.39459413 -0.11574208 -0.85353148
-0.34655064 0.38071445 0.62891912
0.30707988 -0.73668146 0.26484492
0.31516886 -0.72726750 -0.26896805
-0.05939377 -0.84465921 -0.53798163
-0.55159390 -0.63109970 -0.19214499
-0.66595173 0.13834010 -0.41989374
0.60446179 -0.02219857 0.49565139
-0.58582556 -0.23892178 -0.60396993
-0.59520030 -0.63358510 -0.07977244
-0.19433747 -0.73451984 0.08266100
0.77195263 -0.36298639 -0.21970539
-0.45533949 0.71240079 -0.28221941
-0.30398104 0.49392435 0.65148306
0.33458811 0.51939774 -0.50769472
0.00745161 0.85687077 0.27154478
0.77405787 -0.40280607 0.19538279
0.33870485 0.69153392 0.33457336
0.84330380 -0.51637328 -0.04369107
-0.30840650 -0.07902650 0.83085012
-0.39429721 0.46461138 -0.52536190
0.65378463 -0.41131657 0.28962037
-0.36989301 0.42211121 -0.62847853
-0.70854819 0.03065131 -0.38686371
-0.32145551 -0.17806172 -0.79466975
0.33782467 0.33240080 0.70267928
-0.09194925 0.77640319 0.48905408
0.04167505 -0.21093431 0.79716301
-0.56874120 0.10648448 -0.74745846
0.28168556 -0.02517620 0.84192312
-0.68845677 -0.11578024 -0.42665684
-0.09797597 -0.82184148 -0.23091370
0.72971642 -0.24302690 -0.32317099
0.72162580 0.36420313 0.31692246
-0.11826012 -0.53622949 0.67557395
-0.83249784 0.20988141 -0.13356522
-0.62668526 0.49595824 -0.24099708
-0.70972133 -0.06066246 0.45850253
-0.59891343 0.64194584 -0.09532792
-0.84265256 0.01044908 -0.05406275
-0.39063329 -0.24839923 -0.71896672
-0.71573627 0.53683329 -0.15338944
0.72080374 0.01968437 -0.35591859
0.66870368 0.28988847 -0.44774282
-0.24278669 0.77356339 -0.11397415
-0.00478367 -0.62295187 -0.63420236
-0.29313692 -0.01078135 -0.81273317
-0.85053241 -0.47887558 -0.04091865
-0.70173752 0.25292084 -0.31438559
0.49138951 -0.08907337 -0.80017388
-0.75490761 0.15576515 0.19668882
0.80217040 -0.14764595 0.03565402
-0.25396502 0.40363374 -0.70093644
-0.66143525 0.07118449 0.47730044
-0.45425621 0.72427666 0.12251668
-0.42681760 0.66607189 -0.29101592
0.52741051 0.24148846 0.64192569
-0.31025863 -0.74375832 -0.34020558
-0.51262963 -0.69025052 0.03796323
-0.60005224 -0.30712268 0.49263221
-0.68326759 -0.14010175 -0.35854292
0.67010665 -0.12318853 0.39812288
-0.40188563 0.20129026 -0.76488531
0.35294488 0.00072999 -0.82628131
0.65620947 -0.33558601 -0.40031174
0.39035642 0.40500715 0.61362541
0.66029072 0.56524503 -0.17564097
0.31744918 0.53603256 0.48977965
-0.41187990 -0.16457433 -0.79132307
-0.42357919 -0.47130921 -0.42835867
-0.76933086 -0.27820393 0.28173670
0.81391931 0.52599621 -0.04609170
-0.55378139 -0.60780096 0.06895333
-0.47372630 0.48862049 0.43950954
-0.18360159 0.12097892 0.79413939
0.22803357 -0.62879276 -0.49923214
-0.67360258 -0.20500666 0.45408475
-0.07663792 -0.84950352 -0.24587753
-0.65859199 -0.41225940 0.24914256
0.63527107 -0.28350851 0.48278147
0.23985472 0.30190471 -0.75967634
-0.77836597 -0.41150644 -0.14631264
0.02444607 -0.19591592 0.74425077
-0.57140684 0.41224819 -0.35516590
-0.04922448 -0.04068194 0.88048172
-0.63477457 -0.22583458 0.49994326
0.42636076 -0.65920913 -0.27450722
-0.42976031 -0.39344606 0.61126316
-0.22853021 -0.48482272 -0.65099978
0.77681327 -0.14437012 -0.15494917
-0.23607498 -0.78538179 -0.07336867
0.33379394 -0.68378723 -0.03158536
-0.65417266 -0.56855309 -0.13147753
0.81009066 0.51989985 0.11223809
0.65820086 -0.02148650 -0.59785485
-0.67843151 0.38044283 -0.33845234
-0.26694423 -0.66205442 -0.45681131
0.47770628 0.12646571 0.77145267
-0.10024754 -0.06239024 -0.84703922
0.33720306 0.72258055 0.37255096
0.71806383 0.10014530 0.32621351
-0.41844228 0.31065795 0.61767101
-0.65789366 -0.30005774 0.43514162
0.12883110 0.67871463 0.58683670
-0.69212556 -0.20527650 -0.36655235
-0.08289598 -0.21794860 0.78935754
-0.74375999 0.26997688 0.32993963
-0.40960607 -0.30937108 -0.62696207
-0.41181329 0.69312274 0.28695056
0.09297367 -0.81631207 0.37206897
-0.57682693 0.24788305 -0.63054979
-0.37087056 0.48586944 0.59508371
-0.70289612 0.05426428 -0.41638580
-0.35252029 0.30203265 -0.72518694
-0.57790804 0.34528694 -0.40350842
-0.38288331 0.74360371 0.21231662
-0.57662618 0.02117920 0.83686912
0.48816773 0.61910176 0.23184030
0.62560070 0.10373373 0.59420586
0.43633613 0.60632193 -0.34529349
0.64585972 0.35037959 0.35286900
-0.25959843 -0.72742534 -0.30559188
0.41113070 0.69819677 0.22189362
0.06521596 0.80761623 -0.03278993
0.73656082 0.30238217 0.34675726
-0.59830773 -0.01631095 0.67605400
-0.71972632 -0.59309828 -0.02298166
-0.55511582 0.05449365 -0.73275936
0.33867261 -0.74746120 -0.01385715
-0.18071793 -0.11208476 -0.83811986
0.44427618 0.05204827 0.78667200
0.47873205 0.67636311 -0.03786104
0.22032675 -0.08535676 -0.76045239
-0.34766993 -0.56589699 -0.51609898
-0.79851723 0.04287017 0.13946584
0.70237958 0.39982706 -0.26835647
0.10614213 -0.58668447 -0.59302449
-0.26780251 0.42239219 0.67914796
-0.58550382 -0.54033411 -0.28388166
-0.10020667 -0.80692458 -0.12590085
0.41249654 -0.68925500 -0.25243226
-0.56203139 0.65983677 0.15855157
-0.77701521 -0.41457415 0.22822385
-0.71009648 0.46474236 0.18401717
0.17911871 -0.35728633 0.75387967
-0.66160500 0.30680931 0.43011734
-0.08451474 -0.11072836 0.84671795
-0.48692003 0.29772756 0.56685984
0.38036954 0.48689783 -0.49210870
-0.29594025 -0.20270695 0.77262545
-0.61126924 0.33997643 -0.43624616
-0.47693905 -0.51221395 -0.33412755
0.18745339 -0.16042846 -0.77625394
-0.21913189 -0.75947392 0.39097315
-0.08789547 -0.22980610 -0.78812575
-0.01059546 -0.66039383 -0.59310436
-0.03677142 0.20995495 0.77558589
-0.74506843 -0.04468128 0.24214180
0.20388153 0.55851471 0.59923291
0.06223840 -0.47804609 -0.70186448
-0.65871012 0.27853441 -0.39665589
-0.68871820 -0.03220623 -0.42352095
0.39822361 -0.73977244 0.16925456
-0.48097292 -0.10598461 0.79514194
-0.30115905 0.34395757 -0.76323390
0.06700646 0.82239151 0.16789338
0.28771296 -0.48751938 -0.61831152
-0.78688347 -0.39688697 0.17459148
-0.46483797 -0.54135299 0.41007099
0.64455235 0.44605032 0.25284293
0.03275074 -0.50807822 0.64530516
0.56579340 0.16302982 -0.62386572
0.29575485 -0.28002661 -0.71065378
-0.11210487 0.40771523 0.70893025
-0.35260651 0.15367463 0.79422474
-0.49294394 0.12286594 0.80467188
0.41981381 0.67448735 0.01097008
0.78704131 0.27258450 -0.22149138
0.26413414 0.22796969 -0.75568879
-0.13171339 -0.82156193 0.48426664
0.01881359 -0.85065687 0.31100222
-0.26819015 0.19518335 0.79255998
0.54220474 0.11984033 -0.65325677
0.51737416 0.26623499 0.57367575
-0.38043103 0.75221753 0.13266991
0.81796801 0.15842427 0.12400652
-0.48018524 0.56242990 0.35270143
-0.76379561 -0.22098163 -0.18633834
0.32388872 -0.71242678 0.24911179
0.05776257 -0.42053011 0.69557500
-0.02100235 0.85636985 -0.06452947
-0.65428817 0.33509639 -0.42130730
-0.41032207 0.72781229 0.05329422
0.81391346 -0.01143382 0.19834749
0.06308624 -0.80522907 -0.23258731
0.37450176 0.72750223 0.25765961
-0.43163601 0.24066533 -0.70477581
-0.26738966 -0.44912940 0.61230028
0.68236387 0.44063786 -0.28051010
0.12099413 0.37988037 0.73316395
-0.30600792 -0.74939942 0.21184987
0.68475866 -0.39267260 -0.29359776
-0.14080310 -0.84323347 -0.21168146
-0.36187792 0.68979299 0.31172714
-0.55975866 0.48471940 0.36920384
0.75395155 0.29554605 0.32230595
-0.52455831 -0.28351596 0.54878271
-0.83290708 0.36349851 -0.05859099
0.72680473 0.32792956 -0.25240132
0.59006834 -0.31036094 0.49601120
0.34494960 0.31702402 0.74859583
-0.52205849 -0.09974793 0.74362373
-0.74657607 0.01470538 0.19583045
-0.83417737 -0.12846905 -0.09911906
-0.39713675 0.69840920 -0.08152248
-0.56549180 0.51836252 0.30395865
0.56911755 0.65693831 -0.10898587
0.72033656 -0.19713618 -0.33222187
0.19769636 0.04039301 -0.88007367
0.77836561 -0.52153230 -0.08802809
-0.42337039 -0.58851254 0.42328069
0.52126646 0.31751215 0.52357209
-0.49541551 -0.66212618 0.03749581
0.10853969 -0.57221937 0.62456119
-0.26798892 0.32712469 0.71689963
0.66640496 -0.44599006 -0.27130377
0.56278706 0.55753875 0.33450988
-0.08107512 -0.83356571 0.46472806
-0.56749654 -0.62444592 -0.11205346
0.15014103 0.81501102 -0.03929953
0.27716368 -0.29688391 0.73053384
-0.17712998 -0.78177488 -0.15649593
-0.81259060 0.20737436 -0.05271414
0.73184824 0.34047404 -0.27555284
-0.12731826 0.56759512 0.65963197
0.49656126 -0.55321050 0.32911333
-0.45534459 -0.66963577 -0.29175436
-0.23220545 -0.76885116 -0.37481523
-0.30367246 0.57038963 0.57947767
-0.81977093 -0.28745490 0.08823085
-0.08124124 0.18962239 0.78087759
0.13768214 0.34637043 0.71335518
0.48382086 0.07786229 0.83306777
0.63544714 -0.20677099 -0.50893307
0.70561063 -0.22141556 0.36491498
-0.74509263 -0.39643776 -0.25512674
0.23400989 -0.74654603 -0.23718582
0.23601113 -0.72795701 -0.38365030
0.31086412 -0.59598863 -0.44522530
-0.68420875 0.06479461 -0.34930742
0.55055857 -0.23854184 -0.60647678
0.85285902 0.12910798 0.03813008
0.54441249 0.04014543 -0.80258143
-0.19116364 0.23792501 -0.75495803
0.11205582 -0.81592858 -0.41196728
0.58147311 0.54507387 -0.26379499
-0.77178597 -0.54215419 -0.00851495
0.24964410 0.76286340 -0.03335968
-0.17979023 -0.71057427 -0.53099906
0.55417633 -0.11503793 -0.65563726
0.57459319 0.57666886 -0.24565829
0.08146352 -0.74671841 0.53707802
-0.29942182 0.10173724 0.78271115
0.53915942 -0.58497214 -0.26931790
-0.47698829 0.62347281 -0.26919526
-0.10008233 -0.38419199 0.70365083
0.10269693 -0.19116928 0.78009868
0.86312985 0.03888019 -0.00320503
-0.29081184 0.53858125 0.49147028
0.23201072 0.79220676 -0.09852987
0.66188335 0.12675194 0.50283694
0.56693339 -0.63321602 0.19847308
-0.39053231 0.71355331 -0.10728204
0.66420412 0.06561271 -0.49577630
-0.19575906 -0.16534726 0.79247797
0.07733679 -0.23387952 -0.75808060
-0.58476591 -0.54519379 0.29453292
-0.47289118 -0.20696621 0.68963420
-0.71435785 0.30955592 0.31716248
0.73946106 0.15951163 -0.24721989
-0.67822254 -0.00898039 0.43338197
-0.46272567 0.15502706 -0.71628153
-0.66147113 -0.62707770 0.11304627
-0.52440441 -0.49382734 -0.38692805
-0.53420448 0.40352193 -0.43673009
0.76587260 -0.00777034 0.16577195
-0.40603501 -0.24742217 0.76512718
0.47951534 0.50817251 -0.42389628
0.63334787 0.41837913 -0.31749299
0.44021162 0.45373309 -0.46788025
-0.27961713 0.73820937 -0.16709886
0.58315420 -0.58645058 0.20233391
-0.65871334 0.01813517 0.51938176
-0.02862207 0.53797281 0.61229300
-0.14170499 -0.48321354 0.67512846
-0.06034056 0.45483723 0.67902613
-0.09712667 0.13619083 0.78720427
-0.76726866 0.18083027 -0.22578453
0.02879149 0.47718915 -0.70948124
-0.08320442 -0.80607712 0.40996900
0.36251143 0.43268827 0.59259951
0.17721558 -0.00456013 -0.83080161
0.23870289 -0.09081712 -0.86423242
-0.01254163 -0.51297033 -0.63783836
0.07443630 -0.11328895 -0.77612400
-0.61031044 -0.60011625 -0.17385079
0.36149058 0.33953729 -0.70408368
0.47812840 -0.46112955 -0.43140274
-0.63214791 0.63122261 0.06505896
0.45467746 -0.64155507 -0.24583416
-0.28743342 -0.76069760 0.17607979
-0.45249209 0.53158188 -0.34801078
0.61120915 0.43790036 -0.35403413
0.10151103 -0.84201896 -0.44301265
-0.27748764 -0.04995303 0.81138587
-0.24492541 -0.68836868 -0.49918574
0.24644071 -0.74864864 -0.36458841
-0.29679966 -0.51580048 -0.62451100
-0.25855929 -0.55843687 0.50378263
0.01315765 0.24832551 -0.77110970
-0.40356407 0.43315318 0.56199145
0.48465908 0.60062146 0.35327524
-0.42242089 -0.49789813 -0.44045505
-0.18936993 -0.71514904 0.45986244
-0.36708337 0.50625551 0.51741028
0.00282031 0.01324301 -0.83318615
0.30863738 0.41113418 -0.64161730
0.01561731 0.88630068 0.52674234
0.85786664 0.38326770 -0.00218487
-0.72159111 0.49641505 0.15699126
-0.48551750 0.30356935 0.58539081
-0.60830283 0.24950802 0.50660932
0.14056841 -0.76157641 -0.48196933
0.76228201 0.05443650 0.25479609
-0.17055075 0.78990018 0.40501589
-0.72302949 -0.05747383 -0.28234112
-0.82020438 0.11213776 0.14256445
-0.62114036 -0.50927734 0.26101544
0.76264215 0.08990921 0.15519923
-0.04690487 0.19903287 -0.79109657
-0.49284503 -0.70539463 0.15619594
-0.21097261 0.31878951 -0.73754752
-0.48310947 -0.65011477 -0.23058036
-0.05071533 -0.22130562 -0.71375430
0.77288187 -0.38527793 -0.23958014
-0.07179880 -0.18459032 -0.75484562
-0.34337911 -0.70085359 0.07931148
-0.61772561 0.07146313 -0.67604458
0.71781731 -0.44010496 0.27379078
0.65124416 -0.43534723 -0.27292508
-0.52848208 -0.44326952 0.43036228
0.58259630 -0.35476694 0.51265252
-0.50148666 0.16270372 -0.66991413
0.39531544 -0.60179436 0.38049102
-0.65428853 -0.26163256 -0.48344073
0.08366494 0.83179736 -0.10629257
0.74590623 -0.14753403 0.25613552
-0.86038065 -0.25959805 0.04631404
0.44706979 0.21926066 0.67994857
-0.52319670 -0.22506368 -0.64190042
0.49759048 0.21377879 0.67775583
0.22728135 -0.73320937 0.37847227
-0.23857324 -0.61882901 0.54099739
0.66996610 0.05744580 0.50710583
0.44892520 -0.27097335 0.70364630
-0.34502283 0.08397512 -0.85102034
-0.65848100 -0.28762713 0.36366162
-0.25881651 0.14435390 -0.80193222
0.78277171 0.24791394 0.21664381
0.10113789 0.59163165 -0.60516000
0.24826339 -0.64335525 0.47336230
-0.77647316 0.39496678 0.17405981
-0.84623730 0.16556285 -0.05607505
-0.44725975 -0.71445715 -0.12468562
-0.13743033 0.12967333 0.83720791
0.13156521 0.46415579 0.69877255
0.63802159 0.30944195 0.47257924
0.71687686 -0.32721582 -0.26989773
-0.68094373 -0.33161005 0.39437166
-0.76590359 0.13595687 0.21268187
