14.75012207 -31.15151978 15.42739773
27.68883514 6.31992340 17.99068260
-0.48445892 -32.23047638 -6.96070290
26.58382797 -11.60453796 37.33972168
34.38211060 1.17393875 39.11529541
25.98366165 13.02405167 24.01700211
25.45948792 -36.78448486 6.61632729
37.53206253 8.20731735 34.38186646
0.34852219 -27.64261818 0.49839973
37.27826691 -30.33888626 36.00973892
15.07794571 -40.83584595 20.04304886
14.59033298 -16.48521042 24.78290939
40.46437836 -16.53919411 43.41764832
4.56620407 -23.86745262 16.20951843
20.33670044 -43.54387283 26.42724609
5.16863632 -17.22894096 -1.60861778
40.77607346 -22.41064072 36.85229874
25.61408997 -20.14500046 41.00503540
40.11994171 -19.90718269 30.04615593
12.04503822 -33.01661682 -4.36440086
10.82764626 -17.18350220 -1.58693886
36.96971130 5.46569824 24.18639565
18.42742920 -28.48591232 19.08915520
4.95121956 -28.22932053 -4.55509758
6.07910824 -12.53974915 9.52068233
6.09823418 -41.06425476 3.28771973
34.64824677 -15.18755531 26.20566368
13.86768532 -35.26148987 16.30262375
29.59976768 -11.40388680 40.69223785
15.69965935 -15.55250263 30.55916786
38.89503860 -30.88262939 20.27480316
16.25898743 -34.54423904 34.90666199
23.64039230 -8.71714115 31.06300545
17.92557335 -13.32660294 29.96548843
22.94899178 -40.72538376 18.70363617
15.05362701 -8.68709564 22.93746376
38.66855621 -11.80398655 33.60746765
22.08770752 -8.32755280 13.98296070
44.10926056 -37.18125153 49.77213669
35.81201172 -12.62633801 29.16018677
-5.40474510 -24.48090935 0.53754234
41.55719757 10.95709038 40.33490753
27.26131630 -15.59999371 35.84626770
35.26372910 -11.66403389 26.76885986
19.00993729 -6.96689129 18.50916481
36.98965454 -37.70696259 27.29745102
8.85767841 -27.65912819 20.39226532
37.37999725 -21.32731628 44.67096329
3.87819672 -30.85668755 16.04749298
44.33669281 -25.63549614 36.39474869
31.50376129 -19.59500694 43.38512421
1.92970848 -25.57091141 12.66509628
18.41975403 -43.34117126 20.96280479
18.95290756 -34.03896713 13.44500732
10.77678967 -39.93483353 -1.52956963
6.15078259 -27.88167381 -7.70895195
38.83210373 -19.08477211 42.88005829
40.79994583 1.86445999 42.72245789
21.18385506 -38.34088898 32.92330551
10.50566864 -8.55202293 13.20885754
31.69411850 -28.47131348 41.70119858
14.62179375 -16.89062691 26.11911392
16.65955734 -33.15665054 -1.61065102
25.75600243 1.80614853 31.14618874
17.13448143 -43.00527191 20.47013855
18.42506409 -39.81320190 11.39077282
17.91037178 -4.92547512 18.19468307
22.93968391 -4.45476723 29.30711937
47.32421112 -35.40470886 45.23390961
22.61993027 -26.61138535 4.76087189
41.01587677 -2.02103996 40.18229675
10.29981041 -15.09037018 18.76943970
33.98609161 -35.71958923 18.68693352
4.55030251 -34.99439621 2.12453270
5.57933998 -34.46380615 4.93846512
48.89179230 -38.67237091 50.54036713
12.11407948 -39.15731049 -5.52937698
23.72913170 -34.12478256 22.40834236
32.73475647 -21.04584694 16.25834656
17.93418121 -28.90098953 31.99051857
21.46048737 -34.33776474 7.86216927
48.18842697 -41.56703949 52.29775238
11.25589371 -31.91422272 15.45855904
44.55223846 -29.16928864 38.84152222
27.16469574 -40.63731766 21.55836105
29.92693901 10.71004868 33.00468826
18.70611572 -42.86879730 29.76196289
4.05442047 -23.02598190 15.40766144
18.47902679 -22.16721725 32.86062622
31.48202896 -23.09165573 42.70558929
2.53103447 -16.23779678 14.13097763
7.76747990 -31.47072792 18.13647461
22.37232018 6.61528778 27.01481247
19.30583191 -30.95324516 10.27261543
14.64681816 -11.84837818 27.05695152
21.63945389 -39.43647003 20.31837082
18.17076683 -41.42531967 27.99380875
18.95084572 -13.86943913 4.24437141
26.38406754 -15.32485390 39.41267776
24.35289764 4.73991013 31.52980995
36.20906067 -32.76321030 21.99151802
23.01376343 -8.19613266 26.06834793
6.84489441 -24.92108154 -4.58144379
15.84981346 -33.80886078 12.06993294
18.94273376 -13.65891075 31.19611359
3.79043007 -35.62093353 15.81580162
15.19118118 -12.74607182 25.92060280
31.63144875 -27.63394165 42.17156982
29.02046204 -38.52845001 26.15808868
46.18502045 -28.98854065 41.25550842
-4.40584946 -20.56913948 -7.31431007
10.17524910 -12.58595753 18.88963890
43.33666229 -21.47525024 38.00151062
18.31724548 -42.58239746 35.65442657
44.44095612 -31.24512863 48.48302460
16.82999039 -45.55643082 24.10519409
20.57204056 -8.28927135 14.64628315
5.27850151 -33.61428833 17.10611343
39.57975769 4.02305222 29.73433685
22.58752823 -40.05747223 36.77928925
38.20698166 -33.27214813 20.70808029
23.38294792 -17.78741646 3.76835442
13.09158230 -18.93632889 25.44383240
-2.73345184 -33.96841431 1.90674019
9.46090221 -30.92479324 19.97167015
47.41508102 -29.62126923 42.89303589
31.90204048 -18.57232857 43.93960190
0.71471596 -26.03353691 4.23404121
-2.89541626 -25.20829391 -7.62227249
3.55310249 -17.83985901 12.18848801
37.72664642 1.12224007 40.06751633
26.19201851 -11.30741787 37.17675781
2.43128395 -39.46453857 13.36994743
35.29698944 -27.58112717 21.69997406
15.43801498 -26.99277878 19.18196106
11.76530838 -35.54855728 15.56615925
43.40414047 -35.31114960 49.71047974
-1.40412521 -36.19750214 2.89863396
9.07387066 -17.81458855 22.38737488
48.37162781 -40.27277374 49.27969360
3.36375809 -34.41197968 -3.34706497
-4.68661880 -26.23136520 -1.22875595
17.44810295 -15.05451012 28.64949417
2.80527878 -26.03367233 16.20638657
26.31942368 10.45388222 31.84020615
2.69765854 -14.04552269 -2.79102516
9.97620106 -40.45620728 18.41770554
21.52267075 -40.46145248 29.65129089
19.31000519 -36.58750153 21.08055687
18.48042107 -31.25036430 20.44994164
17.67182350 -8.13618851 24.10862160
11.75074577 -8.17484283 17.27532578
4.80580330 -35.41394806 -1.43773460
29.03774071 -42.51595306 15.83149242
16.23234177 -42.44132233 3.54316330
24.66374207 -35.19381714 21.14127541
32.14879608 -40.25994110 24.13658905
25.06881332 -39.21807098 41.03540802
17.21686935 -28.89754105 1.47666740
29.68838882 -43.68131638 20.17457199
11.08626366 -7.32842922 6.96297359
37.98246765 -16.81026840 27.50221634
28.65198135 10.30027962 21.94784737
28.26844215 -31.26669502 45.22374725
47.14921570 -35.39236450 44.84129333
28.64213181 10.78697014 22.53221321
35.63818359 5.84782982 25.35690689
41.00206757 1.35153580 42.61989594
11.65304947 -8.30129051 8.57644081
43.52168274 1.82737350 34.34468079
-0.17203522 -15.18656254 9.34662724
19.18951988 -5.39403343 19.14709854
32.47824860 -31.33621979 43.83798599
31.62056732 -17.87674332 17.57175446
15.50310612 -32.20631027 21.98062897
31.33763123 12.87140656 29.92317963
9.10549355 -39.90736008 17.28098488
30.11972809 -43.00971603 19.53442955
27.79101944 5.03067207 14.24772549
32.44009781 -36.74121094 21.63256836
7.71513081 -11.15742683 9.58833694
3.51510239 -24.88693237 -10.90497398
26.14203262 -36.08731842 45.05657196
-0.12430382 -32.60086060 0.88882637
41.52025223 -20.82572174 35.71253586
25.50719452 -24.78805161 39.69004440
10.66677856 -22.73797607 22.46590805
-4.29599380 -27.55861664 0.82080650
27.57447815 -41.05033112 17.31315422
21.46394539 -32.41868973 40.10250854
36.62512970 5.11114311 26.16606522
21.48235321 4.60231400 24.14487457
41.54774857 4.78808212 34.91550446
18.19888306 -8.27536392 23.36734962
-0.67258644 -12.32127094 -4.90595436
25.11540604 1.44577026 17.32872581
6.06367683 -36.62958908 3.05286980
31.96296501 -17.13931084 42.17147064
42.69200897 0.24454117 33.48661804
24.44308853 -11.28023243 34.37200546
16.21196938 -41.63218689 23.12836266
18.21706581 -26.41807938 0.91949463
13.91558456 -42.23038483 22.13562965
11.28294373 -42.93593597 16.04800034
29.42224884 -28.65161133 15.73708820
1.32990074 -36.14958572 14.50670433
9.77593517 -40.82637787 5.60398674
9.75876522 -36.02809143 24.31842804
38.94048691 9.36536980 27.83523941
50.82258987 -35.98658752 45.43402863
-0.80026817 -24.52928543 -9.29837799
41.06452179 -3.90060329 36.74661255
1.43673134 -29.90367889 -2.63238144
18.55056953 -5.34956074 22.21711159
22.85807037 -17.18041039 38.52324677
11.68125343 -24.04511833 22.32464600
29.26128006 -0.15916443 35.28818512
31.25894928 1.81878090 39.31500244
27.36780739 -13.03543186 37.01555634
37.72840881 -2.03331184 32.78918457
13.24629021 -34.27182770 17.12335777
2.32386017 -33.96177673 4.46494865
19.99097633 -6.54961395 21.97649384
12.62923622 -12.22322369 3.55823898
20.56204414 -32.73372650 22.84101868
19.45055962 -16.19177246 3.68791580
-5.09100342 -24.96869278 2.85538101
19.01335716 6.29246521 16.56607056
39.97900009 -27.55541229 27.16635895
31.30637360 -41.04809189 14.44959545
27.54893875 -38.69485474 12.69643021
8.58369064 -19.76398468 -0.37205505
42.47069550 -39.41448593 50.12242126
34.87470627 -5.92682743 28.37928772
26.64930534 -10.30709267 12.70213699
22.83664322 -36.82841492 5.10094452
-4.26251984 -18.09119606 -5.29154968
30.35631561 13.69482422 29.83612061
18.78401566 -41.29761887 4.68724442
6.74976063 -21.10173035 -2.42090034
9.65363503 -10.68040562 2.66465759
35.48200989 -30.13058090 39.67938232
28.97641945 -9.05565643 33.92142487
0.40427780 -27.26539421 0.51087379
42.35680008 -22.19319344 40.04926300
22.40908241 -16.49042892 36.88702393
44.19582367 -33.16162109 51.20607376
43.13912582 4.67389297 36.71011353
24.05352783 4.85230637 29.13347435
18.21829033 -40.06692505 20.86076546
6.28347301 -25.12993431 20.07630730
15.26350594 -22.56778336 29.52148438
0.90268707 -13.74310112 -0.56576157
3.67061424 -29.86688995 17.72424507
20.79882622 -6.07712173 26.83857727
18.92059517 -31.56711578 2.58145714
44.06258392 -32.06474304 45.94221115
12.95895481 -30.71141434 17.63146210
30.74830246 -35.34832001 41.37664795
0.93278503 -22.40308571 9.53559589
-1.93052483 -28.67314148 -0.14134979
20.21239471 -27.31767273 19.94153976
15.67225647 -40.52307892 14.41849136
-2.83994675 -22.50944328 -8.97829628
1.74513626 -24.80300522 0.91195297
40.40638733 3.39500999 30.90564346
18.84604073 -20.51665688 34.28695679
28.20997238 -12.10293007 14.83701992
38.38668060 -17.40987396 32.40449905
2.52704430 -20.72761917 -10.26893044
17.15618134 -29.30056763 10.93060970
22.69899940 -27.21712875 12.23697090
15.92099571 -7.10159206 19.01728058
3.17675972 -15.84571362 10.73314476
21.57610130 -4.71622658 16.31035614
28.68089676 -12.80916309 16.98743629
4.87862968 -17.62902832 -6.78035164
19.64804840 -25.65792084 0.57773209
7.27491379 -17.78274727 -5.73027420
34.40181732 4.69773102 22.59265137
30.16798019 4.82878876 37.68600464
41.11737823 -17.17451859 35.90072632
15.91692066 -9.39485550 19.62918091
34.90792847 -5.28452206 29.37217522
13.48685074 -42.46899414 -0.77100754
27.59423447 -42.37293243 15.01891994
13.75038052 -25.94420624 -2.92535019
9.85478401 -42.11977386 21.58669853
8.34112072 -15.98778248 18.24387932
8.15329647 -34.26688385 21.82107544
18.20375633 -32.45525742 36.96475983
13.55083656 -23.00957108 29.14672089
36.17405319 -36.19878387 30.82200241
31.26996994 -7.25149298 23.17800331
13.71413612 -7.84514236 13.12568569
21.76320839 -13.89544392 7.07685661
20.48341179 -35.88703918 18.89384842
33.18507767 8.24565697 36.27035522
16.88553238 -35.88050842 30.92999077
19.96615028 4.35339928 15.16472816
11.58647442 -26.83890152 -2.33389091
12.22042274 -18.06745529 -1.15945625
34.18474579 3.99278259 40.20639801
41.91869354 -29.63090134 24.91654778
15.35462379 -39.33457184 7.57849598
11.74037552 -30.28800583 27.68668365
6.26250267 -14.82234478 9.04232979
25.67560196 7.11652565 28.72109795
-1.99756622 -18.35447693 -2.13869476
9.35297585 -17.52252197 19.72922897
35.81958389 -12.07703590 30.64502335
33.97515488 -33.46306992 34.76535034
-2.30707932 -32.62053680 -0.92481995
6.84634399 -12.41506577 -4.67495918
6.77474689 -37.78328323 15.90733147
27.84199333 -19.64673805 38.13164902
17.56186295 5.90745544 22.66793823
17.57785988 -16.90874100 31.92009926
22.60766792 -13.20449162 10.81056404
10.07163620 -42.89484024 12.11070633
33.47973633 -30.88869476 36.06121063
33.02544403 -32.49781418 16.22716141
21.98303604 -40.83352661 23.05443192
30.41581726 -31.74330521 47.43947220
40.08121490 -24.51009560 34.90586853
24.37962341 -5.25730228 30.93937683
24.17735291 -33.36474609 44.22700500
-1.28739166 -25.59443283 -6.74260139
26.69255829 -43.83621597 14.69868946
31.16902924 -40.53147507 21.89647102
35.16539764 2.27676964 39.98757172
7.36580467 -36.21570206 -2.40434265
36.39915466 5.03952599 41.89921570
26.50983047 -20.55120468 9.48847294
35.05265808 9.60928535 38.36739731
31.86884117 -13.19644833 39.45858002
31.13367081 -2.70786762 20.81935692
13.35412502 -33.11481857 26.42452049
8.05897427 -42.30522156 13.86033630
3.63005829 -15.35757542 -4.05556297
5.55548954 -32.15990448 -0.18206596
37.31011581 4.08152962 41.72306824
20.06111145 -30.94141388 3.42852020
11.10219288 -41.05623627 0.74734116
4.32271004 -30.09572220 0.52400017
36.41815567 -31.89025116 33.06307983
6.58973217 -30.64421463 20.15026474
23.25951958 -33.34635925 26.10108185
25.79602432 5.90153503 13.85828304
28.12412262 -24.45858002 13.45354271
40.74743652 -16.01626205 37.89051437
41.30211639 -35.81880569 29.98088455
12.60887814 -21.73752594 -1.48290253
34.39811707 9.35732460 35.93744659
11.12800503 -33.09827423 -1.82887650
34.78130341 6.62601471 24.18188477
5.36351395 -38.80924606 4.11182976
36.29461670 -0.56626797 36.68190002
30.46052170 -26.35472298 42.67696762
5.47650146 -41.48744202 12.04717159
8.68096352 -28.20878029 16.63413429
17.46545410 -6.12997055 16.48614502
30.91984367 -33.57500458 31.87980270
39.82696152 -33.35567474 27.99984169
45.01240921 -25.39356232 39.43102646
10.68224812 -40.89844894 18.75284386
28.34919167 1.74828339 13.79573154
35.51539612 -40.06295776 25.78735733
19.85537338 -10.34650230 8.28249836
10.52118587 -42.39775848 14.52408218
22.89462662 6.50032616 14.12942886
-0.45941925 -16.13720512 -1.68882370
6.20600414 -34.96776581 19.24419403
25.85836411 -32.01250458 45.81254959
36.23939133 -37.36189270 24.21015167
38.76099396 2.46178818 28.47656441
42.69256592 -0.37398052 40.92725372
16.86946297 -16.36305237 3.65224648
42.44654846 -28.89456558 33.88911438
11.08326054 -19.75374985 20.13515472
40.52770615 10.32122612 37.91971588
21.97779655 -9.11559772 32.63823318
29.12140083 8.75417900 32.75417328
24.87547112 -36.04244614 45.09864807
33.84129715 -39.72477722 23.72786140
34.42902374 -8.78896523 29.58612061
21.56955719 -10.31678200 32.80956650
25.09454346 -23.13481140 13.81012058
49.20902252 -35.89117050 49.82410812
17.70328712 -24.44940948 -0.03941154
10.70958519 -31.84099007 20.55595779
9.72017193 -39.18878174 20.46599197
15.74451637 -9.40826988 26.91164398
7.83167171 -20.59025192 18.73867607
38.14875031 -1.08169079 29.23368835
26.34855080 -36.54692078 21.94003868
16.27787971 -29.15490341 12.63186932
30.74565315 -32.79842377 31.60585785
29.25340843 -42.86380768 16.73867798
6.20096397 -42.15585709 7.77621365
37.62898636 2.55803490 24.03738785
20.86939621 -10.68658733 9.37136459
23.90336037 12.18078995 25.08003998
16.89398575 -15.47914696 29.32660294
27.06438446 -2.22758484 35.35865021
28.62654877 -43.17853165 16.21457672
9.13103390 -13.59326553 2.87428093
6.50127697 -22.00158119 -3.31179047
41.61840820 -27.97468567 45.88520813
-2.11353874 -21.59178352 1.69475555
8.98078728 -39.77080536 16.44654465
0.77189636 -36.65506744 -0.14887428
34.00010681 0.45465565 19.51374435
24.41430664 -15.78268051 10.00391769
11.99032021 -40.60287094 12.82124424
5.30444527 -23.52665329 16.32818413
9.25576305 -19.16477585 16.76502991
13.02858067 -8.37855721 20.03069305
31.79439545 -28.62991333 44.59975052
22.19821167 -37.01085663 25.19354439
32.40469360 -20.60323524 45.26691437
22.78127098 7.26148796 26.85467339
2.89032173 -31.62153435 -3.60895348
19.19268036 -35.55140686 1.19953918
17.20617867 -9.96168041 26.23851967
29.81878281 -33.05286407 15.68106842
3.98410225 -37.63433075 2.39673615
26.12229347 13.05441093 28.29659843
8.97782421 -27.44017220 -2.89419746
31.88411331 -25.90171814 17.32497978
25.26473427 -41.51888275 15.37206936
18.70948982 -39.43331146 8.63901043
36.61812592 -20.56026840 21.89616013
35.38637161 -33.31262207 35.11547852
49.09220123 -33.67637634 45.46712112
23.05900383 -22.36627579 5.37766838
19.52901459 -29.22912216 37.53060913
17.67204857 -40.23508453 15.50157928
18.32516479 -34.14417267 12.98850155
33.88478851 9.00184059 39.88446045
-0.18816948 -39.05612946 13.07415199
14.70436573 -30.11626816 23.68724632
32.12185669 9.15025520 33.31980896
30.76650620 -32.92879486 36.95643997
23.29598236 1.50332069 28.40037346
25.68068123 2.15023422 31.97880554
0.61191750 -26.54179573 -1.90065384
38.03257751 -2.20384121 39.59390259
9.69899654 -41.82697296 -1.09744263
41.25013733 -35.15857697 31.13750458
36.40985107 -22.27399635 19.97583389
19.56795883 -30.34685516 3.34445572
-3.24459267 -18.61281586 -1.58215332
25.66264153 -8.62210083 31.47367859
1.08580399 -22.09284973 5.04461098
20.00470352 -26.41126251 37.91604996
36.42762756 6.74535561 28.99810028
14.34018517 -20.23443031 -0.01290703
11.42286873 -23.89355850 22.17420959
27.69009590 -37.53215790 29.70008659
44.64160156 7.33812332 38.72293091
37.34799576 -16.74856567 41.23327637
0.09341621 -34.01126480 9.59883595
6.37473774 -18.61962509 -3.84481812
-0.00475311 -30.31687927 -6.96265030
23.32738686 -6.26892471 17.39807701
27.51779938 -4.70813847 33.21748734
0.27053452 -13.03313351 -6.71827507
32.52469635 -12.69129276 18.36226463
40.44517517 -0.85349369 36.57706833
20.37568092 -7.74248409 29.43824768
37.34149933 -17.63821220 22.88803482
14.83435535 -7.47660637 16.73538589
22.10743523 9.03528786 19.90403175
26.23985672 -1.96135807 32.07922363
15.11941147 -36.30978394 31.67114639
23.67161179 -8.05554008 14.96327591
39.17794800 -31.80679703 38.13317108
-4.56343269 -24.96281815 -4.13222504
27.92358017 -1.36281013 17.50485611
11.27457523 -33.75708771 21.64029884
-0.48425865 -29.01191521 -4.93327522
41.30145264 -20.53550529 41.08995819
-3.47726822 -32.17211914 1.83485985
17.82731247 -37.87115479 -0.69852448
17.40802002 -41.44298553 6.34913063
45.58962631 -33.16363144 51.31493378
41.67263031 -24.59089851 42.86721039
39.34013367 -5.22518063 38.10450745
-3.55986214 -17.89112091 -2.14626312
20.95267868 -23.28593445 4.33938789
26.54113770 -39.66252899 40.46306610
31.92582130 -5.58927155 18.87639999
30.20362663 -12.01148891 18.30073547
23.08082771 0.26625919 30.21237946
9.26126957 -9.42603016 12.04133606
5.08193398 -14.96771622 0.33260345
45.03667068 -32.77492523 43.72939301
41.88754654 -22.80885887 25.81837082
13.02868080 -42.31882477 24.76655388
16.94284248 -1.59117031 15.93562126
36.57966232 -1.92926407 24.91609573
14.87652016 -32.51306534 32.21666336
30.51083755 -37.85316467 14.35171604
26.35910225 -33.70131683 14.27037239
24.38468552 -17.59800148 39.01136017
23.91498184 -12.25834465 9.75283909
37.90535355 -23.17574692 22.40421295
12.15779972 -21.53219032 24.03507233
18.82769394 -43.55884552 24.30587387
28.71575546 -32.16327667 46.20973969
7.78985310 -40.69344711 12.72490692
14.96891212 -9.59875870 24.08305168
4.19709587 -15.94959450 -8.70927238
0.18141937 -31.82031822 13.53764820
28.56090736 -35.75320435 13.25271702
0.40481377 -33.91275024 2.59997749
2.88311958 -12.24170303 -1.30621529
8.40135384 -9.79471207 2.21888161
35.75504684 -28.44100952 22.89120674
23.69826889 -20.25385666 5.70735455
36.71546173 -9.99068642 28.01816368
28.54385757 -23.87712860 13.16145611
37.57401657 -23.54618073 42.91832733
-2.92815208 -21.44163513 -9.91927528
38.76673889 -19.60669136 24.54121971
29.45422363 -37.77096558 13.88301849
24.84256744 -28.70001221 18.74141312
39.80397797 -26.77859497 26.78716660
21.19371033 -18.62630081 34.47352982
16.97272110 -39.82263947 17.56053162
21.30802727 -26.41185760 35.93607712
36.01964569 -1.17174244 24.11143684
3.65323639 -15.35939026 6.59574127
18.24786949 -11.14572811 29.72172546
34.34589386 -11.94019794 22.77856636
16.08735657 -32.02435303 13.15050030
24.99856758 -36.66801453 43.45626831
27.28521347 -25.45506287 13.84515858
24.10050392 4.43060303 31.23715591
41.29404449 5.01145363 29.00204468
33.46977234 -38.57654190 22.43020630
25.40147972 -34.90617371 44.46958160
-1.71459198 -26.14186478 -7.99868393
21.72542572 -28.49686813 17.92364311
8.48516750 -9.74591827 12.53238487
16.74296951 -29.12750626 29.78808403
41.38379669 8.61025047 34.80456924
12.66317654 -42.07845306 19.38573456
37.93733978 -18.11313629 24.82612038
7.04242134 -22.92858124 -3.91376114
6.11651039 -19.23888397 -5.18246841
14.82749939 -7.87763977 7.62780476
8.68386364 -20.81255150 -2.16276360
16.48094177 -10.36939716 25.67747879
35.39844894 -14.31785774 41.68429184
28.49458694 -29.75039291 18.48497200
40.94650269 -26.32002640 41.40252686
18.01018715 -41.37317657 19.08481979
42.79402924 7.84766006 40.17881012
26.44149780 -37.25108337 24.16714668
29.43129158 -11.60769463 37.95109558
38.60852814 -29.47666550 42.70481110
3.71907425 -30.77463150 -2.13020515
14.43982697 -39.03549957 -3.41695213
16.80789566 -41.06472778 20.12954330
5.52446938 -16.06479073 -0.55838585
20.20224953 -42.34380722 21.34390640
36.37659454 -1.64502621 32.80749512
19.28830528 -38.94502258 4.59375381
16.57400513 -25.89449310 32.57962036
45.12298584 -29.13626862 39.55208588
14.82217503 -4.95577908 10.60556698
37.54611969 -13.10794067 27.54594421
2.42113495 -25.44953918 -8.82816696
21.78880310 -28.91596222 38.51657867
22.80483246 -17.46411705 6.24952030
15.21550369 -41.65804291 19.42648125
22.60624886 -19.29265594 37.00583267
22.50307274 -38.79032898 42.32634735
40.84198761 -34.06517029 30.72472382
16.30228806 -10.00543118 4.92891884
24.58951759 -11.14359856 13.39434433
36.23909760 11.19494438 33.52778625
30.86363602 4.30896187 37.30726624
27.18699837 -30.24766541 18.17674637
12.69431114 -29.59463120 26.90867615
43.02521515 0.67414856 39.87570953
22.29677391 -20.54042816 3.21586418
19.54448318 4.25329971 19.26074409
40.37792969 -25.53459740 23.58616829
14.83318901 -37.47247696 26.30290604
35.08307648 4.36725426 39.00907135
15.77859497 -35.28711700 28.80752563
11.74699974 -41.00221252 20.60872078
38.76759338 3.26005173 42.76506424
-1.56069946 -37.60070419 10.99148273
41.72083282 -29.19472504 29.45913506
-1.29206085 -33.26832199 6.62495804
5.65059662 -25.93291092 -6.09417343
16.01890945 -39.91601944 29.52805901
39.20971298 -29.14550400 26.94062424
15.89709663 -41.14335632 15.09422684
39.30992889 -28.43641663 22.72161674
19.53780937 -37.94332886 1.63901138
12.62471199 -32.87205505 15.28732586
9.34350014 -9.61927795 4.64811134
40.19044113 -2.76294708 37.07138443
38.99538422 -19.53778458 25.66336441
20.01285744 -40.29019165 22.37818718
6.08963299 -39.46633530 12.39082432
33.39469147 1.84188652 20.26745796
23.52873421 -32.85932159 25.46429825
19.56217003 1.86676788 18.07796669
-0.12321281 -21.77919006 5.93276787
47.22270966 -31.19826508 44.99180984
28.74805450 -37.86127472 26.36393356
17.71219444 -40.35162354 5.26418877
24.22658539 -33.66146469 20.78961563
13.16559696 -41.22710419 17.10838699
22.79447746 9.48616028 19.65168571
14.82535934 -12.31102657 5.15110970
23.11068535 10.44801331 17.36390305
6.89597607 -27.09908104 -4.72230148
19.27417755 -7.05800247 12.64031696
9.82206535 -10.95913601 21.21122932
43.30594635 1.92793465 33.94103241
21.19261742 -34.33170319 18.37589645
13.63985825 -25.64734650 28.42645454
-7.10439110 -24.98913956 -3.92033577
47.33435822 -31.83317947 49.48340225
27.79029083 -43.34493256 21.40308952
10.09225845 -11.91711712 4.15241623
35.50357819 -28.16743088 20.63939095
36.38642502 9.29169655 31.10048866
-1.33185577 -28.05566025 5.05732727
34.93518066 -16.59165001 21.49394035
9.24171257 -22.23364449 -3.45256042
16.22199249 -12.15689087 28.58787155
40.97036743 -21.27528000 35.01325226
11.26588917 -27.21395874 22.96255302
2.11540222 -25.56888580 15.50942421
30.33128738 -28.54492569 46.09240723
33.98904800 -17.90205383 43.11645126
2.25489616 -31.41073608 16.25654221
36.91689301 -17.88004684 29.97875977
21.01400948 6.50917816 22.38330650
2.92250443 -38.82094574 2.78908920
35.87043762 8.44003868 27.60385132
26.95379829 -35.16465759 45.81121826
37.10995102 3.18775749 26.50698853
28.00364494 11.66042519 24.92024994
27.73864365 -29.82527351 19.64942169
38.61321259 5.96513367 26.75379944
34.79643250 -19.56866646 21.34119225
34.29010773 -30.39857101 19.15613556
35.26673508 -18.34023476 44.14758682
21.97451782 -39.52538681 37.38381195
49.23678589 -32.84783173 50.92728424
16.59326363 -38.79351807 15.75333977
35.93744659 -39.76667404 22.78003693
25.02576637 -9.97845650 11.95493031
9.02943325 -37.94145966 -2.83401871
21.14715195 -25.05801010 3.00125313
37.88011169 3.55231094 29.01991653
26.05161476 -27.52867699 42.39292145
40.11611176 -18.46423721 37.42505646
1.72495461 -32.87310791 13.47874832
12.96393585 -29.45178604 12.56567287
18.93989754 -26.96616936 3.16384125
3.50943184 -31.98484612 -1.51637650
12.75624275 -34.93352509 18.83094978
40.46972656 7.01225281 30.32508659
2.00048256 -22.90214157 5.79890060
20.13003349 -8.53885078 11.35115337
27.13088036 -42.51383972 13.36812687
24.08642769 -23.72902298 40.85544586
43.12597656 -23.80162430 39.97125244
14.99172211 -41.41560364 26.77239227
25.28603935 -34.58362961 15.80010700
12.44402313 -7.56334639 10.27424240
36.14933777 -34.04695511 34.10441589
30.78141403 -22.14218330 17.14082718
26.07813263 -39.12354279 18.98511887
34.24661255 -13.94226360 39.29083252
44.86179733 1.28556824 39.81297302
18.03910446 -35.49760437 -1.49937630
3.15132332 -32.78759003 14.55567169
37.75121307 -17.32232666 22.79767609
13.38546658 -23.97324753 0.73535156
-1.10937500 -25.56864929 5.76410866
42.35606384 -1.42410851 37.71389771
18.31942368 -16.49224281 31.89104843
42.63877106 11.43349266 36.89627838
40.55600739 3.25970840 31.90990448
40.49927521 -15.72631741 41.00846100
-3.29365158 -24.76835632 0.67674637
41.72449493 9.61726761 37.17216873
33.82835388 13.33297920 29.33735275
20.08107567 -33.54564285 2.55418968
39.25370407 -18.69160271 30.81243515
27.14508820 7.50281143 32.13696289
20.57142639 -39.66291046 16.36497116
14.61874199 -35.86271667 28.94096184
39.24241638 -14.47108269 37.48464966
31.46332550 -26.00255775 16.81714630
14.43891335 -28.15582275 -1.77521896
16.20921707 -39.22037888 33.77023315
8.13887024 -27.58746719 -3.51442719
19.57928467 -28.30136490 18.06954765
23.62346840 5.70098114 26.68647575
27.11339951 -2.02862930 17.88431549
41.26326752 -27.29321480 30.75072861
24.39985085 -26.79315948 19.13063240
17.43152618 -41.68254089 26.24363327
1.13525772 -17.42280960 -8.77601624
7.70831680 -38.40789795 24.24806023
34.50232697 1.21030045 23.43240547
27.89036560 -11.17354202 36.61578369
32.10085297 -12.17034531 18.33757019
17.34358215 -27.75557137 33.14477921
7.16567993 -27.58068085 -2.16930199
0.22283745 -38.15193176 9.66074371
35.98683929 -4.71464729 31.00465775
39.57786560 -20.40666962 30.76972580
25.56563377 9.63626671 21.13319397
30.01718521 -30.82312012 37.74706268
16.04920006 -28.31107330 21.91199493
18.51301193 -7.89050627 12.12399292
23.62996101 -37.69427490 22.60785103
44.40494537 1.52389145 36.23165894
14.30368614 -23.64480209 29.09805298
22.71872330 -14.10332108 34.09485626
21.88033676 -36.19498444 25.86757660
39.54258347 -34.12913513 21.82091331
-3.35561943 -20.17854500 -5.31927490
35.98460007 -30.96831131 34.27177429
12.19631481 -31.52083206 26.77663231
15.44924068 -42.51295471 26.91452026
1.66180038 -23.77368546 0.65779495
37.73806763 -16.67063522 43.39425659
3.93506050 -14.91788578 15.55276203
17.47822189 4.06126404 17.37197113
32.79638672 -39.73620605 16.06075478
33.64352417 -9.60116386 35.63456726
27.84283447 -18.00816727 39.70039368
36.14088821 -24.36211014 44.35470963
42.40356445 -29.28685379 36.77996063
21.09152603 7.90114784 18.34018898
33.47827911 5.08244324 38.17762375
17.46063042 -10.11424065 27.19329071
12.86191750 -37.57982635 25.22982216
13.20126724 -17.09531975 -0.85916901
17.79810524 -30.84217262 22.64998817
32.68277359 0.99006653 38.28178406
15.44911003 -7.21170902 10.04032326
25.50494194 -26.95573044 13.32547379
2.24975014 -24.24801254 1.61363792
13.29446888 -10.78098297 7.46357632
27.18774033 -34.56821442 13.53194809
19.36999130 -24.60685349 1.55518150
37.72412109 -1.30522156 35.33196259
8.74384308 -22.13677406 21.27520943
25.24568939 -34.96977234 12.69439411
24.96137238 -37.09503555 42.02597046
13.62903309 -40.71701050 8.62112045
0.85543442 -30.18925095 11.39791012
24.57978058 -19.55660629 38.69685745
9.64217281 -8.97640800 13.73575687
48.84609604 -40.98806000 45.94480896
21.39227104 -14.90195274 4.19485092
13.24102116 -15.27907085 2.08193016
16.61562920 -34.81642151 19.10241699
38.28294373 -14.71058655 34.11693954
38.03091431 -30.16099930 39.83646011
27.62054062 -18.48696899 13.05330181
2.13592339 -21.79956055 5.33562088
5.30600357 -41.08442688 10.39425278
31.65115356 9.37209129 30.34770584
21.07654190 -41.57418823 23.91032600
31.21218491 -9.87323284 21.27782822
12.29987717 -29.63428116 31.08040619
43.54536057 -34.38656616 44.78771973
13.27156925 -40.99414062 5.59760761
34.60859680 -17.51909828 22.96697235
45.04548264 1.13056946 38.50006104
14.11616135 -40.60256195 0.72302246
3.69746208 -37.96291351 12.61371326
15.73646545 -41.75125885 8.57024956
17.63634109 -35.49344635 19.40361214
21.13931274 -41.18089294 28.78315353
20.88447571 -37.66140366 40.75295639
40.39350891 -23.92578316 33.66840363
22.62623405 7.21329880 22.09864426
16.09535408 -20.97932434 29.77405548
34.69035339 -7.26158667 32.07260895
39.78197479 -33.07063293 21.62907219
12.91347027 -27.72975540 27.72639465
26.40735054 -35.22831726 38.15717697
28.66423416 -43.07394028 17.27236176
1.79185677 -17.75522804 10.96105671
34.83163452 -29.98968315 18.85859299
4.33867836 -18.25246239 -5.10392952
30.34020615 -31.32557297 37.37895966
24.18872643 -33.56485367 8.37655067
35.52768707 3.98769760 39.76234818
1.49310875 -16.92189598 12.57951355
27.27215767 -36.83998871 20.35973930
20.31708717 -28.00168800 11.99383926
15.55330467 -39.33593750 4.96920013
27.17798615 -21.71863365 13.11441612
22.09267616 -38.75678253 30.33716583
8.43363953 -22.49901962 21.36326790
33.68315125 8.13290215 33.69672394
42.76575470 -26.83258057 32.75822830
42.02234650 6.43626404 42.52314377
4.68075180 -31.69523239 -3.98350906
16.68879128 -6.17049408 16.83944702
35.13511658 -1.86720657 34.92581177
27.31272507 -33.92481232 13.60505676
3.79842949 -13.91410160 14.16527176
-2.88891220 -27.35348129 -7.26813316
26.05642700 -15.96280003 11.91240215
28.28946877 -27.21892166 16.34810448
16.91023636 -40.40975189 30.42983246
39.85981750 -18.87362480 27.09466171
32.10506439 -33.65124130 16.49393463
34.49771118 8.04838371 38.23741531
28.92185593 -39.84803009 21.39351463
28.59469223 -42.61224365 16.81588364
39.65356064 9.54457664 41.89368820
17.02964401 -41.37676239 16.44881821
20.16383743 -23.85582352 5.34708023
20.16055489 -11.63104057 28.93467140
45.96260834 -31.25714302 43.87709427
25.65582848 -41.66300964 17.36877441
42.22806168 -21.54188347 37.24353027
17.74635696 4.76403618 17.74551010
38.52242661 4.35166740 25.96231270
0.95110130 -20.63511848 1.44728088
24.63671112 -35.90418243 42.80944824
42.40614319 -1.05798817 34.09279251
30.10171127 11.20681381 32.44551849
17.23525238 -5.86730480 22.62506485
27.42535210 13.68330765 24.33754539
27.51512337 -1.57976818 33.14480972
10.37991428 -41.76824570 2.56739044
16.07512665 -33.79791260 15.92789650
13.54403496 -11.26757526 24.04040718
42.91716766 -39.52946472 47.48684692
-0.68735313 -22.69648552 9.46881104
32.31813049 -30.54823303 44.94750214
-5.94186211 -23.63433266 -0.84115601
0.35548401 -34.69533539 10.11465454
46.50742722 -32.46726227 44.85695648
38.24520874 4.17024231 42.04357529
30.72816467 -38.94172668 20.94550323
4.71401215 -40.66849518 11.66126537
25.60095215 -9.88665962 7.78816128
40.75874710 -22.86280060 28.48644257
37.01692581 -27.56433487 41.84840393
38.45573807 5.30119133 41.79716110
40.21745682 -26.83908081 42.67015839
21.95405769 -33.72832870 36.54501343
27.16716766 -38.58469772 38.81150055
30.01273155 -12.52046394 39.21099091
22.57294464 -24.99929428 39.71635818
23.30700302 -34.48226929 11.69667339
12.62008190 -39.53129578 9.21931076
39.11185455 -25.83399963 22.66636276
9.56529045 -26.37492371 -1.20630836
14.48547173 -40.02166748 11.93023396
10.39187908 -41.14163971 14.36668491
7.48273182 -26.67766571 -7.18490982
34.93281937 0.11643696 39.11449051
3.97118187 -40.41074753 9.68034363
5.96735287 -22.17774582 -6.35272026
6.56480122 -19.61063957 -7.20343399
11.64054489 -26.94127464 -1.47423172
23.16096878 -33.04558182 16.71002007
16.53407478 -39.35482025 10.14122009
11.43722820 -24.61879539 -3.34292221
35.90284729 -35.09765244 31.60205650
41.58864212 -31.81311989 23.73836708
23.06992912 -40.30650330 9.43899822
15.61144257 -41.22823715 11.30491734
29.76372147 -6.07087994 34.31124115
7.44726944 -32.51240540 18.74544525
36.68836594 11.39957047 34.99658585
18.43843269 -6.37205982 27.54621124
33.10061646 -4.39945889 34.62114716
45.64677429 4.47086334 41.48207855
31.73091888 -13.33706760 21.72550011
24.06319046 -25.02128983 6.54731941
30.73424911 10.56193161 22.15367508
-1.54189110 -35.85158539 0.13270187
22.96404839 9.56586266 20.53303528
16.18502617 -40.20804214 15.46682739
46.30175018 -35.64424896 43.96072388
12.00939178 -19.31958199 24.78546143
42.62932205 5.59753990 34.34207916
19.11703300 -1.98969078 14.46883202
-0.90822411 -22.47491455 -0.38216019
14.17799568 -5.97170258 15.44676590
25.19501686 -41.64953613 19.69667244
16.43842697 -31.78263092 33.34972763
8.08309364 -10.06447506 11.08441830
25.24037170 -18.17418098 10.82678509
26.48081970 -39.00354385 41.71026993
29.15328598 -35.03463364 31.21424103
35.69800949 -1.07521343 38.64980698
40.51274490 7.96814156 28.17862320
23.42297363 -29.44528389 24.33784485
6.23635483 -17.42943192 16.51668358
36.24284363 -29.01745987 37.77592468
15.51778984 -7.77864599 18.09538841
2.99444771 -11.98364830 -3.09644699
20.48218346 -43.04315948 30.56968689
42.32632446 -34.58792877 44.73241425
35.75770950 -17.47545242 23.18349075
30.57368469 -11.17016792 17.79012680
46.21461868 -29.50166512 45.06125641
20.44823647 -10.61712456 27.57358360
43.94190216 -30.58947945 51.94651031
3.51898193 -23.25849152 15.35365486
26.02824402 -40.31672668 14.55818462
28.98368263 -17.71443176 11.43273258
-5.45165062 -17.49294090 -5.86691666
28.30544472 -15.14012241 10.90563965
10.51326942 -29.49338531 -1.69504929
28.76136780 -32.74579239 36.07998276
-5.27611542 -23.41077232 -1.60877609
19.41016579 -43.64946365 26.28807449
11.40999222 -40.28164673 7.35511971
23.53771973 -31.09622192 19.75365829
25.41342735 10.47914314 25.07648849
16.02704620 -13.26873016 27.47089767
15.10396194 -39.73063660 9.79959679
8.72991180 -17.84882355 0.20809746
27.95613861 -9.88283157 17.15703583
21.17765808 -30.72929001 38.02616882
26.54190636 -20.61109543 41.90653229
29.80799866 -38.59646606 25.31973267
18.17834854 -41.62049866 33.05391693
29.56264877 -36.66094971 30.68365860
20.56995773 -33.65808868 0.44880867
-5.84106445 -26.30772018 -5.76173592
23.37535286 -42.16917801 14.03415775
-1.85985565 -31.70909119 -1.71894264
0.07561874 -41.42109299 5.36907768
24.74497223 -26.13093185 7.15220356
20.64951515 -27.52500534 38.49813461
14.85112000 -27.43324661 23.89234352
35.13150024 -33.16180801 16.66156960
36.07985306 9.82881737 27.36747360
20.94937897 7.21336746 22.41651535
13.39796543 -29.74538994 -3.39773941
2.25627899 -21.88389206 11.45570946
0.57101631 -25.27646637 8.62266636
18.08646965 -29.67472839 31.46479034
-1.09372711 -35.08316803 -3.35603142
17.59614182 -36.32867432 15.38978958
1.69531631 -19.87116241 -0.08915520
7.68089867 -14.30537033 -0.16311455
10.56994343 -30.38842392 20.01948547
36.93002319 8.47880745 40.85182190
25.72607803 6.43432045 19.45706177
24.25536728 -18.29956627 11.38438892
21.89045525 9.26699638 19.40499306
5.20225143 -25.27890396 -10.92688179
33.14181900 -27.66959763 19.20275497
-0.13649559 -33.21640015 8.82826996
21.42693901 -25.88116646 10.80624104
20.97521400 -8.13973045 28.66621017
1.17220306 -15.21101856 -9.68830681
18.42872238 -7.70277023 24.65396500
32.03539276 -38.02941895 24.18558311
13.39679527 -28.72386360 -0.41078568
17.43395996 -21.59591675 2.46178627
21.27014351 -23.85184097 37.44286346
21.83707237 -24.34309578 36.11267853
44.55442810 -34.90754700 45.77508926
46.11134338 -31.59123611 50.23877716
42.81732941 -37.16352081 46.12655640
21.49084091 6.63205338 28.00990295
31.70886230 -4.81775951 20.13701820
6.62187958 -11.40456295 11.70675850
16.48883820 -29.86407661 10.61528015
38.89728546 -2.70434475 38.52053833
39.72658539 -1.57634830 38.59358978
22.06501389 -26.73130798 39.28726959
23.42033768 -25.90178680 9.35185623
-1.71585274 -11.03590965 -3.06594467
18.23471642 -23.36422729 29.98046875
36.84194946 -32.13008118 31.95222855
27.02636528 -33.60228729 45.43489838
-2.18496132 -26.12577820 -6.28985023
36.39216614 11.29086685 28.77151871
28.34186935 -30.26125145 48.01456833
4.07820511 -20.43780136 -0.33950233
21.64409065 0.02569771 15.61535072
27.27506065 7.82685089 14.96685791
6.56370068 -36.07492065 1.90096092
20.35927582 -31.37156296 9.68430519
0.76918602 -14.88174915 10.81513214
37.09340668 -26.63079834 23.21447182
3.60482979 -19.68739128 -11.22255135
34.01984787 -23.02846527 19.21959686
47.49805832 -33.41722870 47.40837479
42.67642975 -27.87921906 33.07157516
-1.78658485 -18.98036194 -9.07067680
22.09918213 5.97675705 12.61953926
46.46707153 -39.40068817 45.74216461
13.63339806 -34.79781342 15.97771263
1.81139565 -40.52857208 1.30290985
25.69955826 -38.38127899 21.15740013
27.07672310 -22.49708939 12.22321033
20.35665321 -23.18456650 38.01581192
-2.34676933 -32.23948669 -2.72406769
31.01064873 -37.64952850 19.62441635
13.94553089 -31.47361565 23.59611511
47.42984009 -40.15792847 45.17405701
6.76341438 -33.42329788 18.60541916
0.88305473 -35.63653946 0.53710938
1.60066032 -35.28405762 14.37050438
17.20871544 -28.37500191 31.61905670
32.41404343 -8.98015404 19.12306976
17.85825920 -38.50769806 7.11352348
17.56049156 -10.67974281 7.00055218
12.49078560 -5.54749966 9.87592316
9.63988018 -36.00170135 21.26303291
14.10461998 -39.76610565 29.62491798
18.51576042 -12.63895607 6.58170223
25.40941620 -19.78038979 5.91940689
26.75246429 -29.99472809 19.02773666
33.80324936 -30.69821930 17.28685379
29.91805649 -42.75682831 16.64290619
20.58754349 -3.64430428 17.10795212
24.13411331 -24.05628586 3.67124939
36.50447464 9.75991631 30.15393829
-0.79219055 -14.84037113 -7.72923470
15.88758087 -29.14388847 17.93701172
20.30835915 -29.61456871 23.93563652
35.46554184 1.95895195 40.87014771
33.65141296 10.10795212 22.49933052
29.42581940 -38.71429443 14.75674629
4.63941956 -14.32168484 11.29535580
25.47785950 -33.70043564 34.75536346
9.31792355 -18.25889778 22.90137100
-0.91209793 -31.60900116 10.18828011
18.67321205 -32.83348083 21.89459801
37.26493454 4.55887604 42.75629044
27.87362289 7.42529297 30.28299332
30.68976974 -8.08967209 34.25716400
20.96912575 -5.32098484 27.36608505
34.95832443 -33.97201157 18.96288300
6.65240097 -16.00803757 -3.61024666
-3.43454742 -22.64899445 -1.39353752
36.29774857 -12.08639145 26.71755600
17.92772484 -37.39485168 20.04791832
25.06330109 10.94228363 21.38337326
13.81450653 -31.91980171 -0.29864311
11.65439224 -11.15978622 21.84538460
38.30160522 -15.20154381 31.77967072
35.27116394 8.87817574 38.41448212
41.36100388 -18.35900688 35.92538834
36.43236542 5.20271111 41.38897705
43.03309250 -38.04131699 47.70649338
35.81052399 -37.58719254 20.87375069
1.65816498 -27.67774010 -0.12317848
28.00697136 -20.79933548 41.74695587
14.41222763 -14.64677525 0.42258453
28.05718803 -12.33696365 16.48205757
35.45064926 -30.05663681 37.39281845
36.15269089 -7.21636391 26.39097595
20.57455826 -23.92475510 34.75482941
8.53686237 -38.80958557 20.44879532
31.80684662 8.52331924 38.15004730
28.52641678 8.66359711 20.71860886
44.79838562 -37.66392517 52.69279861
13.88001156 -30.59511566 -3.47315598
19.30649376 -39.44713211 1.44024467
21.99648857 -4.72357559 26.69296265
11.58780575 -25.06504822 20.36056519
15.91960526 -28.83495903 18.70088959
11.92294312 -32.78212738 -3.48152351
7.78921318 -38.07175827 18.37221146
36.42450714 -20.48810768 44.47090530
25.85869980 -13.50444984 12.65685558
33.82176971 -39.99393082 18.33631134
9.75481701 -12.16968918 15.69204521
12.28613281 -8.77831268 5.49749565
21.28065491 6.77576447 25.36559296
25.53346825 -33.76615906 43.40056610
25.64602852 -15.93080330 10.87785816
-4.62599182 -20.42540169 -3.62774849
42.73199844 -28.27062988 47.56681824
31.31496811 -41.11032104 17.61739540
35.00184631 -29.13579941 38.36486816
35.99831772 10.51606560 31.85560608
-2.56363106 -33.20711136 6.75091362
12.16772842 -31.41583443 27.67867470
46.23043060 -36.85211945 44.32465363
32.43972778 -40.31467819 16.74781036
10.41479111 -26.69244194 21.16497421
32.37785721 -38.62091827 17.12929535
40.85467911 -21.49443436 38.89004517
15.84020138 -26.17060471 19.57153893
19.42100525 -43.84884644 26.05247307
25.43980408 -0.84674358 30.53304291
21.84837151 9.11798859 18.88136673
15.38210678 -11.81758022 7.30442905
40.64915466 -20.71985245 26.97755623
42.64493942 10.74403954 41.03701782
36.99630737 -31.37661171 34.39493179
42.15049744 -31.09310341 35.41791534
4.75674820 -13.29613590 12.18670273
13.86995792 -31.12012291 15.65577888
46.22663879 -31.98974419 45.32859421
4.71394920 -31.35062218 17.69481468
13.65348625 -21.21163177 26.53112793
34.88894653 -19.15797043 21.70241928
31.50398827 12.52669144 27.34257507
-1.43138695 -37.87077332 2.28915024
18.69221497 -19.92820168 32.16951752
35.85235214 -29.32020569 36.81007004
1.45915222 -21.21757126 -10.79351997
41.96986389 11.20552063 40.24340057
35.25596237 -1.61264515 35.93103027
41.72327423 -31.08625793 43.04159546
23.00082016 -26.99415588 39.05742645
13.67827034 -8.21372032 12.83296204
17.08043289 -39.61845016 21.19894600
22.16813850 9.46807098 15.02560425
25.73613358 -39.34886932 9.60698032
29.46295357 4.05225563 36.54707336
5.04606819 -38.69714737 16.33393478
-1.14294624 -29.10218048 7.69528675
41.76270676 -31.38252068 40.65713882
4.10422325 -17.41688538 -5.29094124
36.01387405 -0.41192913 37.68820572
-0.84796906 -26.15686035 5.10569382
35.16122437 -8.68151665 24.82752228
14.29153442 -42.04365540 13.94767189
33.64077759 1.29527092 18.17100716
9.29595566 -40.00843811 -1.20626068
22.90949821 -36.88668060 24.19289398
14.22993660 -35.30193329 29.19025040
22.51517105 6.90588760 28.86378479
22.77375221 -27.11382866 14.05028725
40.11712646 5.79264641 30.09165573
17.67741203 -17.78882027 30.57229424
4.40117264 -29.13096237 18.46427917
24.25576973 8.03895187 13.06386375
5.63486099 -14.20861053 13.91761494
28.30459213 -5.72693253 33.39323425
28.47471237 -32.10079193 47.19640732
29.42021751 -33.15006256 15.46059132
24.93787956 -26.80767632 41.40346527
9.87140846 -40.21146393 5.07684326
30.55849075 3.13360405 17.33062363
20.61746216 -36.02967072 20.88912582
14.59987926 -29.89634705 22.09299088
34.46044540 -35.29221344 26.38385391
43.71138763 -24.50911331 42.03643417
23.69052505 -31.94473839 45.70885468
43.86452103 4.24566078 36.91836548
24.56473732 -20.82831764 5.25275612
31.03119469 -28.25238800 44.60631943
18.59973526 -27.16953278 2.73890305
38.10980225 2.31552124 42.22666168
12.34856987 -28.42882156 -2.93826103
14.71350288 -39.35733795 -2.51482773
42.24063110 5.18795013 32.65003967
31.43907547 9.65143204 30.39407730
13.75681305 -34.46550369 24.50040627
38.67954636 9.45707130 30.36336517
2.07039261 -24.21192932 10.88544655
38.70739746 6.44134140 40.36767960
41.47711182 -32.08624649 27.60948372
-0.23319244 -32.71054840 7.54229546
6.67994595 -11.60128021 14.94493389
20.82128525 -30.80294991 21.66277695
40.57764435 -13.87117004 33.50637817
23.40850830 1.29688263 28.62112427
19.29355431 7.38150406 14.37175465
15.26811218 -39.23672867 9.40764427
1.96713257 -10.14906693 -4.27514458
11.85948467 -10.34283257 21.09537315
19.70725822 -0.18708420 26.51522064
19.56396484 -9.80836201 6.20310211
24.02540016 -41.40067291 15.12507248
-0.31290436 -34.55621338 6.24922180
40.58654785 -28.61621857 29.54096603
40.39221191 -23.05218506 36.12100983
26.86222839 -8.91411495 15.20135689
34.40922546 -2.88101482 36.03610992
28.42486191 -41.70024109 16.52174187
-5.24178314 -23.04768372 -4.88858223
23.20173645 -6.67970371 30.88612747
45.52057648 -30.52724838 41.78883362
-5.62158775 -24.07134247 -4.07516098
-1.92442131 -40.28028107 8.91089535
39.46639633 -22.22878265 30.60860252
34.35789490 -13.78507137 41.28219604
37.99082947 6.22179985 40.61400986
14.14590168 -28.63885880 21.97118378
21.19454193 -34.53096008 24.38973427
47.59748840 -34.13803101 52.26297379
19.78739738 -40.02433014 13.62726593
14.38207245 -42.40087128 -1.42562866
32.43571472 2.81226158 21.59202957
42.10579681 -30.79584503 42.35331726
38.93047714 -22.11607361 43.71384811
15.35282707 -3.98362637 15.42082596
37.57252121 5.10221291 23.74494743
2.72624016 -39.83921814 5.14889908
20.00504494 -37.87839508 19.15193558
32.35574341 11.41350746 23.68443871
30.78419876 -9.60799026 22.47711945
11.55880260 -21.09858704 -2.69775581
17.05024529 -0.94030762 20.75834465
29.13767433 -37.07126617 25.55378151
14.21806240 -32.32333755 -3.95601463
8.53882980 -9.70651340 14.78829288
23.91449738 -26.82091522 12.18221569
18.66128159 7.00205231 18.60109138
17.77517700 -10.17434120 27.71562576
38.88150787 10.80090332 39.79317474
18.59288025 0.66926575 22.76562691
18.88106918 5.43955994 19.31369972
28.11870193 -0.84829712 35.91100693
21.19382858 -32.04644012 38.35798645
4.72753143 -15.73297977 -0.68732643
19.24343491 -26.63593292 36.31525040
28.63658524 -12.32727623 37.96270752
45.61627579 -37.28186035 49.85687256
3.79678345 -26.45687103 15.13459110
25.04493904 -27.51885033 15.91048145
27.60595131 -34.55430603 46.27534866
12.23778439 -33.26273346 24.44654083
42.34838104 -22.03800392 39.99379730
5.77583408 -26.11299515 -10.08028603
0.65901947 -22.99346161 8.21887779
20.83766937 -41.18374634 22.85214996
5.58080769 -15.05007076 -7.24467659
15.30460739 -26.97163391 28.17648697
18.73612213 -43.17562866 23.85296631
11.69356823 -38.11783218 -3.94421005
43.86874390 -24.44433022 42.64906693
2.71362686 -28.66873550 -6.79629707
37.32801056 8.45719910 40.97487259
20.18414307 -31.44609070 8.12793446
37.16458130 -29.77340698 36.30551910
2.40791512 -28.10530853 14.27070618
32.13679123 -37.41828918 19.41822052
16.62610245 -38.28518295 -0.61759377
13.94098949 -34.03217697 -1.65435791
35.16326523 -19.43757248 20.97948837
30.87132645 -36.06811142 20.55644226
0.01130676 -38.15621948 1.83877754
10.37841606 -9.74065399 9.93237495
29.53136063 -1.87576771 18.71639442
24.55990601 -38.25902557 28.19826126
9.09470272 -14.45538235 19.27371788
9.97246170 -13.55130100 18.10948563
17.20084381 -12.99881935 27.76389503
44.89436340 -26.70824432 45.91310883
29.09482384 -22.18047523 13.99558067
8.75910091 -15.70574951 21.62716484
35.06772995 -7.71574306 31.82910156
37.68237305 8.37025642 28.94579315
2.07878494 -16.51768875 -2.08272743
37.76180267 7.89828300 26.44507408
38.35875320 -3.44138050 29.88263702
33.36981201 -37.09208679 13.85504532
-1.57905579 -37.17565155 7.98479080
33.13908768 -1.13005447 36.25463867
44.33552551 3.22958755 32.28767395
15.89553642 -27.06930351 20.19907379
15.34204769 -13.25945568 26.87056732
17.37627411 -5.86519337 12.91452026
41.49000549 -20.65461159 34.07643509
8.04139900 -15.60636997 -1.29420090
24.91572571 -20.79944801 8.83294296
19.79207802 -16.61815643 33.93908310
30.80711365 -42.33562088 20.85138321
21.24141693 -28.50815582 37.43087387
30.12575531 13.66095161 28.43768501
39.89200592 -33.21140671 26.09377670
39.72459793 -15.78421402 28.67166710
20.21756172 -39.86132050 26.37982559
21.99902534 -2.14396381 26.41790390
14.91892815 -35.53380585 18.39806557
16.24066544 -37.77559662 0.26076698
30.90280724 10.95383263 21.99862480
19.89479256 5.33626556 25.92036629
8.27308941 -41.55468750 22.98932266
40.31968689 3.77034569 27.50393677
5.41117096 -29.90507889 -0.59301567
39.94706726 -4.06142044 38.04763794
38.82135010 -34.63008118 22.84498787
20.82823372 -33.80690002 24.92614746
35.11159134 -0.45369148 37.82852554
2.26437187 -25.35694313 11.53265762
22.49335670 -40.43006897 16.82137489
21.18985176 -12.60100460 34.50870514
47.32736206 -34.53171539 50.79587936
29.45903587 -28.86594009 44.56113052
11.67905712 -22.69906998 22.42514992
15.25910568 -27.36220932 27.45151520
32.61220932 -38.31099701 25.70617485
17.12095642 -5.37462616 12.80988693
10.72147369 -32.19805908 18.33169556
11.45071411 -41.24916077 7.09618282
28.81144714 -22.08331299 41.01642609
37.05120468 -8.62575912 32.29646301
44.86254883 -26.95225716 46.47206879
13.71715546 -40.72259903 11.76070309
