-10.18057728 0.37786853 6.38075638
-11.34084702 -0.61733174 5.39682579
-11.32276344 0.38841018 5.78817844
-11.57050037 -0.87129855 5.10621166
-11.28306484 -0.37140650 5.37967157
-9.89790916 0.81760490 6.82018614
-10.81867886 -0.19568145 6.76677036
-10.51794052 -0.66502094 6.03527021
-11.50282764 0.02526930 6.15039873
-11.65857124 -0.08072217 5.76784420
-10.92478275 -0.35968125 5.41022921
-11.34346199 -0.15067892 6.25320911
-10.18487549 0.33811787 5.45046520
-10.16972351 -0.20639201 6.04460526
-10.64793873 0.72331023 5.74566269
-10.14463425 -0.07519986 6.18920946
-10.40593338 0.54202646 6.13715315
-11.53329468 0.12943281 6.02923584
-11.40668774 -0.13741785 6.18977261
-11.33938694 0.26746327 6.44324398
-11.10296249 0.58474129 6.04171276
-10.79902363 1.06917095 5.89318132
-9.88727283 -0.93412369 5.06833172
-10.15818119 0.50278360 6.60865116
-11.74904060 0.96089244 4.95578480
-11.30310917 -0.60171598 5.56740427
-11.21869087 -0.60803622 5.37853336
-10.31709862 -0.42502388 6.05058718
-11.31395912 0.72907478 6.31783772
-11.19162941 -0.64788318 5.47643137
-11.58011818 0.79814249 5.32814932
-10.26054573 0.12788762 5.49936962
-10.05708408 -0.68823689 6.80469418
-9.91277981 0.92026615 6.69133949
-10.06664085 0.80546957 6.80165815
-11.29529667 0.32030797 6.51553583
-10.71070099 0.39070225 5.37940931
-10.34962082 -0.53680086 5.28803778
-10.36816120 0.53479326 5.30487299
-11.38310242 0.28695893 6.16099119
-10.26343536 0.64620095 5.38246679
-10.06107903 0.55457568 6.52954435
-10.48891830 -0.59490162 5.88815641
-11.62015438 0.14906764 5.90137100
-11.08733463 0.65316069 5.73996067
-10.35471630 -0.47748521 5.82209730
-10.50665569 0.37913334 6.48579550
-10.02623367 0.48924565 5.29242277
-10.59528542 0.55178678 6.27102280
-11.28049088 -0.19036803 6.44072723
-10.66899109 0.46008453 6.38919449
-10.98301792 0.62896240 6.08014965
-10.77897644 0.30074081 5.42501068
-11.19181252 0.57951719 6.22521257
-11.38800335 0.20435300 6.22947788
-10.32275772 0.15458040 6.46814775
-10.68915844 -0.00569165 5.06668711
-11.42833328 0.45213261 5.60240221
-10.35014629 -0.46530595 5.87609434
-10.28238201 0.48093835 6.72393465
-11.37726307 0.46348426 6.55871534
-11.08801937 -0.24158174 6.53036022
-11.53955269 0.10721305 5.77507496
-10.34727955 -0.62996936 6.58700705
-10.97950745 -0.03377745 5.06183243
-10.74933052 0.78820026 5.75807190
-10.66539860 -0.04414250 6.75937176
-10.96639633 -0.84934324 5.96514559
-11.53239632 -0.08875225 6.10856867
-10.29262447 0.75086379 5.33668327
-10.93950272 0.91564566 5.94040966
-11.20630360 -0.60371339 5.58300018
-9.89913177 0.79998475 6.79301119
-10.22491550 0.75971681 6.60281515
-11.02279377 0.54354972 5.56714153
-11.04023552 0.12364824 6.53669977
-10.28606987 -0.13485734 5.59931278
-10.57944584 0.61700428 5.56949234
-10.44910431 0.45265743 6.55295992
-10.60727406 0.20529042 5.27997923
-10.97119427 0.87311840 5.85889435
-11.10867214 -0.24611232 6.49566460
-10.89150333 0.14018717 6.87096977
-11.25298405 -0.18464276 5.48467350
-10.17839432 0.78736788 5.22830868
-11.26409912 0.45460176 6.00687075
-10.58200264 0.58599085 5.62253094
-10.97742939 -0.07168356 6.73360634
-11.07825470 0.52964973 6.53839970
-11.04936314 -0.10549410 6.54210043
-10.04681873 0.95710534 5.17928505
-10.94027519 -0.57110691 6.23306227
-11.64464951 -0.90496087 5.01939487
-11.15163040 0.24123441 6.48596525
-10.00551605 -0.01907849 5.71399403
-10.52960777 0.55117047 6.13022089
-10.91366577 0.28101617 5.43976164
-10.24271965 0.55356592 6.66585398
-9.97249317 0.63275814 5.20567036
-9.95713234 -0.92535800 6.82110453
-10.76205921 0.56894082 5.61315727
-10.12269402 -0.74661618 6.53209543
-11.46636772 0.38308311 5.98732901
-10.85865784 0.34104416 5.33713007
-11.24021912 0.67718732 6.45271063
-10.85673904 0.07025848 5.04446316
-11.34623814 -0.32565007 5.40871000
-11.06681633 -0.56731707 5.48344898
-11.45811653 -0.40242183 6.38453627
-11.76140308 -0.15856281 5.98888540
-11.19448280 0.30186769 6.55513239
-10.29294395 -0.09418888 5.50395966
-11.45186710 0.27117929 5.82966566
-10.90653324 0.09979600 6.83100128
-10.92402649 -0.67169207 6.23100567
-11.64745712 -0.68977624 5.17237711
-10.68514729 0.33422464 6.53054142
-10.40274906 0.55057061 6.00543547
-11.57060051 0.58188367 5.29448938
-10.79152679 -1.11082864 5.98739624
-11.17414188 -0.50298876 6.04000711
-10.76020241 -0.07116676 6.84935904
-10.04143333 0.67557400 6.51626253
-10.57784176 -0.61877614 5.81388950
-11.02715683 -0.46566829 5.36758614
-10.82473373 -0.60218018 6.23672628
-10.30345154 0.63782984 5.16074514
-11.51076794 0.16188496 5.70373774
-11.25833321 -0.64676499 5.51933384
-11.29700470 -0.37031201 5.72454405
-11.37553692 -0.26383719 6.24085331
-10.67625904 -0.20606022 6.68853235
-10.53643322 -0.38271511 6.54144382
-11.23550797 0.49337319 6.60240936
-11.16256237 -0.56534630 5.66635942
-10.58459473 -0.37311092 6.49198103
-10.64443207 -0.54235464 6.19249964
-10.46471596 -0.45267797 6.54858303
-10.42707443 -0.53448910 5.74466944
-9.99468994 0.84152019 6.56992149
-10.42708111 0.62631255 6.40878010
-11.07894611 0.01405646 6.57400370
-10.67784214 0.05520121 5.02080822
-10.60450554 -0.11411863 6.62971878
-11.12193680 -0.52000940 5.37186527
-11.24674511 -0.68434602 5.24847984
-11.43275738 -0.36914539 5.55027771
-11.01871395 -0.00434977 5.09825802
-9.82352161 -0.11268395 5.93208122
-11.63254547 0.02392735 6.08700943
-10.06228733 0.86199117 5.22381687
-11.13613224 0.49055517 5.67549706
-10.95670795 0.00625930 6.84346247
-9.85900974 -0.88537055 4.97140026
-10.03732395 0.79416114 6.86897278
-11.31716347 -0.64818275 6.53056669
-9.95656013 -0.68003696 6.64528275
-11.37665176 -0.21343158 5.51832867
-10.88286400 -0.51005340 6.39644814
-10.95291805 -0.58546060 6.20373726
-10.09016418 -0.20927812 5.73392248
-11.37911987 -0.58821553 5.56782961
-11.17922497 -0.16347381 6.48090029
-11.50011539 -0.14961226 6.02210569
-10.24039841 0.70689142 6.33430576
-10.03549385 0.77148074 6.81898212
-11.23819542 -0.67009181 6.45237207
-11.26691628 0.04304817 6.37886429
-10.07283115 -0.61635250 5.09158754
-11.23011971 -0.62445182 5.32011175
-11.24993896 0.52358609 6.08346605
-11.29365253 0.52988088 6.16838026
-10.25818157 0.39810568 6.25977564
-10.62865162 -0.40530372 6.49199581
-11.51915359 0.85309380 5.31187677
-11.03397655 0.13040668 6.70234871
-11.52202797 -0.46586904 6.56920624
-10.93873978 0.87007409 5.85550308
-11.08222294 0.47871801 5.29908848
-10.42800236 0.60082334 5.41788101
-10.13675117 -0.24188069 5.88351250
-11.39306450 -0.03570014 6.25002527
-10.26125336 0.54622376 6.69244099
-10.74166298 0.24528000 5.17571735
-11.12521744 0.60702932 6.23478174
-10.42240715 0.49903971 5.40056849
-10.67124271 0.09453257 5.11609221
-10.58289146 -0.44390824 6.49396181
-11.49066448 -0.47193044 5.31317234
-10.31923389 -0.28543726 5.36933136
-10.93812084 -0.39922595 6.48779202
-11.06073475 0.67228442 5.84139681
-10.81899834 0.13113508 5.00188875
-10.26001549 0.48142347 6.66053200
-10.37074375 0.64294600 5.31134319
-11.30409145 0.54438990 5.67148399
-11.33869267 -0.10445560 6.28832054
-11.16505718 0.62996590 6.53298044
-11.45985603 -0.49779853 5.22377682
-10.18381214 -0.47288013 6.19021749
-10.95634460 0.12934020 5.21441126
-11.61671162 -0.71033043 5.25750256
-11.18137646 0.58299059 5.67205095
-10.01951599 0.88148731 6.77130985
-11.66858482 -0.11849490 6.09880447
-10.94880199 0.96353883 5.96915340
-11.37861633 0.25172606 5.84019470
-11.43952560 -0.36818811 6.39249659
-10.45612335 -0.52726990 5.83615065
-11.49060822 0.69678158 6.75672674
-11.33089828 0.42251197 5.91685534
-10.89310551 0.89707345 6.09320784
-11.23840141 -0.63435274 6.45587587
-11.54281139 0.82296282 6.70235586
-10.32954597 0.34997180 6.02208996
-10.27829361 0.25673953 6.36929321
-11.26136780 -0.68336159 5.26843739
-10.51695442 -0.71114028 6.00606632
-10.70928383 0.21547516 5.27329588
-11.54910183 0.13140464 5.75977230
-10.20551205 -0.28531596 5.87418032
-10.42947006 0.60128492 6.37513399
-10.55498695 0.56546956 5.71912861
-11.07455635 0.53754461 6.12788153
-10.80773067 -0.59398454 6.27392578
-11.10063839 -0.51649892 6.49012709
-9.89985847 -0.03317906 5.81097317
-11.49824905 0.16977660 6.13539076
-10.32211018 0.71055120 6.60588884
-11.00585556 0.64074290 5.78495312
-11.24472523 -0.15270250 6.43169403
-11.32866955 -0.26860255 6.32469177
-10.91703415 -0.84638345 5.95451117
-10.33762550 -0.68146437 5.31062222
-11.41666603 -0.62628049 5.48256636
-11.23932171 -0.50118721 5.24346256
-9.69157219 -0.02026775 5.97048426
-10.08708191 -0.77608085 6.45900869
-11.14097309 0.26544172 6.50610447
-11.40866566 -0.68049616 5.47093248
-10.63389206 0.47806174 6.39085913
-11.33568859 0.70576781 6.59746552
-11.39513397 -0.43267176 6.43932199
-10.79135036 -0.94229430 6.01367521
-11.22792053 -0.63301867 6.39491701
-11.39995098 -0.28018346 5.94195700
-10.93082142 0.01302152 5.02279282
-10.89668846 -0.95294476 5.95816422
-11.11997318 0.00621912 6.60823870
-10.23222828 -0.48873436 6.27031374
-11.44498825 0.62724066 5.12970734
-10.59678078 0.61359042 5.74959373
-10.68609238 -0.64674121 5.66590834
-9.89164829 0.91556072 5.07100630
-11.25675201 -0.65899372 5.45791292
-10.24521446 0.16365361 5.59447241
-10.05891705 -0.60166323 6.43674994
-11.00803375 -0.41263351 5.35965157
-10.57209015 0.49187532 6.51162767
-11.30063057 0.47905371 6.13207531
-10.17676067 0.33987534 6.19616175
-10.77574158 -0.18770041 5.22310209
-10.52037621 0.29214203 5.31063795
-11.43392658 0.14104280 5.70188093
-11.60808754 -0.57719690 5.19776869
-10.99497890 -0.02915223 6.58125019
-11.54647923 -0.74377352 5.07233620
-10.71125031 -0.18354976 6.76553822
-10.95987701 -0.41137075 6.51876116
-10.52995300 0.50394917 6.49571085
-11.53923225 -0.78246349 5.02804375
-10.09980202 -0.54667580 6.51909113
-11.37503433 -0.30180955 5.47356367
-11.62221527 -0.81512493 4.98159075
-9.97292423 -0.72514313 6.71369362
-10.39581013 -0.19907911 5.44263649
-11.36540318 -0.36809078 5.83076286
-11.33973885 -0.31484345 6.19068289
-11.60058784 0.90801382 5.09264755
-10.14802170 -0.65717572 5.50615597
-10.63027000 0.24162215 6.55065393
-11.10477066 -0.06487525 6.53192329
-11.32064533 0.43693754 6.12524891
-10.69995403 -0.56694388 6.40592957
-10.64659119 0.40943077 6.39373016
-9.95608330 0.65555602 6.78469658
-11.15468216 0.59263378 6.39142752
-11.28109837 -0.15152416 6.43934059
-10.57882309 -0.48528284 6.54362583
-11.07256699 0.10791131 5.26756907
-11.61636829 -0.90492290 6.83716822
-10.20724106 0.29565439 6.51476860
-11.28500462 0.45986712 5.79621124
-10.36506176 0.46738559 6.54540825
-10.89581871 0.10209832 6.98119974
-11.43972206 0.49590534 5.57895660
-9.82863808 -0.93736058 5.03475904
-11.12721443 -0.60171211 6.49222803
-11.92056656 0.08018258 5.93158531
-10.90331936 0.71416694 6.01440907
-10.39147091 -0.52073652 6.04777479
-10.97029591 0.76112074 5.73641491
-10.12239170 0.77174884 6.51306009
-11.12921619 0.56807333 5.90983009
-10.20209312 0.72481418 6.59920168
-10.93399334 0.93039745 5.86284685
-11.32190800 -0.62873602 5.21584654
-11.73757458 -0.94132906 6.84620094
-11.55699921 -0.97127932 6.74213362
-11.29926586 -0.67370057 6.56458902
-11.78108692 0.95005685 5.00176191
-11.57275963 -0.92653215 5.19164848
-11.52226448 -0.55216151 5.36789083
-10.12511253 -0.18173733 6.15756035
-11.34278870 0.64193851 6.64638138
-11.44689274 0.27944830 5.97205687
-10.83409882 0.17490843 5.06705999
-10.77107811 0.08726815 4.92758131
-10.27032566 0.40739098 5.30261183
-11.40602112 0.23311649 6.07650280
-11.67196465 -0.71883285 6.73292255
-10.39159775 0.56694430 6.34017420
-11.20317364 -0.54499912 5.28244400
-10.71528912 0.12662436 5.03940964
-10.16736698 -0.56015801 6.38295507
-10.32171059 -0.01748790 5.59034300
-11.23719311 -0.57669485 5.44982862
-10.98245144 0.30696061 5.38513803
-9.94519138 0.87227356 4.99103165
-10.13435555 0.82057536 6.72638798
-11.63799667 0.83650255 5.20229101
-11.30547523 0.57059342 6.25045490
-11.73150539 -0.83755827 6.77592325
-11.14734840 -0.12017566 5.38910532
-11.24248981 -0.47461599 5.77475452
-10.26150131 0.49982446 5.23205280
-11.36198902 -0.32535324 6.11716080
-10.43403339 -0.09270555 5.44231796
-10.23334599 0.35957977 6.24861145
-11.07047462 -0.03016734 6.58351564
-9.97725105 -0.75903976 6.61781454
-11.32507801 0.39943984 5.88035440
-11.48898125 0.71281999 5.33380747
-11.46159840 -0.05938859 6.14281702
-11.42457867 -0.46902657 6.51339054
-11.14286327 -0.52175987 5.81326675
-10.65040112 -0.15537873 5.14509058
-10.63513565 -0.15292907 6.67632198
-11.57211876 -0.73520035 5.24617004
-9.88071918 -0.15864752 6.00663471
-11.70177650 0.78741038 6.64166355
-10.50446796 0.55658466 5.43515301
-11.59744549 -0.67513973 6.79096937
-11.36446190 -0.13473992 5.60374975
-9.99490643 0.59524173 6.50269651
-10.41657448 -0.65641904 5.54436922
-10.32804871 -0.53050637 6.02670050
-11.00330162 -0.46540743 6.45628262
-11.65501213 -0.80974644 5.22914553
-11.29720402 -0.51832676 5.25067377
-10.98867989 0.14587671 6.76023197
-11.24559212 -0.31615520 5.40044498
-11.24490356 -0.37676185 5.31946182
-10.49644756 0.60410190 5.46830416
-11.64337254 0.81815737 6.58310175
-10.08103943 0.50656646 6.38573694
-10.98502254 0.10426876 6.63838053
-10.01036739 -0.79031342 6.86361122
-10.16276550 0.74580735 5.34333324
-11.06630993 -0.45130900 5.42304754
-10.86536980 0.05597735 4.87028074
-10.13859749 0.65805984 6.70472860
-10.80025482 -0.42449972 6.34286213
-10.09438229 -0.71148282 5.30893612
-11.35219002 0.62888998 6.26702738
-10.37398720 0.07090610 6.37302923
-11.11780834 -0.09089907 6.57069635
-10.64320183 0.34764072 5.40312958
-10.89882755 -1.07277286 5.95538807
-10.08540726 0.72167081 6.51084614
-10.84549332 0.23527837 5.17797852
-10.64013577 -0.55380934 6.31472826
-10.69636726 -0.47698498 6.38954926
-11.71261883 0.92276418 6.78567123
-10.74178123 -0.30971655 6.53099966
-11.26449680 -0.70313823 5.41695786
-11.60468578 -0.86917800 4.97607708
-10.08434391 -0.51254362 5.17682505
-10.04814148 0.60905856 6.56692028
-10.16034698 0.40326735 6.47408485
-11.14601612 -0.33499491 5.34300804
-10.50909996 -0.46943653 6.50741339
-10.16137028 -0.51951736 6.36377144
-10.97709942 0.74538893 5.80282736
-10.76973534 0.23582116 5.16996670
-10.45263195 0.22974354 6.51001883
-11.39603615 -0.27334529 5.61599541
-11.39024258 -0.22911447 6.26138067
-10.05725288 0.61343127 5.47637272
-10.62378025 0.62403119 5.71697330
-11.65992641 -0.94769329 5.12908077
-11.76666641 0.04308726 6.09682751
-10.65566635 -0.22017854 6.54150391
-10.24401283 0.78956735 6.63703680
-11.68179226 0.85660160 6.80875158
-10.86145115 -0.66674185 6.20881319
-10.00697994 0.87373400 4.98377371
-11.30171299 -0.59354371 6.28813601
-11.30297375 0.03561821 5.54907799
-10.25052834 0.69816810 5.22186995
-10.31409073 -0.58425391 5.66590452
-10.71544075 -0.75303042 6.20710421
-11.57460213 -0.67984867 5.22697544
-10.21285343 -0.54572725 6.33343554
-10.40849304 0.62814647 5.48147964
-10.24469376 0.47736889 6.13746548
-11.63911247 -0.15599540 6.05122709
-10.43786335 0.32706904 6.47091293
-11.51257992 -0.84809905 5.07740450
-11.52233505 -0.78665811 5.13896751
-9.89892864 -0.78337204 5.13172197
-10.52410030 0.56712651 5.44293594
-10.87738037 0.26385018 5.32921553
-10.12170887 0.56661415 5.44499969
-10.75873184 -0.90357053 6.02348375
-10.20896530 0.80983329 5.14339447
-10.63581371 -0.06750296 6.75001669
-11.33915710 -0.69210708 6.41071606
-11.23358631 -0.11750164 5.44222450
-10.65581608 -0.02550555 5.10901880
-10.20760632 0.60643941 6.28331232
-10.26054001 0.36838952 6.02371788
-10.64707470 0.03142034 6.96091461
-10.13939667 0.75364238 5.27580833
-10.12601566 0.69625181 6.51256227
-11.48884583 0.17883718 5.71651459
-11.32432747 -0.29763594 5.44413280
-10.18586349 -0.40094531 6.23861074
-11.47034740 0.19016108 5.79334068
-11.18006420 -0.49095514 5.29216480
-10.51035404 -0.59836185 5.69584990
-10.94981480 0.20903409 5.14701748
-10.13633537 -0.80640149 6.70688868
-10.80282688 -0.08372390 7.00848293
-10.73093414 0.49027348 5.52816868
-11.03838921 0.58423769 5.96744967
-11.40377045 -0.29338121 6.39636326
-11.57465172 0.83338934 5.05835438
-11.44712257 0.17699438 5.75196791
-10.41460133 0.00051113 6.47355223
-9.78260326 -0.03741349 5.90603495
-11.61635685 0.81969696 6.80610037
-11.21106148 -0.56950170 6.20169735
-10.60254383 -0.27143881 6.52808094
-11.62609768 0.82278043 6.58750725
-10.78011417 1.00764418 5.76944971
-11.49217701 -0.81996590 6.76954556
-10.01246834 0.66714978 5.21833134
-10.30186367 -0.32647020 5.26418447
-10.62181759 0.71256775 5.71714830
-10.93516636 -0.32461351 6.60982466
-11.06724834 -0.67987883 6.06031990
-11.33318996 0.66370082 6.33032465
-9.97547722 -0.01676234 5.78872299
-10.94371414 0.15629421 5.27411461
-11.23378944 -0.54697937 6.62772608
-11.52937984 0.74958193 6.49523783
-11.07457733 0.63016194 6.07004356
-11.48917770 -0.61913425 6.46965170
-10.11889172 -0.77339333 6.73165226
-11.73508263 0.02919026 5.87111807
-11.39689827 -0.02543384 6.14520741
-10.69503117 -0.15635581 5.17770386
-10.55371761 -0.13449401 5.26002502
-11.41184139 0.31188020 6.05378151
-11.22074986 -0.04405296 5.39812517
-11.64579201 0.83827084 6.82841873
-10.10857201 -0.52540272 6.42023182
-10.77925873 0.82112622 5.73062897
-10.79804897 -0.60275424 6.19532776
-11.24712372 0.38473392 6.60273218
-10.31321621 0.38102478 5.80801153
-10.23004913 0.28090942 5.43683100
-11.33904552 0.39893362 5.61932087
-10.71771240 0.97788078 5.83291292
-11.56866741 -0.68480688 5.36598825
-9.67141438 0.01194711 5.93583345
-10.29288292 0.28218853 5.37091160
-10.97238636 -0.67912006 6.11230564
-11.45571327 -0.77024782 6.61552763
-10.95388699 -0.26452190 6.56945038
-11.05757332 -0.60396701 5.58455896
-11.44354916 0.53938276 5.49738407
-10.13274574 0.36675975 5.34414911
-11.74515533 0.87054247 5.05944157
-10.89888477 0.05015410 4.95410490
-9.63341141 -0.07169146 5.96127033
-10.48590851 -0.42927909 6.53113890
-10.71621990 -0.23230448 5.29520512
-10.60303688 0.00112173 5.09338951
-11.26578903 0.53597176 5.25040388
-10.27495766 0.59996408 6.60209751
-10.89842606 0.48475400 5.64229250
-10.17788029 0.31951097 6.52381468
-10.75607014 -0.44149187 6.39209890
-11.26815701 0.43365607 5.31193495
-11.39924049 -0.72354209 6.59665585
-10.20746040 0.23907496 5.65794897
-10.64209557 -0.24983539 5.24075079
-11.24341869 0.59359097 6.30933809
-10.98073864 0.04404092 6.88394308
-10.86605740 0.04281595 7.09972048
-11.34804249 -0.36155242 6.18933058
-11.05675030 0.24317113 5.32306767
-11.28645515 0.61169881 5.19983387
-9.99620056 0.76004112 6.55080605
-11.34415436 -0.27518889 5.55704546
-11.18680954 0.50385654 6.09520960
-10.89803791 0.64164776 5.69130135
-10.47757244 0.16474551 5.37573767
-11.41849613 0.24795127 5.88744974
-11.04323959 0.74760401 5.92416000
-11.31249809 0.34968299 6.56895065
-10.85487747 0.32882312 5.38578272
-10.19925976 -0.26274237 5.70950317
-10.30142784 0.65816963 6.55334139
-11.31875992 -0.23069741 6.41153145
-10.58088493 0.51235795 5.45667791
-10.45101452 0.16761813 6.45233488
-10.19170570 -0.61707461 5.59150648
-10.18050194 -0.28354317 5.76638746
-10.69868660 -0.21999125 5.21168184
-9.96438694 -0.18653773 5.92214060
-11.39280033 0.13799633 6.19158554
-11.05682373 0.23128465 6.52222061
-11.27682018 0.27888897 6.52472067
-10.23530483 0.64469701 5.25124645
-11.40282726 0.59272486 6.71482563
-11.16157722 -0.14630818 6.42831087
-11.45838737 -0.80573088 6.57406044
-10.66030693 0.10688003 5.04942322
-10.24157715 -0.66255099 5.68262720
-11.46402454 0.64593619 5.45765781
-11.09334850 0.35249606 6.57197094
-10.74191952 -1.01045978 6.04917717
-9.85179520 -0.93774635 4.98985863
-9.84406567 0.18204477 5.82124329
-10.21593666 0.42825118 6.14781523
-11.10818958 0.59173149 5.54614973
-10.79622269 -1.15101063 5.84469509
-10.40620708 0.46342465 6.09597063
-9.90865707 -0.80735815 6.69739676
-11.63047981 -0.61944473 6.64277554
-11.79187012 -0.91143954 6.89402628
-11.44301796 0.20989561 6.20672703
-11.44249916 -0.07527542 6.20981884
-11.31432247 0.56728500 6.14013004
-9.92810822 0.03478750 5.77260399
-11.26634789 -0.72337538 5.30538559
-10.95519829 0.73634225 6.02021551
-11.39633846 0.51991236 5.62787724
-11.01486683 0.14231321 6.59795284
-10.31102085 0.20113504 6.46135902
-10.49030685 0.57471812 5.42886162
-10.55982113 -0.65351373 5.99839640
-11.23514843 0.50178248 5.86571169
-10.54302979 0.67706084 5.94300032
-11.66508961 0.70589381 5.23574448
-9.77886486 0.99547625 6.91813707
-10.60291862 -0.64968365 6.12970877
-11.60954857 -0.08998246 6.02348423
-10.73297310 -0.31740603 6.44764996
-10.92460728 0.07049723 6.68458652
-10.10490131 -0.82471383 6.71536112
-10.15619373 0.39560837 5.38335085
-11.04809189 0.09936418 5.27946329
-10.80927563 1.05198801 5.89762974
-10.18423367 -0.14582630 5.70877314
-10.55768490 0.58975214 6.00679255
-11.42017174 0.34592569 6.52781153
-10.28999138 -0.30720094 5.82781315
-10.20305443 0.40064061 6.43576813
-11.25171089 0.68733633 5.27704382
-10.45253468 0.56360030 6.52473021
-11.58057213 0.20020398 5.79800940
-10.33201694 0.59355527 5.36199093
-11.44839287 0.30220461 5.74701691
-10.89598370 0.04168524 6.96346283
-11.42250347 -0.27543005 5.89120436
-11.11490536 -0.60652006 5.47188663
-11.44406414 0.83284003 6.68706846
-9.75273609 0.04792647 5.94180584
-11.11708641 -0.27945542 5.30192232
-10.38081169 0.61913556 6.59937239
-9.95718193 0.80547738 6.62744856
-10.54761124 -0.72951692 5.93390083
-11.68781376 -0.01503108 6.08116198
-10.65673637 0.07280635 5.16350937
-10.47163010 -0.03473702 5.36977863
-11.41305351 -0.79484147 5.14362621
-10.81619263 -0.27401400 5.28624487
-10.60788250 0.73315328 5.84036589
-10.23112583 -0.28867704 5.75563955
-10.30414486 0.74965227 5.36279154
-10.26118088 -0.65323001 5.47903061
-10.98007584 0.22112198 6.68146086
-11.69760227 -1.01010227 4.92928982
-11.26371384 0.52530998 6.06415319
-9.87402916 0.80081129 6.69346762
-10.22941685 0.38717574 5.30862284
-9.97449112 0.70159858 5.27091312
-10.33886719 -0.22025611 5.32098293
-11.59254265 -0.63332945 5.16814709
-11.30345154 -0.64004230 5.28613138
-10.20670033 0.35499376 5.33109951
-11.05653763 0.54082376 5.44493818
-9.80360889 0.03569670 5.82073307
-10.81783676 -0.35610741 6.48891354
-11.43878078 0.22157863 5.76408911
-10.13297272 -0.75365371 5.31633043
-10.23310757 0.18989488 6.26641893
-11.62864780 0.90914387 5.06223726
-10.88365078 0.80219543 5.79420233
-10.53840065 -0.43906349 6.50693274
-10.09111881 0.77256662 6.76616192
-10.40953064 0.53665590 6.57105494
-11.08088398 0.04577979 6.54169893
-10.18747044 0.77281904 6.70535707
-11.66065121 0.82984167 5.24058962
-11.34653282 0.38977861 6.55214691
-10.37270546 0.08041494 5.41330814
-11.62417889 0.72587246 6.82949352
-9.91191578 0.18519664 5.95352411
-11.18483257 0.52407598 5.33836412
-11.10291195 -0.25050047 6.45114660
-10.87079620 0.73756200 6.12792587
-10.92595005 0.61672270 5.72537422
-11.38640690 -0.67034203 5.47367525
-10.25151539 0.29131091 6.35105944
-11.39365768 -0.75957531 5.27391291
-11.52336025 -0.49931905 6.67664385
-11.59994507 -0.64178264 6.72366047
-10.76427746 0.63229227 5.65056276
-10.57774448 -0.29620618 5.39437485
-10.60767841 0.15480919 5.26234579
-11.08000469 0.27886200 5.29797220
-10.46737862 -0.61322278 6.33591175
-10.19379330 -0.77175963 5.31299257
-10.13940907 -0.67901546 5.13404179
-11.06882477 -0.01993888 6.54985332
-11.56477547 -0.62785691 5.11143541
-9.79572010 -0.05861941 6.02914524
-10.19537067 -0.71035719 5.35082531
-10.25828743 -0.61045504 5.52493048
-11.26898670 -0.49509305 6.07557964
-10.81487942 -0.57032919 6.30913019
-10.43867874 0.54491806 5.51866865
-11.28753281 -0.73186803 6.43505192
-10.66345215 0.36628631 6.43322849
-11.37974739 -0.25856164 6.28073788
-10.61798096 -0.19899867 6.56424570
-10.63905621 -0.01443833 4.97913408
-9.84768486 -0.14116275 5.83329296
-10.62585163 0.19441527 5.15664387
-10.75291634 0.55924457 5.61068249
-11.23110867 -0.57487458 5.50576305
-11.05187798 -0.29971796 6.45415258
-11.55296803 0.74863279 5.13397646
-9.91418839 -0.09064088 6.06711531
-10.94731903 0.80080408 6.10898733
-11.22948360 0.52788091 6.08402395
-10.53800201 0.16352418 5.27618504
-10.24042988 -0.56781459 5.20519495
-11.15510654 -0.12692851 6.45433426
-11.05233002 -0.54970843 5.46735573
-10.23590851 -0.32958391 5.84610033
-11.54787254 -0.51840764 5.17392826
-10.85700035 0.34122062 6.41027451
-9.79553318 -0.06458955 5.88568544
-10.16070938 0.45969746 6.38521147
-11.24440002 0.43175107 5.26571274
-10.99558735 0.28407428 5.32413149
-10.81980133 0.38234636 5.40916681
-10.90979671 -0.77736956 6.17070198
-11.63320827 0.92934304 5.01055670
-10.36386395 -0.66077650 6.62620449
-10.60121822 -0.05125113 5.10436869
-11.34856892 -0.25601941 6.40456629
-10.54799747 0.55775774 5.50325012
-10.84078121 -0.02340156 7.02422953
-10.90650558 -0.42154664 5.47748232
-10.76460266 0.26297057 5.24201059
-10.76870155 -0.25859401 6.53355837
-11.58884907 0.55765700 5.25996923
-10.30735207 0.13059151 5.42521477
-10.85128307 0.77288169 5.74383640
-11.11810112 0.49449599 5.78577137
-11.84527397 -0.04897868 6.05794668
-10.66434479 0.19610484 5.23230886
-10.91654301 0.23642759 6.60475922
-10.25815105 -0.02977581 5.49973583
-11.26125717 -0.23299780 5.35758495
-10.92820168 -0.50139004 6.49270964
-10.11563206 0.50097752 5.41231489
-10.37367821 0.60617566 6.51981926
-10.38595581 -0.57837427 6.14996290
-10.22274399 -0.28499302 5.89929676
-11.37565231 0.42743853 5.75097895
-10.63401794 0.15240861 5.34942532
-10.86960411 0.43447697 5.44630241
-9.81909943 -0.96659827 6.82977962
-10.21561146 -0.72801787 5.34792948
-10.53168774 0.60007501 6.39949512
-10.90886402 1.13669026 5.91252136
-11.38917446 0.43630573 6.22073412
-11.25890064 0.07648398 6.45453501
-10.20476055 0.10854157 5.66500092
-10.02375126 0.54869896 6.53755569
-10.65396214 0.89495468 5.81050682
-11.77397346 0.09512702 5.95555353
-11.47515297 0.00019144 6.16386938
-10.03492165 -0.67521137 6.55437660
-10.09610844 -0.06612016 6.12890482
-11.15682793 0.04853347 5.37996340
-10.75443840 -0.01412245 6.97980356
-9.88695431 -0.90120417 6.89189529
-10.57235813 -0.61231327 6.28312826
-11.40483856 0.41946685 5.61012173
-9.97665596 0.22863439 5.87756014
-11.23423862 -0.68359971 6.44569349
-10.86179447 -1.11123753 5.96920156
-11.52463055 0.68590164 6.50849533
-10.59522438 0.48245090 6.37092113
-11.51820564 0.19401403 6.14519501
-10.13221741 0.47574568 5.44387007
-9.91160583 -0.14976479 5.80792809
-10.54385281 0.39392409 5.34355307
-10.60130501 -0.26684660 6.51892614
-10.79584599 -1.10849404 5.95015430
-10.31439686 0.60246837 6.63510323
-11.10344315 0.61927092 5.88623428
-11.66067410 0.12819310 5.99528027
-11.31660080 -0.52732879 5.62889862
-10.90873051 0.67232132 5.70700884
-10.44906330 0.05383982 5.44505644
-11.43521786 -0.45367783 5.44938135
-10.24538517 0.13849328 6.42601156
-11.14793873 -0.25738332 5.40416956
-10.02228832 0.67867601 5.20557976
-11.72867107 0.13398094 5.97841930
-10.86360168 0.24714109 5.33638477
-10.61380291 0.47325450 5.45914555
-10.27058601 0.23738337 5.40643024
-11.38344097 0.36339623 5.73107004
-10.59019375 0.59106618 5.55714560
-11.38268471 0.58446747 6.25621986
-11.48836327 -0.53241163 6.67100286
-11.00677681 -0.38447419 5.31940413
-11.82907963 -0.06925736 5.91999626
-10.20340538 0.35098559 6.51790047
-11.35010242 0.34790048 5.94689560
-10.93295383 0.93806952 5.87256193
-10.59151173 0.55382228 6.40633392
-10.04300690 -0.73622942 6.74280071
-10.72814560 0.49487209 5.56637001
-11.67208004 0.77368635 5.22949219
-11.38574791 0.58937174 5.53423405
-10.25360775 0.49137041 6.15537357
-9.88580513 0.09373087 5.83561850
-11.24190712 0.43066671 6.00814867
-10.87478638 -0.76599091 6.16737938
-11.19739914 -0.59454739 5.39097691
-10.30851364 -0.39749768 5.26993370
-11.57691574 -0.55296451 5.16736507
-11.53057003 -0.50664634 5.29305553
-11.77180004 1.01068485 6.93816328
-10.41757011 -0.08012517 5.47686577
-9.93286514 -0.97448128 6.82235718
-10.20767307 -0.13392302 5.70220137
-10.69367123 -0.70614749 5.78511429
-10.42990875 -0.14710715 5.36070776
-10.28297138 -0.51564962 5.73404026
-10.33102703 -0.50599200 5.70676184
-11.56794548 0.73795098 5.32712603
-11.49338627 0.53560793 6.66464758
-11.41034603 0.82035971 6.43843222
-11.06901264 0.12234271 6.50991344
-11.31376648 -0.76397920 5.39147806
-10.27495289 0.70059091 5.33584261
-10.68853188 0.62221575 5.71035624
-10.96046925 0.64472884 5.75719547
-10.07203102 -0.74884117 6.49494839
-10.13877296 0.46579328 5.23631573
-11.12815380 -0.55331314 5.59969664
-11.10954189 -0.62749839 6.44059658
-10.75867844 -0.96481556 6.03870583
-11.84413338 -0.00556091 5.95703745
-10.68740749 -0.16528627 5.25718403
-9.97236347 0.04331963 5.75404263
-9.97078896 -0.83587909 6.86303473
-10.24644947 -0.69212824 5.57193184
-10.58759022 -0.14938261 5.08620501
-11.10772991 0.56485164 6.10548258
-11.43420601 -0.48639679 5.27250099
-10.10121918 -0.67006451 6.46341372
-11.00635910 0.61537564 6.08017159
-10.77305603 0.65802878 5.74051142
-10.01068211 -0.76420277 6.61124516
-11.25118160 0.49721652 5.97652054
-10.46112537 0.14974099 5.35168266
-10.62064171 -0.63080633 5.80085468
-11.40135574 -0.34933794 5.35858822
-10.23403835 -0.08349093 5.66041803
-10.94952869 -0.58627230 6.16636944
-10.07841587 0.81384474 6.57140923
-10.91193008 0.85823148 5.88361406
-10.62034130 -0.18828563 5.29566526
-10.17686558 -0.34386361 5.81150436
-11.30195427 -0.57490307 5.20042658
-10.92139244 0.82632917 5.90204811
-10.38819790 -0.54645193 5.64855671
-11.57619572 -0.90384316 6.79192257
-10.15370655 -0.81791991 5.33010292
-10.29825115 -0.36579299 5.79246902
-10.85516930 -0.29216740 6.60005093
-11.58271122 0.59055406 5.33967590
-10.14933586 0.30806851 6.13681984
-10.59995174 0.93876863 5.86842728
-10.67652988 0.72105902 5.71338415
-11.48824978 -0.20935515 6.14477158
-11.29770088 0.32846054 5.85733891
-11.46213818 -0.76150423 5.12875175
-10.26814556 -0.65357393 6.55670834
-10.28988075 -0.41598791 5.19020891
-11.72031975 0.79204464 5.18613434
-10.65128517 0.47272086 5.43621922
-11.37002563 0.38968244 6.17345572
-10.13846397 -0.01302662 5.75733852
-10.71356392 -1.03570724 5.83111906
-10.87332439 -0.51879758 6.21678734
-10.97146034 -0.81435674 6.08092213
-10.68643856 -0.01398353 6.94978333
-11.79171753 -0.99344790 4.95333147
-9.78726768 0.10255087 5.85385609
-10.70511532 -0.08815018 6.82602358
-11.68708801 -0.95046324 5.02208662
-10.95893383 -0.85084438 6.04096556
-10.61022663 -0.30499858 6.59887886
-9.93469906 -0.04872087 6.06622505
-11.58807182 0.19107534 6.02263832
-11.33539009 -0.38485134 5.70094299
-10.97294235 0.79258925 6.02773571
-11.48482800 0.21048889 5.81972408
-11.36596775 -0.70111722 5.21336889
-10.24922371 0.44641542 6.59210014
-10.71948338 -0.97309273 6.11313486
-11.43827820 0.16621019 5.72548723
-10.50550842 0.48272285 6.49306870
-11.40296268 -0.33648431 5.39334679
-10.81832981 -0.49978426 6.24347067
-11.64274216 0.85288721 5.05487204
-11.17598057 -0.58890951 6.35611153
-10.16525173 0.06495962 5.74159718
-11.06490040 0.33580688 6.43960714
-10.34718704 0.21206811 6.41921854
-10.16310883 0.46640173 6.48227358
-11.00899029 -0.01110482 6.68841028
-10.25552750 -0.53018272 5.81926298
-10.33603573 0.58884293 6.24057913
-10.81018448 0.96534520 5.87531996
-9.89373112 0.17615442 5.94762039
-10.85061073 0.31381929 5.38837433
-10.83991241 -0.01808594 7.01848984
-9.93651104 -0.76487976 4.96944237
-11.39091206 0.61256653 6.69556093
-10.72752285 -0.05101154 5.00012302
-11.73985767 -0.91207200 4.97204065
-10.67147827 -0.00393231 4.89228821
-10.13772488 -0.55146170 6.38857126
-9.66102123 -0.06140452 5.85250330
-11.69307709 -0.87792295 6.73657513
-10.36504650 -0.44093642 5.82693195
-9.98476219 -0.77575231 6.60905170
-10.82750225 -0.97741246 6.07792187
-11.54773140 -0.89820760 5.09450722
-11.39085484 -0.17555216 6.21243572
-11.33149815 -0.40504253 5.25745392
-11.46111298 0.67123908 5.08103466
-10.36461926 0.24407658 6.53044033
-10.28319454 0.26134092 6.31832314
-11.34816742 0.60566884 6.26023817
-11.30072403 -0.14635697 5.43708706
-10.10101032 -0.72664416 5.31885433
-11.67500019 0.18489642 5.97648668
-10.99237728 -0.59972018 6.31485176
-11.82306957 0.11112181 5.91264582
-10.07921410 -0.09421649 5.71883297
-10.19985008 0.80860382 6.66796923
-11.05017281 0.64528668 5.89454937
-11.42125034 -0.25500649 5.64658499
-10.44494629 0.60765964 5.53494835
-10.04511642 -0.55694813 5.16675615
-11.34900284 0.51809281 6.67749739
-11.38819504 -0.78002489 5.24786949
-10.67426395 0.09276346 5.07191372
-10.91177559 0.86954457 6.12067366
-10.79596424 -0.15561256 6.77266598
-11.49339771 0.17815979 5.71481895
-11.21170330 0.56866652 5.27433491
-10.24004364 -0.49117056 5.72435999
-10.17611885 0.10988405 5.65965128
-10.92922020 -0.38158074 5.45061445
-10.91377258 0.35935050 5.44195604
-11.47850227 0.04201473 6.19680595
-11.07579517 -0.24117760 6.51408434
-9.98118591 0.65538669 5.29562616
-10.17946053 0.87201548 5.29873943
-11.28729248 -0.11712857 6.46607256
-11.04311657 0.56817710 5.61863136
-10.78656578 -0.50725478 6.21533918
-11.32788467 0.64372993 5.19503880
-10.21363449 -0.32836106 5.29567814
-9.83670902 0.83084738 6.82081890
-9.99624062 0.87837774 6.72112274
-10.63305950 0.79552418 5.88446236
-11.18363285 -0.61630738 5.71738243
-10.83706856 -0.33590752 6.46013832
-10.39824963 0.52635920 6.11050367
-10.32110500 0.56101674 6.65632582
-10.75749397 -0.00365159 4.92015123
-11.19922066 0.47232842 6.59050941
-11.42579460 -0.50734258 6.47662544
-11.58247852 -0.85153902 5.29501295
-10.70446587 -0.09655712 7.03652763
-11.28343678 0.80534273 5.19614363
-11.36626720 0.06248872 6.28420162
-10.15390491 0.15573776 5.64893103
-11.30033016 0.17576887 6.41521788
-11.53488827 -0.11719378 6.15705538
-10.95690060 -0.47357416 6.50539207
-10.29888725 -0.26750928 5.30723190
-10.82716560 0.05437895 6.99487495
-10.38768673 -0.55742007 5.61054516
-10.70647240 -0.69540650 6.13138103
-10.32499409 -0.48378918 5.72856903
-10.73569012 -0.10414387 5.01448393
-9.94180012 0.74845719 6.71077442
-10.02248001 -0.12882710 6.12994146
-10.22898197 -0.51401591 6.13385296
-10.17503071 0.51375747 6.60893250
-11.22773266 0.35132334 6.52432966
-10.64538860 -0.47719815 6.39464664
-11.63361740 -0.75712675 6.71935415
-10.62448406 0.56398648 6.27455950
-11.06062222 -0.62047565 6.07324123
-10.19471073 -0.77545017 5.39665413
-10.05190277 0.65098137 6.53310823
-10.98085403 0.73979896 5.87500715
-11.38711929 0.26121780 5.78517103
-10.13860130 0.76913625 6.79623556
-11.14674759 -0.60085547 6.29084444
-10.30260468 0.68359905 6.36940432
-10.16298103 -0.38628790 6.33712721
-11.60514164 -0.62432426 5.23674822
-11.29952335 0.39424753 5.60005665
-10.67310619 1.05744743 5.86674118
-10.74558926 0.25055405 5.17369699
-10.75661564 -0.89844900 5.81535864
-10.24243641 0.22168465 5.46528387
-10.21839142 -0.69188517 6.36806822
-10.22635841 0.19666302 6.27343321
-9.74079037 -0.11280791 6.02536821
-10.10127258 0.52387774 6.43984652
-11.61065197 -0.77680862 4.99468613
-10.36571217 0.66168922 5.42343426
-10.05975151 0.67704600 6.73486853
-10.62308979 0.53846949 6.25127745
-9.83730793 1.00093782 6.82990456
-10.84401417 0.15345076 6.88378239
-10.81262684 0.08783624 4.83510113
-9.91970539 -0.18486410 5.95717239
-11.33302593 0.52762371 6.15428495
-11.01527500 0.14142975 5.31430960
-11.73854446 0.16722474 5.91855478
-11.26382828 -0.65505600 5.54533482
-10.58488750 0.40346962 6.45997858
-10.66453075 -0.04287205 6.89368629
-11.57609844 -0.54952252 6.73230028
-11.16510582 -0.62331343 6.39377689
-10.16855145 0.44498426 6.44370127
-10.35032082 -0.49445406 5.86415815
-10.86347294 0.51655835 5.61500216
-10.79763126 1.13111436 5.92564297
-10.15399742 0.51419580 5.43358850
-10.32621193 -0.43539539 5.82790470
-11.03063393 0.62510210 5.86643124
-10.20351505 0.67797941 6.48736429
-11.64612865 -0.74337012 5.12369204
-10.88491917 0.93631780 5.84477758
-11.41434193 0.17641303 5.74377489
-11.65724277 -0.16285455 5.99809313
-11.03235054 0.62260109 5.81443882
-11.02208328 -0.36663166 5.42453814
-11.26987171 0.43443599 6.05688047
-10.06134796 -0.82340717 5.33576775
-10.63515091 -0.66505957 6.15426731
-11.44319344 -0.74218535 5.48057747
-10.65797901 -0.21188796 6.68978977
-10.63193989 0.17192417 5.20106697
-10.18290520 0.30237666 5.43390036
-11.08588505 0.56420124 5.81609726
-10.15077114 -0.73616105 6.50166798
-10.58146477 -0.02319206 5.31577206
-11.25508308 0.18361971 6.48104239
-11.43084621 0.53861892 5.53300762
-11.36384487 0.60617346 6.31677818
-11.38117409 -0.37336731 6.44049692
-11.82170296 -0.93767476 4.92443132
-11.55321884 -0.84382838 5.29828262
-11.36354542 -0.35982451 5.69528437
-10.45173740 0.00294316 5.32259560
-9.96453667 0.92496598 4.96749401
-11.00741291 0.21337141 5.23938942
-10.27969456 -0.45365652 5.21990776
-10.23565578 0.41197544 6.54557562
-10.27517700 -0.20257579 5.73874664
-11.37244892 -0.63195968 5.53429937
-11.47971344 -0.54836100 5.45717573
-10.72800159 0.11190682 4.94799089
-9.94779015 -0.80525368 5.26767349
-10.93116379 0.44887057 5.46777058
-10.78275967 0.71287286 5.73731947
-11.47108936 -0.80683470 5.22291851
-10.32822037 -0.29172543 5.32355690
-11.11673355 -0.57134479 5.39420414
-11.50037479 -0.83145243 5.15034199
-10.18431377 -0.37374154 5.30274296
-11.27511978 0.41655508 5.24514246
-10.79046440 -0.41147530 6.35066175
-11.43262768 -0.48123971 5.30796385
-11.25044441 0.60679239 6.28859806
-11.34552479 0.28853792 5.86090755
-11.44818974 -0.49131227 5.32758760
-11.61647701 -0.78818339 5.19321680
-10.89430618 0.00507870 6.94582176
-10.28044128 -0.35540035 5.26336861
-10.83817863 -0.92981809 6.01442814
-11.01842213 -0.16031139 6.58238840
-9.67941475 0.01412555 5.88408995
-11.36027050 -0.30041829 5.44915676
-10.45264626 -0.55528307 5.66043568
-11.37170315 -0.78639680 6.64708805
-11.42689896 -0.56153864 5.57961798
-10.14301777 0.46620324 6.59620571
-11.01358128 0.72030282 5.96326637
-9.98946190 -0.87061149 5.16589928
-11.30183983 -0.62398261 6.55048370
-10.81140709 0.49550235 5.57466745
-10.33832932 -0.50342047 6.03745604
-10.15399456 0.47614333 6.38420677
-10.21443748 -0.54011655 5.19362640
-11.56551838 -0.61802077 6.64560032
-10.27394009 -0.63146001 5.62014961
-11.22253418 -0.54757947 5.31758451
-11.55724049 -0.69285637 5.28920460
-9.81142712 -0.06275304 6.07500029
-10.14046383 0.58105713 5.29472828
-11.01964092 0.54557002 5.62300968
-10.97571373 -0.15257950 6.65591764
-11.55838776 0.91473687 6.71621943
-10.25574589 0.06099382 5.61416149
-11.28495502 -0.11241184 6.49114418
-11.09070396 0.71099466 5.98999119
-10.44448662 -0.16515675 5.44716024
-10.84206772 -0.76666605 6.09011793
-11.77292633 0.89155960 5.02219486
-11.69531059 0.93723303 5.11359978
-10.92430878 0.62249160 5.65641260
-11.25450134 -0.56595069 5.56558275
-10.12450695 0.59702235 6.27228117
-11.49834442 -0.02474196 6.16072512
-11.23516464 0.51879281 6.03933430
-10.37491798 -0.55835330 5.73755407
-10.42742157 0.56022388 6.37246275
-10.17172813 0.38546810 5.30867910
-10.10037231 -0.08705903 5.65384197
-10.12967396 0.76860952 6.50876045
-10.20117569 -0.04300513 5.57801056
-10.71220875 0.27607629 5.26697397
-10.97439575 0.16029954 6.62356853
-10.89819145 -0.77201545 6.06937695
-10.88128281 0.09819510 4.92125559
-10.80439091 0.65113074 5.75027418
-10.66214466 -0.86376601 5.96799994
-11.35965443 -0.72308719 5.37729549
-10.22061443 -0.62809402 5.50315046
-10.83035946 0.89454329 6.09849596
-11.14917850 0.36122924 6.54379654
-10.72211075 0.97855562 5.79428673
-10.86729908 0.59231788 5.57748032
-11.49601269 0.10906780 6.16210222
-11.56101227 0.10760409 5.82832861
-11.64822292 -0.67715138 5.27128363
-10.32929611 -0.53771228 6.66600466
-10.58693790 0.18585037 5.23109341
-11.39217091 -0.38054049 5.63010502
-10.06955814 0.78691727 6.79809284
-11.63604069 0.93084455 6.92837334
-11.58124161 0.65818352 5.26188850
-9.98723316 -0.77271038 6.63792849
-10.19373035 -0.44507384 6.28551292
-10.61159706 0.93688369 5.90797615
-10.64246559 0.23501489 5.32834482
-11.40402508 0.42892158 5.67718410
-10.90454865 -0.59609669 6.23342276
-10.98716164 -0.06454070 6.77039528
-10.66062641 -0.90947932 5.83976936
-11.34224224 -0.48493627 5.67542791
-9.84521675 0.92626452 6.83547258
-11.29369831 0.20828471 6.47259378
-9.67650127 0.02616627 5.94580936
-11.35664082 -0.18140769 6.24419260
-10.89267445 -0.16142488 6.72239637
-11.41571236 0.35046330 6.13576984
-11.13777733 0.53907090 5.81125164
-10.06563187 0.50137913 5.29572392
-11.80490685 -0.03498605 5.95318556
-11.51142788 0.55317169 5.36012173
-11.50803757 0.89755428 6.68421268
-10.21929169 -0.37794080 6.16029978
-10.02762127 0.12195687 5.72174358
-10.74004364 -0.02769504 4.78154278
-11.24791527 0.59468061 5.21744633
-10.88690186 -0.97492683 6.04073477
-10.67245293 0.89384550 5.75643158
-11.04971504 -0.39831865 5.38356304
-10.78161621 0.06068625 4.80395269
-10.16185093 0.36112052 5.33190298
-10.21901512 0.32885048 6.52704334
-11.05473518 0.10689703 5.28317022
-11.24314404 0.35351765 5.97731590
-11.42965984 -0.33015546 5.41795921
-11.30937862 0.04605811 6.31750727
-11.67222309 0.16678891 5.94380331
-10.45557785 0.06393292 5.41609335
-11.21217060 -0.38171759 5.28702164
-10.36884308 -0.65760440 5.52308226
-10.15570068 0.61401188 6.71981764
-10.65403366 0.75243062 5.79700851
-10.19260979 0.62456572 6.28297138
-10.28614807 0.65909612 6.41061592
-10.33345127 0.13778485 5.42711449
-10.57570934 -0.82663351 5.78389406
-11.56321812 0.76648456 6.58118534
-10.03366661 -0.74046338 5.31073284
-10.74646854 -0.33105198 6.50070190
-10.86364937 0.88851649 5.74673319
-10.56995869 0.20355636 5.31758308
-11.32874775 -0.73537505 6.45696592
-11.50117683 -0.47542933 5.52146864
-11.05399418 0.62858582 6.03936768
-10.37370682 0.43821228 6.58358002
-10.36290932 0.50075608 6.11134768
-11.40620041 -0.51779705 5.66778708
-11.73479366 -0.93956226 4.97506857
-10.96247959 -0.80072093 6.02904272
-11.33150387 -0.27937400 5.37514591
-10.77551365 -0.55221421 6.38607073
-10.82971478 0.41733199 5.41638613
-11.60907936 0.71187001 5.26718473
-11.00909710 0.70459259 6.07558918
-11.15433788 -0.57947201 6.53630638
-10.62048054 0.05508592 5.11651993
-10.91560841 0.18557014 6.63045597
-10.43524837 -0.24386711 5.38611650
-10.60365677 -0.04779954 5.02243042
-11.51185131 0.07234356 5.69850397
-10.82290554 0.22789030 5.24541140
-10.81713867 0.25087789 5.39634132
-11.23912334 -0.57188803 5.53180313
-11.41322041 -0.39058703 5.33444262
-11.18845367 -0.29692605 5.35310698
-10.83766079 0.29236996 5.40737152
-11.45373631 -0.51177794 5.49413395
-10.92228317 -0.93431246 6.06181669
-9.98958969 0.90969050 5.03728819
-10.79964447 0.96026069 5.86752319
-10.69063759 -0.19607697 6.78762722
-10.91849422 0.51854283 5.52375650
-11.57871056 -0.63838863 5.31323767
-11.67933083 0.05624723 5.84358025
-10.09224415 0.71836299 6.42300940
-9.87764549 -0.19354469 5.92758179
-11.37580109 -0.47509050 5.63383865
-10.78204346 -0.16212495 6.66759682
-11.03949356 0.63075602 6.09666204
-10.22129822 -0.63961118 5.50946856
-11.02477551 -0.41513678 5.37387562
-11.70802116 0.84169120 6.79108524
-10.12933064 -0.20422153 5.76775742
-10.31572437 0.57931298 6.19746971
-11.50278282 0.61410809 5.45428276
-11.71949005 -1.03820527 6.84351397
-11.47607708 -0.46020728 6.52015018
-9.92067432 0.81954223 5.06384897
-9.93712997 0.79163438 6.74225807
-10.42539310 -0.14631063 5.42581320
-10.57347965 -0.06760781 6.62379789
-10.34339428 -0.54545659 5.74584532
-10.61183548 0.25489518 5.34907627
-10.14428520 0.77899981 6.49116087
-11.79220963 0.04697279 5.84794283
-11.12481785 0.59848982 6.08568478
-11.58219528 0.81710738 5.04160786
-10.37249184 -0.25710306 5.42769241
-10.02354145 -0.81793422 6.79570913
-10.27072430 0.53517687 6.16914797
-10.20199108 0.49367741 5.50335264
-11.11039066 -0.61570776 6.30129337
-10.14543152 -0.49374461 6.30260277
-10.87980556 -0.84783620 6.05785179
-9.88067055 0.08663092 5.80419159
-11.29100704 0.03250826 6.41379642
-10.06120205 0.86886775 6.81530809
-11.61985111 -0.17276266 5.95052958
-11.22119808 -0.45519230 5.34482002
-11.12139988 -0.57702523 6.47721291
-11.40697956 -0.79993707 6.66526508
-11.50804710 -0.07968840 6.09856319
-11.55380535 0.19651745 5.89254856
-11.18349838 0.53533137 5.95430422
-10.93685436 -0.05748395 6.84846592
-11.34938908 -0.37191319 5.78901291
-10.51842117 0.02465645 5.10955095
-10.46576309 0.55479443 6.54412127
-10.68006134 0.56158197 6.43627262
-10.49676704 0.23285910 5.40333748
-10.64280796 0.64315009 5.73143291
-10.03312302 0.48286906 5.35579681
-10.24860191 -0.32444724 6.21085596
-10.07279491 0.20422208 5.84478569
-11.77750206 -0.94936937 6.89717865
-10.23442745 0.22165608 5.47097349
-10.98014736 -0.38897744 5.39727974
-10.15365887 0.49873710 6.34485245
-10.62211323 -0.72391951 5.84192085
-10.25301266 -0.20957990 5.69468498
-11.35989475 -0.21564694 6.40174294
-11.38532734 -0.74437362 6.58423996
-10.00477028 0.60875267 6.69104481
-10.80754471 0.85748917 5.70394945
-11.26804352 0.43346977 6.55158472
-10.25984097 0.28576377 6.24011040
-10.73590755 -0.08489624 6.97225857
-11.74795341 -0.09850376 6.12266397
-10.06285667 0.11444508 5.77564669
-11.02657413 0.02624334 6.83203506
-10.91520309 -0.57175320 6.28276300
-10.22408581 -0.72853506 6.74487209
-10.30702591 0.47146967 6.56813192
-10.28473091 -0.59360892 6.65103579
-10.88335514 0.37640369 5.46051216
-11.44889927 -0.18804726 6.20973349
-11.26786232 0.17145017 6.40080786
-10.12848854 -0.24480739 5.74620533
-10.12259102 0.45950755 6.52323723
-11.60915756 -0.67135203 6.61808872
-11.44805241 -0.78540581 6.76592731
-9.85406780 -0.93730658 6.94996977
-10.69225502 -0.22190753 6.61043358
-10.74299526 0.26821062 5.36978626
-11.28921795 -0.29504713 5.29280901
-11.45189190 0.22397822 6.15506983
-11.15362740 0.55333418 6.17701626
-11.42541790 0.04687646 6.20292807
-10.75265980 -0.11624648 6.71186829
-10.87714767 -0.48286402 6.32318640
-10.46369743 0.43552536 6.54506302
-11.38363647 -0.74503219 6.54290056
-9.91027069 0.79047477 6.70949602
-10.38591576 -0.52118748 5.73655844
-10.83553219 -0.11787553 6.85723209
-9.95758533 0.69381440 5.18580246
-11.12101269 0.61484051 6.19337845
-10.93547535 -0.11555479 6.69609880
-11.32210922 0.69397372 6.39723206
-10.25032043 -0.59112006 5.60705566
-10.47711754 -0.57619196 5.65636349
-10.33605003 0.65341955 6.52276134
-10.06062412 0.87611705 5.14341593
-11.20036697 -0.50558579 5.27385044
-10.36400414 -0.23507325 5.47277021
-9.90257740 0.90901059 6.76025677
-11.16557121 0.01691158 6.52897263
-10.14075565 -0.59183633 6.37940884
-10.70490551 0.39186102 5.44208241
-10.01260185 0.16582566 5.79634857
-11.42682266 0.24784210 5.82686901
-11.56378841 -0.61758369 5.31507015
-10.53686047 -0.66538131 5.67390299
-11.16794205 0.52897573 6.14597893
-10.42967892 -0.34418634 6.63081264
-10.15711784 -0.47064364 6.30820799
-10.52102470 -0.55705339 6.50020742
-10.00930023 0.84672803 6.65242577
-10.64138317 -0.13775089 6.64665318
-10.72336960 -0.97260779 5.92181826
-11.07098675 0.03273630 6.59768343
-10.73397732 -0.51821589 6.34959555
-11.06157398 0.64225131 5.75178194
-11.54525661 -0.50390589 5.33967066
-11.02601624 0.02711459 6.75034809
-11.16418648 -0.38715538 5.36778784
-10.89676571 0.04955195 5.06293631
-10.86684513 1.03616369 5.85943413
-10.83561134 0.09903950 7.01283503
-10.17131996 -0.46353093 5.27446795
-11.48569393 -0.81951147 6.59367466
-10.95066261 0.78139013 6.11586714
-11.27326870 0.41415054 5.99925756
-10.19492340 0.32424906 5.37361383
-10.63942242 0.27323461 5.25833082
-11.17924881 0.16159762 6.47978020
-10.33736515 0.23659992 6.51612473
-11.19322300 0.58603638 5.34235620
-10.19061279 0.50020409 5.30771923
-10.28055000 0.24388915 5.35425282
-10.26175785 0.35549337 6.12883139
-10.59936714 0.48874640 6.44434595
-11.35971642 -0.33170992 5.41617298
-10.27394295 0.40165138 6.56441402
-9.98141098 -0.67775202 5.15604210
-10.78283787 0.59055716 5.64074945
-11.41895771 0.41632926 6.50903559
-11.63074207 -0.87645417 5.10953808
-10.68441963 0.33324438 5.38861704
-9.91744614 -0.02296112 5.75238943
-11.46235943 -0.40617800 6.31681252
-10.78360081 -0.09897733 6.99842739
-11.04197693 -0.36343443 6.52767897
-9.62497807 0.00215257 5.87806845
-11.28702831 -0.74827147 5.32421112
-10.40523052 0.12415779 5.42653942
-11.33968639 -0.21350141 6.42665625
-10.40403461 -0.51170671 5.63090992
-11.52701473 0.63753730 6.47396946
-10.46965599 -0.18046901 5.38846636
-10.00366688 0.70323110 6.78078079
-10.69758224 -0.56685275 6.23993015
-10.71541023 -1.09471214 5.96936750
-11.21685028 -0.11495011 5.40163898
-10.66923141 -0.88270682 6.01474905
-10.06303978 0.56129402 5.24936104
-10.64934731 -0.92616266 5.87031746
-10.58509350 -0.15115756 5.20589304
