2.21992016 -1.23942995 -9.36424255
-3.24775600 -0.47495186 -16.81399345
1.83891857 0.02005765 -14.26620007
0.29741603 2.88459492 -9.20705414
1.63656592 1.97759426 -9.64447212
-3.23851347 1.39245319 -14.87580872
2.77902365 2.32983780 -13.39369202
3.15720582 -4.16926003 -9.37463760
-3.79926038 -2.41407633 -13.65828514
-3.25441670 -0.50697237 -16.93944740
3.61973143 0.83412105 -8.86632919
2.92049932 -3.93326926 -10.01026535
1.79192865 0.47710302 -12.10116291
2.34405327 -3.99913478 -10.51216412
1.81029272 -0.85395473 -11.30960464
3.34653068 -4.12469339 -14.71336651
-2.95390868 2.11874723 -13.90397263
-1.37913537 -4.02935839 -15.69003677
3.77594543 2.78311038 -13.02773952
2.10464764 -0.02570062 -10.80510712
-3.94457507 -2.51267242 -14.33124256
1.77608323 4.01824903 -15.85119534
4.16940594 -3.61936831 -14.80512428
3.82557797 4.08266401 -15.46613884
-1.47508204 4.10256815 -12.11281300
-4.04517555 -2.51114297 -15.60921478
-2.63048410 0.51530105 -15.20961380
4.05470037 -3.20422769 -12.39050674
2.47033715 -3.95779276 -12.86380768
2.42986202 -2.78618956 -8.89637184
2.84435081 2.25539470 -8.81340885
-3.87881923 -3.69038534 -12.31734848
-2.26691771 -1.32309282 -14.77288532
-4.05052948 0.34259924 -15.93383884
-3.81274009 4.06458521 -14.92791939
0.19424073 -3.90444565 -15.07479000
-1.43485808 2.00166583 -16.21229553
-2.62627339 -0.95118845 -10.74973679
-3.89757538 -3.51175046 -14.69142437
2.84807873 4.05945301 -13.32186890
3.76110959 -3.46977305 -17.03131485
1.64349043 -0.28002980 -12.88319016
-3.92732120 -2.86894441 -16.82701302
0.18373246 3.92166948 -16.43524551
-3.78283763 3.88533068 -9.20063019
1.20259464 -3.99616504 -14.27537346
3.67697525 -2.32636404 -8.88586426
-1.92560554 -1.83782697 -13.72725010
-3.15359640 -4.02252531 -13.99848747
3.93216181 2.66524291 -9.29171658
-3.76824236 -3.98330092 -16.65790558
0.60102183 -5.31617737 -12.61285973
1.79899693 -1.17754042 -13.39285564
-2.01819897 3.13561320 -17.03208160
1.37977231 -1.61855853 -10.17398167
-3.61444902 2.29118419 -14.09035301
-0.74940795 -1.40867388 -15.45494843
3.95200491 -2.06955147 -9.22746563
0.92520165 2.45200586 -9.68896103
0.70484954 1.66511142 -15.64143944
-3.97612405 3.81122065 -14.36829758
1.26559186 2.53291297 -9.32648468
-0.51703769 -5.23215866 -11.99542427
0.56384569 1.95830071 -10.12639236
2.59135151 4.02299929 -9.20617962
-1.79057693 -3.95319867 -14.49881554
3.28104711 2.24095368 -8.96400261
-2.44678998 4.01507378 -11.19470501
-2.19762826 4.01008654 -12.91187000
0.62562209 -5.31077242 -12.68304443
2.22509170 4.01357412 -14.15209770
-3.84302616 -2.58152437 -13.84450054
3.22541046 2.39507318 -16.80110168
3.86165786 2.90224552 -13.53686905
-3.85316062 2.10982418 -14.66621304
-3.96486187 3.67814088 -11.71767426
2.07924533 1.82338548 -13.45485783
-2.81631780 4.00776863 -8.99283218
1.75866508 -4.02669382 -15.84996605
-3.49368787 2.45977569 -13.24273205
0.49620956 0.80305332 -15.44103050
1.74415183 1.09031248 -10.22172070
2.13603449 -0.35717219 -10.75899506
-1.61035275 4.01198101 -14.17479229
2.90108109 1.22239292 -14.96841812
2.86293840 -2.77521086 -16.88706970
-0.54072702 4.51023340 -14.21027279
2.56635165 1.07402730 -10.91519260
-4.10514545 -1.15843177 -16.66547394
-4.03133917 -2.72973752 -14.87936401
-3.72529626 -1.65328646 -8.97229385
2.71237350 -4.09559298 -10.01329803
1.52690601 -2.95330000 -8.89834404
1.85952437 0.83065999 -14.53751373
0.82564348 -5.05867004 -11.95680332
-3.32607102 -4.02459097 -14.09304333
1.34437966 -1.19847238 -10.22756863
-1.72737777 -3.22360158 -8.90202332
4.00613499 -3.24080992 -9.67653656
-3.97526050 3.26949048 -15.12037086
-2.76247501 -4.02229786 -13.66146660
3.98729444 1.56858444 -10.29687691
3.42355752 3.52026606 -16.79796028
4.00972462 -3.63248253 -14.31373215
4.13144541 -2.92119646 -15.01033974
-4.02916145 2.43692923 -16.64140320
3.99477196 2.76519370 -11.51029587
1.73781133 3.89216685 -12.00896358
0.47640723 5.27594948 -13.82579708
1.86181211 1.37154412 -14.22651482
0.05234322 0.24938056 -10.36659527
3.80881500 -2.03078461 -8.93697548
-3.24086261 -3.83504963 -11.79299164
2.01397634 3.00424790 -16.86389923
1.79316330 1.38679779 -12.31215477
-3.34849620 0.54503125 -8.78125572
-2.61767364 1.43616366 -14.69309616
2.64591503 0.35946539 -10.49267769
-3.14543223 -2.25867391 -11.86334419
3.97947097 -2.33019185 -10.46107483
0.94812858 4.07619619 -14.88803959
-3.92746544 3.82433319 -10.44904327
-3.33822155 -1.67808509 -16.80472374
-1.74617040 -0.05423900 -13.68661404
-3.31558871 -4.05683899 -13.90420151
3.78219604 2.42837858 -11.87011242
2.97507882 -1.78116882 -11.19957733
3.92876840 -2.01761079 -16.92292786
-3.35728192 4.05342674 -12.57960415
-0.19974841 -2.16578460 -15.58464432
-1.94369614 -4.04380608 -13.25727272
1.79228270 0.92655450 -13.32384396
4.07785654 -2.55588555 -9.31481647
1.91185641 -1.16265166 -11.41464710
-1.39540923 -4.05395031 -12.21571445
0.39342126 -2.31602120 -15.90056515
-0.47815880 -0.92249298 -15.63130283
-0.87282598 4.70542431 -11.94549179
1.72262669 -1.21919584 -12.26249695
-0.41744557 1.70773041 -15.64400101
-1.71614158 0.49125087 -11.51781368
-3.48811865 0.69443113 -17.04330635
-3.85456991 -0.99081898 -15.46723747
2.80948567 1.72766459 -14.45162487
0.15821531 -1.39507318 -15.58683968
-4.02474785 -1.12237501 -8.82614517
-2.80070257 1.64287496 -14.53829002
-2.92958999 -2.79393578 -16.91564560
-1.23295236 4.36543941 -13.94051170
2.08504820 -2.69345331 -8.86432266
1.79590464 1.67130923 -13.31985950
2.69647384 2.02905631 -11.76284695
3.08129144 -0.05546905 -10.46026802
3.89353490 2.55942154 -9.34853840
-1.97498667 3.12674546 -8.80760956
4.02217054 3.95035958 -16.79833221
1.78007638 1.13778436 -11.63630104
1.57022488 -2.28592634 -9.40584946
-3.99506021 -0.94755960 -15.52849388
-1.80519915 -3.89193201 -16.73519135
-3.97556639 -2.75915694 -11.88566589
1.79250896 -0.19963540 -11.00470448
3.28917813 -4.01413345 -14.74630833
1.75516152 0.63503647 -12.18713951
-0.80230302 4.15319777 -15.70440960
-4.01053953 2.12868500 -16.95733261
4.05229521 2.58398271 -11.13506222
-2.26610541 1.02256906 -14.75281048
1.79475760 2.45063829 -9.02618599
-1.50473797 4.14070749 -13.47015476
-3.42728591 0.39503363 -16.84469032
-2.02150106 -3.88899517 -12.21835041
3.97293139 -3.33097792 -12.40837288
-2.67319965 0.46516320 -16.35234261
3.87045527 3.93512726 -11.72207260
0.68404126 3.86509252 -15.82508278
-3.29408455 3.94101644 -12.09496593
-3.99290037 -3.34986734 -9.09765148
2.54825282 -2.28734946 -12.09516621
-1.60403240 2.32183075 -9.26125717
-0.91311038 -5.27752495 -12.41978264
3.15901828 -3.78098059 -8.86308384
3.15001798 2.20025682 -8.90180588
-0.86344904 -4.10410786 -11.58405590
-2.72263670 -0.65996820 -16.65714645
-3.88219404 -2.01788116 -8.96010971
3.12691212 -1.17576277 -10.72924805
2.69211769 1.91327429 -14.27360344
-3.59421134 4.04709435 -11.00576687
-2.48318720 -1.07976675 -10.88920975
3.99859524 -0.65462905 -9.97174454
4.09217072 2.26015425 -9.22941399
1.30734944 -0.53236341 -15.61728764
-1.64602160 -3.27125669 -16.98521423
-3.50231290 -2.27424502 -11.76054764
0.63298911 -5.21207476 -13.61203194
-0.31841260 -2.12926102 -15.92161179
1.30789566 -1.98083293 -15.77932930
1.92643440 1.59660578 -11.81781960
-0.88295120 4.33679962 -14.22682381
-1.01303709 1.92275405 -9.93471241
-1.29450810 4.02640152 -9.64489460
-2.84610271 1.21940255 -16.70802498
1.92542398 2.26494861 -8.93523979
0.47642311 -0.18486495 -10.24467278
-2.25072455 -0.51833117 -15.11453247
2.46307540 0.09975466 -9.63993835
0.63947356 -0.49370405 -15.54747581
-3.97391605 -0.33500674 -15.55117035
-3.96735096 -0.63958770 -16.31179619
0.01426119 -5.28662348 -11.72358513
-0.71410877 -4.03280640 -16.40027809
-2.50133967 -4.05121040 -12.18011665
-2.13740253 -1.89349842 -13.93683910
2.73551321 -2.08081913 -11.67132378
-3.47360563 1.71468270 -16.86183167
3.74836659 0.95565116 -16.95692062
2.54448485 1.31345928 -14.77918625
3.87043548 1.99497914 -10.76431561
1.77764249 1.35692990 -13.93745136
2.53290915 -0.89184147 -9.33331776
3.98640656 3.08259797 -15.60982513
4.08767796 -3.66660094 -15.03230190
2.38555717 0.68435818 -10.88170624
0.15288244 -4.11930180 -9.05427456
1.59007871 -1.37083602 -13.26782513
3.71632099 -0.61805248 -10.41621971
-3.42684627 -3.99661279 -15.14946938
0.92505360 -2.10161757 -15.83297539
-3.28250980 -1.51551449 -8.87695408
3.32926798 4.07122898 -14.57384682
-1.95533550 -1.03750312 -15.76565170
2.61702013 4.04645300 -11.23907566
3.83987713 1.53024542 -10.66108799
-3.94121599 -3.26297998 -8.96978378
1.06403923 3.94738030 -16.89008713
4.06475830 -3.33004212 -10.05874443
1.90985453 -4.00935125 -12.34545040
-3.06984377 0.34931535 -16.90831757
-1.28902674 3.81671882 -8.96525574
-0.66364920 3.96342421 -15.86883354
3.10220647 0.23896021 -10.42982101
-2.12465715 1.03997791 -9.82028198
1.00389659 -2.67466521 -9.05212402
-2.37186551 1.01651597 -16.08648491
-3.98616672 1.69441104 -15.77781200
0.40985581 -0.04716306 -15.63646317
0.60735899 0.27457392 -10.24091339
-2.77816272 2.58446217 -9.02652359
-1.39274740 -3.98217487 -10.61562634
-1.76480556 -0.91793239 -13.75838089
-2.75323892 0.80701810 -9.06398392
-0.86763895 -3.97186875 -9.42887306
-0.05645941 -4.13468218 -15.48954201
-1.74303460 3.98746133 -12.17201233
0.00857709 0.03331805 -10.15595055
-2.23472834 -2.01891541 -11.81025124
-3.50574851 -2.42359900 -16.92676353
2.04471898 -3.98466635 -15.58682632
-1.24159527 3.99708295 -10.03074455
0.86725557 5.05132723 -13.87580204
-1.80949771 -4.08215857 -16.48415565
2.86332774 2.34346962 -13.30656052
0.61097103 -5.31845427 -12.56382465
1.51610613 3.31077433 -16.84438133
3.45130873 4.03915071 -14.78286743
-2.31609011 -1.12992215 -10.98571968
-1.75345635 1.57642794 -13.65548325
-2.42262435 1.66920543 -9.18954277
3.92436099 2.30294871 -11.10508823
2.79105353 2.19894743 -11.84203911
-3.05570030 -3.64634299 -8.76786232
1.83441949 1.38255727 -10.01955414
3.88206172 3.41075039 -15.12194824
-2.30260825 1.95843649 -13.90997601
1.91888547 -0.84350532 -11.03157139
2.76720548 -0.81552953 -10.70965004
3.12531185 -0.12709764 -9.02513599
3.88877892 -0.94093060 -16.51071739
-1.18809342 4.24367619 -11.80894470
3.22409296 -4.03392076 -11.82850361
-4.00020981 0.22004788 -16.84197998
-4.04873419 3.89266276 -13.27606010
4.01997042 -4.01756620 -10.34448242
-1.82580197 1.12497640 -10.12714672
-0.93992358 -3.93648005 -14.90221024
-3.97821140 2.01941323 -16.48047829
0.36205679 -3.95896196 -16.17268562
-1.32003796 3.99299383 -9.29687214
-2.99421453 2.95625377 -8.92529488
0.53799301 -3.98061228 -9.50642681
1.14502907 1.07872713 -15.56991959
-1.26133573 -2.65146446 -16.73682785
2.20334530 1.89748442 -11.83629417
0.59134388 -3.66532850 -8.98357773
3.77042222 -3.95094275 -12.20554924
-3.40031505 -0.57939661 -15.43301296
-0.44031981 4.44442129 -14.23910904
-3.94209337 2.00447917 -9.27699852
-0.41812772 -3.64127040 -16.89040565
-3.85558867 -4.03789139 -11.61819363
3.89534020 0.53648329 -8.87624550
3.83861756 -2.28863549 -16.71951485
-2.12138867 1.26561356 -14.65986633
-2.36518574 -2.21339154 -12.08326054
-0.41581333 3.95786572 -9.63149261
-1.88840175 3.27922392 -8.97625351
2.28100371 3.83496761 -16.84823227
-0.73890543 4.09370279 -14.92431641
1.73305547 -0.22636294 -11.88514614
3.94640851 2.66656685 -15.51611614
2.54339886 -3.86247230 -14.80320168
0.89075756 -1.85134840 -15.58923531
-3.00748444 -2.38758969 -12.25119877
-3.92181206 3.12172151 -9.40126038
3.13688755 -4.06902981 -12.25965977
-1.27769303 4.04223967 -14.44733334
-3.62029624 -1.93125868 -11.07527828
-1.78224218 -1.45832026 -12.27407169
-1.65530813 -1.44553292 -15.78194618
0.35833284 -4.15086269 -11.35239220
-1.18650150 2.31289029 -16.06989288
3.85645556 3.97636509 -9.11767864
1.82065642 -3.90268922 -13.49941158
3.00795460 -1.50799060 -17.01366806
2.01459813 4.05963326 -16.31028938
-3.29357767 4.01901913 -10.61882591
-1.83841288 -1.69027984 -12.98116684
1.86835349 0.40492117 -12.86697006
-0.32278097 1.72189987 -15.59828758
3.50575781 3.99223423 -16.26229668
1.86446834 -3.98437524 -10.90134239
-3.21504092 -4.10198784 -10.72535419
2.33648539 -0.33468851 -10.64698696
1.52198458 -4.30547047 -12.82394791
-3.25064230 -3.92554355 -12.72819519
0.64640254 -1.54278982 -15.55328178
3.57102704 -4.02844715 -15.26762962
0.91251612 3.56223750 -8.83696079
0.16428187 3.96660662 -10.73453426
2.92593646 4.03283930 -12.25727844
1.59363890 4.00013590 -10.94821835
2.03875422 -3.30222678 -8.86522961
-1.00913990 -4.06391001 -10.49722290
1.90827429 -3.97333455 -9.11305428
-2.67660475 -0.73138195 -10.71635437
1.98342633 -4.03006124 -10.29198265
-2.25151849 -3.85734296 -9.63999176
0.87691504 2.46996808 -9.63710690
0.19175161 4.05623341 -11.11519051
-1.79079497 -0.47607425 -12.38318729
-3.35491538 -3.73984528 -8.83781815
1.75152183 -3.90873098 -10.40140438
-3.19947028 -2.26115751 -11.97151566
1.67260456 0.75258189 -12.17232037
-2.93960452 4.00777388 -13.60456371
-2.40428305 1.67048371 -14.28534031
-1.89753783 -3.15363264 -16.79486084
-2.41508102 4.08652735 -15.80217171
-1.15610945 -4.03026056 -15.01008034
1.96724629 -0.92240191 -15.77050781
-3.79413986 1.76708138 -14.91173077
-0.57646644 5.23298597 -13.42983532
-1.12176895 -3.66884923 -8.79726028
0.01770668 -0.82475132 -15.48361301
2.96719408 -2.66085386 -8.78007126
1.47780728 -3.97057796 -11.79827976
3.60629869 2.57423210 -13.28785992
-3.60522676 -1.16220152 -10.64023113
3.90087128 -0.28316399 -8.86088371
3.46806335 -3.99664116 -14.84692192
-1.07541060 4.04058170 -11.05153561
-1.46073747 3.27840281 -16.90386581
-3.09048462 -3.94518518 -9.44412518
0.06809717 3.41902566 -8.84551716
-2.78171563 -3.91049552 -10.06113625
-3.51064825 -1.50859153 -10.63434792
-2.41952491 1.42916799 -16.42512512
-0.80950409 -4.03695107 -10.84305191
3.08596611 2.40940690 -12.84772873
3.33972573 -4.00031281 -13.94013882
2.88012862 3.96897173 -15.55141830
-3.83376622 -2.71813917 -13.23228550
0.53199089 4.88183928 -14.05783272
2.78966427 3.67690802 -8.85169888
2.75605106 2.71744466 -8.86523628
3.02788186 3.47438002 -8.84618378
-3.25065231 -4.01727152 -11.62930965
3.83617163 -4.03920221 -9.28266430
3.91093397 -3.55956244 -13.70377731
3.44137836 1.35135770 -15.12089062
-0.05874925 3.94995642 -16.53011131
-4.02540016 -2.94422150 -15.46660233
1.66056895 -0.89257050 -11.58548641
3.12185526 -1.55267799 -10.94046211
-3.19361973 -1.88443196 -14.50167751
3.45992517 -0.28406838 -16.93309593
3.55377769 -4.07393265 -11.38771534
1.69463313 -4.07361698 -13.70765591
-1.71966004 0.28301662 -13.89941216
-3.48323059 -2.61749172 -9.02372742
-2.78301597 -3.96336651 -13.32928085
1.01605356 -5.19632864 -12.60839653
3.23927498 -3.94825697 -14.58477592
-3.05416822 -2.27343917 -11.87880993
-0.33455640 -1.26223290 -10.34274197
3.36884260 -0.57444924 -8.81116486
-4.03269720 -2.10345674 -16.35492897
-1.99212158 4.03541517 -13.57190323
2.31191325 -4.04723978 -14.50072575
-0.88706964 3.93938017 -10.87864017
-0.36104101 -3.03587532 -16.83602905
-3.55997229 4.09217453 -16.48882103
-3.93566442 3.51707697 -13.23260784
2.38712549 -2.26938105 -8.71953487
3.92140770 -1.24788475 -10.07910538
-2.15972376 -2.56638861 -8.97005653
-3.67645931 3.59879756 -16.93225479
3.24137306 2.63165164 -12.61229992
3.35657907 -1.96174479 -16.85665894
0.37739655 3.97560096 -9.83139515
2.93384266 4.11533070 -13.92325592
-3.26332259 -2.52581906 -12.75939560
-0.60187197 2.09642744 -10.09617710
2.79980564 2.07587862 -13.84063148
-1.89927709 -1.87865615 -12.26502991
-1.85961866 -3.95666456 -14.87878609
-2.60825515 -1.07852197 -10.71563244
-1.38780284 4.05918360 -15.97741508
-1.32028437 4.15831566 -11.82774544
3.97810173 -3.14319468 -11.37631035
3.96185303 1.66635847 -15.72975159
-4.07183743 2.71910715 -16.30160522
0.98381931 -4.02384138 -9.86970139
-3.37051249 1.75437677 -9.03621769
-1.63060737 2.44114161 -9.07205105
-1.93790448 -0.36133933 -15.50124168
-0.94501442 5.28902149 -13.29750347
-2.78763223 -0.22714981 -16.36786461
4.05007219 3.50908732 -15.68500519
0.80617386 2.01334047 -10.03118420
3.77002907 -3.93248558 -9.45586205
2.02830625 -1.25624382 -11.18807316
1.71874130 0.33294070 -12.65984535
2.00720739 -1.12043178 -9.97116661
-1.99424422 -0.26326665 -10.30757523
-3.61875701 -2.01891541 -8.88146210
-3.99037647 3.34533691 -14.48937321
-0.64644599 5.05326939 -11.84151554
-1.66455162 3.94301558 -15.71837234
3.54380393 -4.02439547 -14.29761505
3.93464875 2.86327934 -12.15118313
3.94293714 -3.28994036 -16.23624039
2.51678038 0.44998285 -15.12652493
0.49749893 3.23896003 -8.93037987
1.34159112 -2.00098419 -15.87554359
-3.75464225 2.00333834 -14.51617908
-2.08365178 -2.38936877 -16.85662079
-1.74964750 0.60725856 -15.42874336
4.02380848 -3.32819033 -15.94439793
-1.38588595 4.43922997 -13.49740505
3.89795375 3.43200898 -12.41413689
1.72506475 0.94739532 -11.98217583
1.31328976 -4.06626272 -10.33723259
-0.27796033 -3.45430779 -8.84031105
-1.56874204 1.26477790 -15.56427288
2.95208359 1.83039320 -16.85247612
-3.48795652 0.94934255 -15.22015381
3.37220645 -3.96517467 -9.68821621
3.87856030 -1.83100009 -16.92992401
-1.51260757 -3.60993981 -16.86989784
2.92664814 -3.98123288 -11.27035999
1.45169127 4.04018879 -15.56465912
1.81524396 -0.12077168 -14.21995640
1.98409140 2.71640348 -16.90661812
-0.50220340 4.09412479 -14.53317261
-1.10250020 4.03329134 -14.47980595
-1.49289715 1.34096193 -15.64825630
-2.41652632 3.98658466 -14.31360817
-0.58012170 -3.74023771 -8.94543934
3.97085643 2.20751333 -16.49273491
3.69713187 2.34522557 -9.08459473
3.14812088 -4.02439880 -15.47123337
3.52955914 2.49046564 -12.80222034
2.11896706 3.94934154 -9.70555401
-3.96104217 1.73295736 -9.66768932
-2.31871176 -1.37014055 -14.75868034
3.02615118 -4.01108027 -15.97529030
-0.36034313 3.92781329 -14.76215267
-3.98974967 -2.68386245 -16.30456924
3.57389832 3.99809813 -15.91982460
-3.71895146 0.41751602 -16.88471985
-2.58877301 0.49121702 -15.15653706
3.97778726 3.20899129 -15.26910591
-2.39766788 -2.72957587 -16.98940468
3.10727859 3.99871492 -9.75645828
-4.05270004 -2.54257464 -10.25045681
0.85279691 -3.95563006 -10.54103756
1.63728237 0.91011953 -12.20984364
-2.50346589 3.98838902 -9.18400383
-1.96806133 1.70678651 -9.62213039
-3.52803206 0.98886585 -15.39213943
-1.74068093 0.22449498 -14.08910084
3.82598352 3.89974761 -12.27596188
2.97898436 -3.98722315 -12.08953285
2.68841290 -0.68042374 -9.26069832
-0.74505419 4.71903086 -11.45754051
-2.53626633 -2.23925042 -13.18601227
-2.15212035 -1.75650811 -16.32419395
-1.84642196 -0.10847413 -12.02827072
3.18688202 1.48238897 -14.86870098
-0.47406790 5.19716787 -11.76016140
-3.90070462 -2.34873605 -15.85989475
0.98246109 -4.12244987 -9.31265831
-1.77177310 0.92183155 -12.67271423
-0.45685020 -4.91376162 -11.52847195
-0.93191010 -3.97445726 -11.21379280
3.00182986 4.00000095 -13.35511208
-3.32771564 -1.05593431 -8.85385799
-2.41518188 4.08782578 -12.84204865
-2.66793823 0.84473479 -15.01541901
-3.83582783 -3.01730013 -12.38604069
1.23775232 -4.79978657 -13.17971420
-3.51161122 -4.06638432 -10.63518047
3.75357747 2.84320188 -8.77588844
-3.84539390 0.98852646 -15.35418510
1.77445889 1.48621321 -13.19739437
0.35574320 4.04583693 -14.47029972
-1.69476438 -0.82048422 -13.89935493
0.81119448 4.05056429 -10.60925293
2.53001213 0.82107639 -15.03121948
1.80114102 1.49360359 -9.75859737
-2.15661955 4.14017725 -14.99908733
-2.00804925 -0.58716822 -15.54968262
-3.47155380 3.99172068 -9.26974201
3.80534983 3.58440661 -8.64320564
2.19216084 4.08998299 -10.18494034
1.77146423 -0.31054702 -13.52146149
0.18831235 -4.12797356 -9.18577290
-0.14233945 -1.69500661 -15.45030594
1.25154853 4.05574369 -15.02603626
-1.90300381 -1.93767595 -16.47289848
-1.79917896 3.99465609 -12.34975243
-2.93787193 4.02827692 -11.10482216
-1.79868674 -0.06641768 -13.74102116
3.29008293 1.90709376 -11.07074356
-3.86394167 -3.94054866 -10.82953835
-3.38310122 -4.07292032 -11.87371540
3.26091433 1.61786628 -10.97542095
2.13435221 -3.99694085 -11.26231098
-3.46779895 -1.48683679 -15.00290680
4.05250883 2.33749628 -15.15255547
-3.90488982 -3.94506145 -13.67122841
3.95330739 1.93392026 -16.49954224
-3.82229662 -3.18037963 -9.54974270
2.83224392 3.55719423 -8.91592598
-3.41400337 1.67416346 -14.78874016
2.63690066 2.35945058 -16.81980324
-3.09658265 -2.57945323 -13.26669598
2.00688100 3.47521591 -8.83492565
2.64170933 -3.97443175 -14.08897209
1.77864134 -0.01586386 -11.52291584
-3.98177218 -0.83840954 -8.92773724
1.66767323 -0.44681942 -14.25625706
-3.87243128 3.90624380 -12.57423878
0.99829566 3.06948853 -16.96715164
4.02591419 0.51243329 -16.44195175
1.08978498 -1.31244206 -10.17242241
-2.74771047 4.09530830 -9.20472908
1.28816640 0.79652143 -15.59781551
-0.32076856 -4.16959524 -16.71581268
1.10331392 -3.33120227 -16.88754082
1.09943521 -3.91835070 -15.42334461
-4.09220076 3.45177460 -15.35708237
3.49491644 3.95272660 -14.42321968
-2.81200528 -0.38674256 -10.62593937
-1.31485295 -4.08113098 -12.05949497
3.99613476 -3.66433644 -11.38648891
1.89875698 1.57328689 -12.35928631
-4.06039000 0.46310225 -9.46414280
-2.56738257 -4.00901651 -11.69290257
3.92346478 3.22045445 -11.25384140
-0.09078125 -2.93351531 -16.64216805
2.30293870 0.79094446 -11.01374054
2.58392668 -3.93884754 -13.98378277
1.35211742 -1.07725787 -10.20499325
4.03776026 -0.15768421 -16.84746552
-1.73219693 -0.07477421 -13.96059036
3.49671483 -4.02060366 -10.24274063
-2.55386329 -3.21072721 -16.89375687
-1.27851510 4.39274549 -13.46959686
3.87638402 -0.43440852 -10.11692047
3.47744131 1.60156274 -16.89869881
0.30652064 4.05747890 -15.39056587
-2.08526182 -1.26223803 -16.11608505
4.04441833 3.53249884 -15.71202278
4.04096317 3.60561466 -10.64063454
-1.51891768 -3.99685431 -9.58767319
-3.99887323 -3.06573820 -10.54907703
1.18998730 3.98112178 -8.81456852
3.90219426 1.06661916 -9.71706676
1.19262707 4.12907267 -13.90416718
-1.41865909 -0.14745070 -10.26543236
-1.77518928 -1.28467953 -11.76026344
-4.06031895 3.11556888 -13.35403347
-2.63180590 4.03517628 -16.08435440
-1.53905952 4.06124496 -13.01968193
1.64702356 -0.91513312 -12.64636993
2.21170521 2.49424577 -16.85718536
1.32253706 3.90351701 -16.53344345
3.99877429 3.09055495 -10.29950905
2.16268682 -4.11795044 -11.94608784
-2.87024283 -0.68149024 -16.80315781
4.04739809 -3.03775477 -9.63014030
-2.90066719 -0.82325000 -16.56530952
4.00241661 -2.60016775 -10.45019341
-2.15809321 -2.68061686 -16.78562737
-4.19743919 -0.98237324 -9.69867516
-3.96047831 -1.10580981 -15.54347706
1.66232312 -0.87353677 -12.08773041
-2.77981067 -2.62409925 -8.96995926
3.01417160 4.08812571 -14.59431839
3.25112319 -2.46699286 -12.07519054
-3.20814991 3.25201893 -16.93173981
1.12300992 -4.10025692 -14.44186592
-2.46112418 2.78582501 -16.94425774
3.96971774 3.70333529 -16.46149635
-3.14617252 -4.03203821 -10.30079746
-0.05381754 -2.78042603 -16.72513390
2.01932955 -4.08687019 -11.03878593
0.18074141 1.09058356 -15.59083557
2.11961579 0.31158170 -10.86776733
1.92793858 -3.09504533 -8.83124161
-0.58448732 4.95066690 -13.99998760
-2.12180448 -3.61027336 -8.88667679
1.67094409 -4.07319546 -11.47265053
-1.19149029 4.79341173 -12.44184399
-2.13695765 1.26478255 -16.08646393
-3.57972383 0.56237602 -8.90205574
-3.62969780 4.04700184 -9.34012222
-2.79997802 -2.02199817 -16.89786148
-0.15625323 -2.44165492 -15.95746613
0.45625126 3.88018394 -16.50404739
1.66619623 -0.12798034 -13.09548473
-0.79745960 -2.99642420 -16.86701775
1.81955814 4.01987267 -16.41812134
2.47686434 1.08441114 -9.38552475
-1.44210231 1.53590655 -10.18141842
-1.58791053 4.19293499 -15.86631012
3.96593761 -1.47200811 -10.47919464
-0.18188675 4.06588364 -10.26098537
3.99642897 -3.41408801 -16.90553284
-3.29329491 -2.24849343 -12.53908157
-2.54804516 -2.40731478 -12.67174721
2.73611593 -1.10333252 -8.98113632
3.98077703 -2.84514046 -16.00197983
3.28016496 -2.65481997 -16.96871185
-1.46911609 4.57817125 -12.79281425
-1.92933190 4.06965113 -12.68452454
4.05479240 -1.38221133 -9.29522800
-3.97006464 0.83524293 -9.06682396
-1.53536761 0.64524335 -10.26064301
2.92958236 1.52902019 -14.72065639
0.20411034 -3.94466329 -15.15789986
-2.47641039 0.23815714 -15.01912403
1.90123904 -3.97818899 -15.10516739
-4.06906652 3.86791515 -16.21290970
1.59959722 3.96352935 -10.67695332
2.89337087 1.73468316 -8.99478340
4.08728981 3.13376117 -14.71224499
3.46122885 -4.05104637 -12.02055550
3.89962435 4.05976009 -15.45513058
-0.27101970 0.26615793 -15.47688389
-4.14706278 1.57530081 -9.43432045
-0.87279660 -4.08318138 -15.20323753
-3.89006281 0.47577724 -15.68530846
-4.02466679 -2.82769370 -10.02320671
4.04395628 2.96701312 -11.62377262
1.84257579 0.54010206 -11.29464340
1.70213485 1.33596325 -13.84784126
3.13743424 -0.91937095 -10.44732475
4.11589909 -2.50177145 -15.50659561
-3.96889901 1.28594565 -15.84247684
-2.78208637 -4.00389671 -14.44766045
3.48021269 -0.90781748 -10.49515533
-4.05016947 -1.71441555 -15.75044632
2.64871073 -4.06448364 -11.44718552
0.51620960 -4.29058838 -14.34274864
-1.24050534 0.89246774 -10.22266006
-2.87400126 -4.06336069 -13.91957569
-1.24482727 -3.84170747 -16.94847107
-2.51027632 -0.62420565 -16.25075531
-4.19967461 -2.16295648 -8.91072083
0.22885238 5.32124567 -13.37962627
-2.99953198 -1.64563394 -11.26312065
-2.89649200 -3.50146055 -8.84794044
-2.27154374 -2.34111285 -8.94285679
3.99389029 2.95466161 -11.31619835
1.84235799 -2.92621875 -16.88738251
0.37310925 -2.82898116 -16.76712608
2.62847495 -4.02915955 -10.31897068
2.17106795 -1.42236340 -11.29951859
-0.41350365 -0.54518849 -10.18183899
3.27708745 4.06304407 -12.01102638
-3.63450170 -4.03297949 -13.08960819
-0.88862270 2.08873558 -10.01216125
-1.65371406 0.52545702 -13.19942665
-0.15343884 3.53532887 -8.89990425
-1.56807542 -4.07768583 -15.25124168
-3.65971589 -2.58947539 -13.29812050
-3.99114895 2.26176953 -16.58204079
2.74925685 1.37586570 -10.97477150
1.83131850 -0.14002003 -11.18500805
2.48429298 0.61979049 -9.64844894
1.01209235 4.01382113 -9.37748432
-1.74888968 0.75992608 -13.98419571
-3.45836329 0.41708928 -15.55163383
0.80929172 5.14539099 -13.66993904
-2.58354092 -2.40131855 -13.08549023
0.49888533 -5.25943851 -12.33648777
0.13828126 -2.49628615 -16.14603996
1.77636993 0.71306008 -11.40745735
1.42345464 0.93573475 -15.53652477
-0.36266288 -4.06077623 -10.32862568
-1.82513034 1.70145571 -16.23623657
-1.32855499 0.40832463 -15.50508404
-1.68577385 0.85442275 -12.61616039
2.71694708 0.24595796 -9.31018734
3.14091969 1.84275854 -16.84764290
1.74874628 -1.85560453 -9.41110039
2.20529532 3.90289998 -10.04701424
-1.80771399 4.00309277 -8.98939323
1.34112108 4.08134365 -14.89869595
-0.83080989 2.78294611 -9.18658829
0.93641114 4.03658438 -15.72822952
-2.00743389 -3.95818543 -14.75654602
0.27182668 0.84156108 -10.35425282
2.41722631 -0.84900433 -10.88180161
0.00364742 0.82532060 -10.29295444
-3.91600084 -3.84061289 -11.57847404
-0.15035044 -4.09268284 -16.05811691
2.40480423 3.99236822 -9.41934586
-4.06666994 3.97877812 -15.38380241
1.15681207 3.61557627 -8.76601410
-0.95852357 -2.54021978 -16.38720894
4.02307653 3.11403441 -12.26382446
2.71508956 3.97287869 -13.42299461
1.71492398 -0.41898876 -12.06222725
1.86684740 -1.53308809 -9.72362423
1.03839743 -5.33350182 -12.68615437
2.15994763 3.93298364 -10.34727764
-3.89835238 3.94564342 -14.17195129
-0.20364310 -2.37828088 -15.98554993
-1.19252670 4.89696598 -12.20437241
-2.18414855 -1.94333363 -11.95278168
4.10499382 4.05505276 -15.54227734
-3.01000476 3.63660550 -8.81589794
-2.96189141 -1.56237125 -10.96124172
1.20824718 -1.28184843 -10.33507729
2.43862796 4.02842951 -9.38348866
-2.64314413 -4.10135031 -16.28081131
-4.02705240 1.73289025 -9.88652802
3.90004492 -2.69899583 -14.23168564
-3.35628772 2.28256798 -8.98084927
-0.83260930 -0.87801808 -15.47300816
-4.03143740 3.30776381 -9.78584385
2.77023387 -0.28348517 -9.18201828
1.94632661 -0.51741391 -10.92438889
-3.74141359 -3.98968124 -9.10127640
-2.58264112 -1.20487678 -11.00097656
-1.83279121 -0.33656853 -14.42711926
0.41175321 -3.97394562 -15.47909737
1.21292651 3.98758125 -8.97357464
-0.60825688 -4.05386209 -9.96656227
-3.95839071 -4.05961943 -14.09684372
3.92883348 0.34906057 -16.50628281
1.41510749 -4.16049480 -13.45691490
-3.84810662 1.33486509 -16.02450943
1.22217643 -4.05604410 -8.89920521
-0.53651541 4.01515150 -16.74693871
-4.09038830 -2.69707227 -9.93453789
3.82804155 -4.05573130 -13.32305336
-1.77060008 3.98239040 -11.44615364
-2.58906007 3.93529415 -13.46191120
2.31512308 1.93114305 -8.88479614
-1.47154796 1.75527227 -15.80998993
-2.57064462 1.80814803 -14.24934387
-3.20204592 -2.85126352 -8.81659317
0.17486741 3.06493759 -9.06147861
-3.72949195 -1.49148130 -10.61831474
1.77232158 -0.23453178 -10.22943974
0.29446879 3.46631217 -8.86561966
-0.45807579 2.29000735 -9.91337013
-1.32178569 3.99714446 -15.17619419
-3.97748041 2.73328137 -15.24088192
0.57943004 -4.79537964 -14.09126091
2.06282496 1.87899005 -9.42995071
-3.47110820 0.23484659 -15.36876965
-2.21811914 3.82721925 -8.87027550
0.95076907 -3.95804405 -16.69966125
1.95034492 2.80070448 -16.83027267
-2.04724002 -0.10805608 -15.49498749
3.87851167 1.43001890 -10.44693279
1.36277127 0.86331922 -10.17891598
2.95182180 4.07626247 -15.08040905
-3.74873257 -3.29349685 -9.05468845
2.11862588 -4.03424501 -13.89220524
-1.16214871 3.97765446 -14.48902225
-3.53830481 0.86089069 -8.96951103
-3.89393115 -1.88616121 -15.15797424
3.66380310 0.08631860 -16.83517647
-3.00935721 4.09459829 -11.13073063
0.31944865 -3.40105867 -8.89326668
-3.87502766 -1.98475182 -10.81992245
-2.60183144 3.59746385 -16.91460037
-3.89467049 -1.69985151 -9.32768250
2.34663200 2.99536347 -16.87601852
-3.98316312 -3.08282018 -12.84960175
-3.90139437 -3.02445769 -13.89335823
3.97445345 -1.16605771 -16.24639702
1.76694965 1.33472002 -12.79661369
2.53645396 -1.23929858 -9.08719254
-3.79733348 -3.87015104 -13.91174126
4.04070330 3.18913221 -13.23467159
3.74757171 2.66286254 -12.36319447
2.64397383 1.34513259 -9.05288124
-3.83663368 -0.41762358 -8.74287605
-1.76662064 -0.15595722 -12.25020981
-0.83859468 -4.60645199 -11.84578800
0.45557889 -0.27208865 -15.56804943
3.95642543 -2.03471231 -16.15188599
1.18230665 -4.24913073 -13.93601799
0.21818152 -5.26805878 -13.32432175
2.49727941 -4.10916758 -16.55677605
-1.04856014 -3.77384496 -16.78853226
-2.01618004 0.36622220 -14.85918045
-2.13975191 -4.08270931 -11.87757874
-2.71940351 4.04153633 -10.63483334
-1.20656610 4.10272932 -16.49829865
-2.02090645 2.54854608 -8.92701721
-2.25063062 -3.95898461 -10.49662304
-3.80506444 3.02218843 -16.92691040
-2.45286441 -3.96427894 -13.80826759
-4.09165907 0.27296257 -9.03635025
-2.24323583 -1.67071128 -11.58348465
-4.04123545 3.56223083 -13.86690140
-1.63352334 -0.42030621 -10.22341347
-1.79817533 -0.39422444 -13.86250401
-4.12918472 -2.81134534 -16.57645035
-3.52756214 -0.56745356 -8.97950745
-3.03188348 -3.92636323 -16.81143951
-2.55560064 1.85751915 -16.91538239
-3.67523789 -1.39998460 -8.88955021
3.85183883 3.09950423 -16.91212463
-2.97650385 -3.96981692 -14.37570381
-3.93955398 3.95480609 -12.15106678
4.03213596 3.74750924 -12.07979488
2.92488790 -3.91803408 -13.14885330
2.57643032 -2.24297976 -12.51642323
-2.39324880 0.87798274 -15.07486248
-4.14704275 -3.42108846 -12.46906090
-3.68732238 -1.62462783 -16.98258972
-3.69658160 -2.47341800 -11.83414936
3.64344049 0.84626490 -16.84115791
-1.76449502 0.99309343 -15.47206497
0.07913402 4.61805820 -14.32926178
-3.82637024 -0.05329370 -8.87554359
-3.95302558 3.59929299 -16.80423927
-2.19743896 3.93258595 -10.39485073
-1.47323191 -3.98426652 -16.68996429
-4.04243946 -3.73569250 -13.21054649
-0.87983143 4.01751804 -10.73675632
1.78609061 1.16099823 -12.46431828
-3.24268246 -2.22924089 -8.84318733
-1.98110926 -2.16085172 -16.78202629
3.93451309 1.88163304 -10.03861332
0.00594122 -4.14385653 -15.76117420
2.91447043 1.59894168 -16.88889694
-0.70006055 4.54193401 -11.65895939
-0.75802785 1.11765122 -15.41257763
1.99914312 -0.77195221 -11.07572365
1.70666587 0.99817365 -12.88918972
0.57319605 -4.43371105 -11.48562717
0.74723732 -3.95245838 -10.08781719
-3.98879838 -2.96521497 -11.34816360
1.51425588 -1.91544437 -9.83599091
-1.30392265 -0.48641011 -10.17925549
-3.00153255 0.63338727 -15.23954582
0.78570300 4.05558443 -14.96773911
1.87324178 -0.96485198 -11.18386555
-0.57341677 -0.03678146 -10.06096649
-1.48895311 4.23241282 -12.53919888
4.08928442 -3.83638978 -10.77006531
1.74065888 0.56935239 -11.59576607
-3.78117418 3.94394541 -13.82793140
4.05226564 3.59319162 -11.31800747
3.58440590 3.98109698 -13.55656242
1.04890752 -5.22186565 -12.71759987
-1.05185568 5.32399464 -12.92667675
-2.21285105 -4.11079264 -15.56126976
-1.86661065 -2.05654478 -13.00294685
-3.14879370 1.98402619 -14.46056557
0.45174050 -2.07533407 -15.60039425
-2.96241212 4.05467796 -12.89145184
-4.00579262 1.97554851 -15.79530621
3.65862870 2.53534675 -12.45736599
-1.80769587 0.27435517 -12.68985844
-0.88710952 4.73317146 -11.84263706
3.88801670 4.00640249 -11.37064457
-1.16723895 -3.98745060 -10.29542446
3.96861386 -2.77019262 -10.71271706
2.63819718 -0.79092401 -9.46292973
2.41922665 1.95649910 -11.72984791
-3.22171545 -2.30784965 -16.87328720
-1.58762765 4.01295853 -10.11139488
-3.82960153 -1.31551659 -9.22278404
1.26533020 -2.36746478 -16.40312386
1.75799668 -3.99573684 -16.32800484
1.76025975 0.47380143 -13.07225704
-4.11665535 3.09612894 -14.11105347
-3.16567945 -1.01307178 -10.58390236
-2.46608710 1.35659885 -16.55405998
-3.95921969 1.19903457 -9.67740250
-1.29887998 4.39577627 -13.76206779
1.65565634 -0.32776859 -13.76822090
3.02499032 -0.68666619 -9.02458763
-4.03416681 3.82513642 -16.44006348
-1.70210409 -1.83252764 -15.86585426
-2.58721972 -1.58929741 -11.36245155
-2.13908482 -1.45353138 -14.42427063
-4.02850056 -2.94037366 -14.14953423
-4.03148937 2.71862698 -16.00761795
3.99409270 1.59358430 -10.00141907
3.64113975 -4.07123470 -12.22336674
3.42738581 3.98028708 -9.72927475
3.38746977 3.90316749 -14.65906334
1.46437156 -4.23137808 -13.47384071
0.23547469 2.63529778 -9.39500523
4.02362394 0.00538703 -16.38656044
-2.41314888 -2.11811757 -12.43111610
0.18459280 -3.88339210 -8.99361610
3.24306989 -3.89235663 -9.36363029
1.32739806 -4.86563253 -13.53211117
0.04331686 3.90815973 -9.36743069
-4.06163025 -2.05177689 -9.44395638
-2.67427468 -3.98088908 -13.55865479
-2.24303222 -1.56621790 -13.96814251
2.51196551 2.35013318 -16.94906998
3.57825708 2.56415057 -12.47931480
-0.58434957 -2.58877802 -16.22604370
-0.47696126 5.23861790 -13.41460705
4.01255083 2.64154601 -14.28332043
0.71353322 2.41429472 -9.77548409
-0.00269100 4.53038263 -14.42095280
-1.89195263 1.48482597 -14.07701969
-3.99048591 3.09963298 -12.96833324
-1.81990767 -0.90816635 -13.87937164
-3.96547055 3.01716852 -9.50344467
1.39291239 3.93737245 -16.42020416
-4.07209873 0.40898472 -15.78577423
1.43328154 4.13336802 -13.66570473
1.08030856 -4.06235743 -14.67635155
2.27152753 4.02255058 -11.72206306
3.92090082 2.05148530 -10.46208954
-1.08768058 -0.44551632 -10.25253296
0.75887972 -3.38216138 -16.87290192
-0.74055874 -4.05697489 -11.26652050
1.82326615 -3.99993944 -13.13172150
-1.87789261 -3.75676656 -16.85406876
0.84765095 -5.03669262 -13.95446491
-3.51490688 3.98678946 -11.74319744
1.44662261 1.57065475 -10.14325047
0.46148241 1.83833313 -15.49135971
-3.46193004 -1.30018067 -10.68300343
-3.95307422 -2.80271387 -16.43651962
-1.73748124 0.66915512 -11.56584072
-3.52580094 3.95795751 -13.67017174
-3.96423793 0.08670302 -9.24947548
3.28905702 -3.67411351 -8.98840237
1.85682189 1.29065728 -11.58299351
2.55448389 4.21251106 -10.13027287
-2.80225754 -1.47230840 -8.89085197
-3.92718959 -0.10997550 -9.26996040
3.35383654 2.32400775 -13.68983364
0.07283308 -3.29790902 -16.76844978
-4.05167341 -2.87057614 -13.55068302
-2.71253729 -3.90619564 -10.79695511
3.90681720 -0.79929882 -16.07918549
-1.85906458 -1.22768462 -15.81558990
-3.98092175 -3.47273135 -12.24344730
-3.89984083 2.19857764 -16.63177490
3.99751306 -3.47855043 -14.76721382
-3.29324937 1.96263576 -14.48226643
3.79051399 2.33141518 -14.33946037
3.06391501 -4.00385618 -14.28883362
3.19173861 -3.99105215 -12.50066566
0.64927846 -4.17960405 -14.44347382
-2.27298784 -0.20606969 -15.74911022
-3.94044280 -2.91617084 -16.44710350
2.61544776 -1.30326140 -9.20066738
-1.58774805 0.19000313 -12.72938442
2.56165767 -3.94227266 -9.38648129
-3.27912998 -1.12282538 -15.16527462
-3.90304208 -1.05736303 -9.88520145
3.96235204 -0.72676516 -10.12307739
-2.95523715 -1.62441182 -8.97267628
-2.71065307 4.08550835 -9.43708611
0.53587735 -2.85792327 -16.74447060
-3.98247647 -3.67657828 -15.25235367
-2.48335576 4.02966022 -10.12414360
2.17610216 1.90956914 -11.78936958
3.06094599 -2.37908983 -12.25362206
-0.82883281 -0.27649903 -15.60328388
3.81730151 -3.95379090 -13.67406654
-1.33651495 -4.10847664 -8.89933300
-3.85522342 -3.66262174 -10.80973244
-3.65564132 -3.88886213 -11.37296200
2.87767601 3.99171233 -16.23277473
2.34879899 2.18857813 -13.15813828
1.02403140 4.77812672 -13.74180031
-4.13024378 2.44619751 -10.54256153
2.48422074 -3.55902123 -16.88815498
0.54925627 2.44284725 -9.51110649
3.50773954 2.18279052 -14.34216022
-3.95309567 -2.44630694 -16.27977371
-2.30028915 3.88315201 -13.16323662
-3.85205388 -4.07152987 -10.11776066
0.01373031 -4.07947063 -10.63495064
2.84886169 -3.98961496 -15.75676441
-1.83691084 0.83880907 -10.14719200
-1.03492355 4.04090405 -11.09764576
0.42126253 2.58353305 -9.51127720
3.71811962 -1.94593120 -16.95514297
-2.15214419 3.95827079 -13.21508884
-4.01099253 -0.61326164 -9.41112995
-0.58771205 -4.24775124 -11.51686096
-1.92162061 0.07235122 -14.94925690
2.19380617 3.12378860 -17.00974274
-2.84490943 -2.00713611 -16.88471222
-3.80703092 -3.54673362 -8.88356209
-1.75406337 0.20008853 -11.64458752
0.80816221 -4.41890669 -14.21241856
-3.77427697 4.04134893 -12.79015827
1.60669863 -0.80943596 -14.20677185
2.17850661 1.06307781 -9.92471123
1.02354872 -5.10825920 -12.11571789
3.68308401 -4.03899097 -13.94151688
1.66470027 0.65509713 -13.33911705
-2.55510497 3.98717690 -14.20155716
0.44884157 4.13623857 -9.43185043
1.29966795 1.72734320 -10.09531593
-3.60975194 -4.01672602 -9.05134010
-3.94358468 -3.36502171 -9.60449028
-4.04195547 -3.30348063 -14.02380657
4.11537361 1.45161998 -16.79040909
-3.32013869 3.99751449 -15.62430573
2.65772033 4.07891655 -9.52500534
2.46354008 1.78577507 -14.34098625
0.04165341 -3.98729515 -15.08282280
3.95441985 -2.24073434 -15.53058720
0.34888822 -5.39839792 -12.58487415
-2.09530663 -1.32216263 -11.40799618
0.90956104 -4.51427889 -14.04230022
0.09201639 -3.99955845 -15.61847878
3.98429871 1.54965973 -16.61641693
-2.46631932 3.45470071 -16.84223747
-3.98734140 -2.78319335 -10.44233704
3.33796763 -1.88698280 -16.92490959
-3.21016955 -1.38483012 -8.90612984
-1.53985679 4.03007460 -13.81892014
-3.91614723 -1.99800360 -10.96793461
4.02690601 -3.69166589 -13.65508842
3.88608956 2.59390163 -11.26619148
3.76746416 1.91506767 -8.71996117
4.12509632 -1.17984879 -16.46266174
4.03396749 -2.41075373 -10.13813400
-0.16895902 -2.51924562 -15.86117172
0.68766969 -4.02475691 -15.86053085
0.73103184 -3.03649521 -16.89170837
3.42132115 -4.01649857 -12.59264088
-2.24069500 -4.01022768 -11.31105804
-1.36429691 4.94149780 -12.83171082
2.74511242 -1.12765932 -9.08467770
-1.43196142 2.36529732 -9.34202957
-2.56360984 -0.10219390 -15.13093376
-2.50167084 -0.46642703 -10.61905479
-1.05170691 -4.07922029 -10.31277370
2.19999719 2.21205544 -8.86650085
-3.80186892 0.57460409 -8.88866043
-1.03835082 -3.99275327 -10.46649170
1.99169040 4.01708269 -13.23723888
2.93600273 -4.03331184 -12.82593536
-4.03572559 -2.56576347 -10.87638474
2.32433462 -3.29415989 -16.84498978
3.95525956 -0.86732262 -9.07147598
3.86457539 -0.31255522 -8.85925674
-3.92942047 -0.51479775 -16.77252197
-3.98673391 -1.66151917 -10.21547413
3.57818317 2.48933482 -11.92542171
-1.35107350 1.94835830 -16.10741997
-1.03325450 5.20766068 -12.96730328
-1.16394031 4.06393003 -9.14548874
-3.14740229 -0.89529544 -10.59288788
-3.95558715 2.66935730 -14.23966980
2.14801049 1.97487295 -13.79689980
-0.10928608 3.35661149 -16.83708191
3.96459675 -3.94349027 -12.25750542
-2.95367837 1.06127417 -16.88895607
-2.78903246 -4.18447590 -15.83386612
-1.17385626 -2.10201120 -15.86274529
-3.08285189 -1.89502537 -16.85432434
-2.25982952 -2.50761390 -16.78766441
-2.88910007 -2.23224640 -16.88048172
-2.30576921 -1.67665505 -14.38031006
-2.30178618 1.53045583 -14.47667599
-2.07833552 1.75714183 -16.47358513
-2.58214521 -2.29777145 -12.67009830
4.06094027 3.49046922 -9.38351917
3.23302007 -3.92961240 -8.94635582
-3.65570140 -1.42391765 -10.80814171
4.04403353 0.17507425 -16.22960663
-1.60792112 -0.26411584 -10.33659077
-3.82805848 -3.95795631 -15.26538372
-4.12381458 1.36931026 -16.79293251
-0.07571199 -3.95153546 -15.56783772
-2.74631953 2.33754969 -16.98566628
-0.68148279 -4.05061483 -10.03946877
-2.99521160 -4.04807711 -14.58534431
2.93315649 -3.61144686 -8.89919949
0.70001054 -1.85286176 -15.61332226
-3.76865864 -1.04655647 -15.40761566
-3.21747804 4.05570078 -12.57106304
-4.03004074 -1.79791129 -9.12973118
1.72810793 -4.05288649 -13.78018761
-4.00173998 3.28393674 -9.14371204
1.59810007 -2.47803807 -9.15078354
2.26783109 3.91283321 -9.70466423
2.34923863 -3.91815329 -16.38171768
-3.94061446 -2.73771858 -15.91608810
3.98461890 -3.46752238 -10.82316780
-3.78387356 2.32432294 -8.94929314
0.01948829 -1.63640571 -10.16809750
-1.48124659 -0.28808087 -15.63231564
1.07897246 4.19102144 -14.11695862
1.44193912 -4.03813887 -8.91145706
-4.13417149 3.65380216 -8.99636459
3.84957838 2.68941879 -12.75390911
-0.38372642 2.47534561 -9.72599411
1.10195065 -4.03463984 -14.61284256
-2.29784369 -1.22938585 -10.95457649
1.51287019 -0.44915247 -10.16988182
-2.95551968 2.22654724 -13.36112785
-0.53701347 3.17591643 -8.87578011
-1.17644513 -0.84363514 -10.20596409
3.37611794 -2.54853058 -12.49626064
2.50730395 0.24263836 -9.94594383
3.74885273 3.93774748 -13.84699821
-1.54600549 0.68007278 -10.22511578
-3.95039964 -3.24400234 -16.49724770
-2.18506265 4.14284277 -9.30086327
3.21781468 -2.21740675 -16.86250496
-3.90419912 3.71079898 -10.29837894
0.69620025 4.05738831 -15.40691757
2.41162467 0.02697147 -10.16296291
-4.13668442 -1.64421189 -9.90705109
-1.94044185 -4.02663088 -16.29893494
4.02379656 3.55000329 -13.35559464
-3.91110182 3.82705760 -10.22336483
3.22838330 -3.95908809 -11.85622978
2.64798522 3.97964644 -10.71916008
3.32497382 3.45005274 -16.91190720
3.85976148 -1.35132170 -16.07706833
2.44477558 2.14490652 -13.62584591
3.63627601 4.11545658 -9.63091564
-4.12251091 -3.80128908 -15.78050709
3.93159914 3.70143080 -9.59525967
3.42096972 -3.50697494 -16.72889900
-4.12677765 -2.98857689 -14.80308628
-1.68649030 2.27075362 -16.45890045
-3.77612829 -3.97853160 -15.75075436
2.67979836 0.67978364 -9.25127602
-0.50562119 -3.14442635 -16.90307999
-3.31033492 2.91109443 -8.91015244
3.49278069 1.46473408 -10.84170723
-3.82323980 0.85648173 -9.03745174
-4.05620575 -1.73970711 -15.52524853
1.29086030 -4.35097408 -13.70907211
-0.79236621 3.98779726 -8.83952618
-0.79585665 2.29566860 -9.71163559
-3.40540266 -1.51140702 -8.97480679
2.26194906 -4.09502316 -12.29015732
1.51523924 -0.23437247 -10.24577904
-2.45324039 -1.85457313 -16.74121094
-1.04280317 -2.51461625 -16.63494301
-3.98598528 -3.22355151 -9.93201637
2.40577912 4.09877491 -11.57852268
0.82868296 3.97751975 -16.59350204
4.00645447 -2.69399834 -14.80563736
0.88201779 -4.97952461 -12.03592873
1.94476759 -2.03325629 -16.49931526
2.58696485 3.17482901 -8.78415108
2.86914611 -4.03188276 -13.65282154
4.07629347 -3.45834947 -10.59894943
-3.99914384 0.53251541 -15.88830376
2.68111348 3.99715233 -15.92889595
3.99226880 -3.14107704 -8.94980907
-3.28499150 3.91774154 -14.51879692
-4.09460306 1.18701816 -16.66786575
1.34518707 1.17958772 -15.39349842
-4.05780363 -2.45924711 -16.52144051
-0.98201597 -3.64373899 -16.85629272
-0.82486677 0.70399207 -15.52743149
1.00817382 -1.05186462 -15.46244049
3.84947729 0.55446833 -16.36819267
0.16644239 3.85121918 -8.95660877
-1.87528288 -1.43927181 -11.88288403
-1.05701518 -4.82217073 -12.05014420
-1.30308604 -4.36517620 -12.37299633
0.15015455 -4.08935499 -9.09824467
3.82885027 3.97123313 -11.16218185
2.46106911 0.69961560 -10.82177448
-1.57709980 2.26966500 -16.29669571
4.05611181 -1.96391308 -16.16561508
1.42270410 -3.39306378 -16.88511848
2.41868353 1.40552771 -9.12366104
-2.92661119 4.08846235 -12.12940979
2.29365540 -1.20432317 -16.18580627
2.18037081 -3.88333654 -9.08378029
3.76334023 1.96706796 -14.99116993
3.93391514 3.52475691 -10.37770748
-0.90682411 4.05954981 -11.09792042
3.94524002 -1.71427238 -9.93406391
2.79599500 -0.64808947 -16.56214142
-4.07045269 3.67893958 -13.73148251
3.80146003 1.73640609 -16.52054405
-0.72799915 -5.24572468 -12.60959435
4.10580492 -1.90227222 -9.29219532
-3.26675129 2.33249354 -13.78961086
-3.93733859 -1.91056144 -16.20320702
1.88014960 -0.22469720 -11.10945606
2.51614141 -3.87424159 -11.17469025
0.55725545 -5.36783504 -12.66939735
-3.60622215 3.98018980 -9.85945988
-3.57812262 -3.07470179 -16.94358635
-0.07006726 3.37261391 -16.92475128
2.34807587 -0.01685609 -9.89194489
0.03271973 -2.69640923 -16.54811287
0.08495631 -3.95519280 -9.76597404
1.02319384 4.08481312 -16.46272850
1.23256922 -0.69195217 -15.49244499
0.33787432 -4.00771379 -9.05843735
-3.84590101 0.39854836 -15.43266773
-3.97608447 3.47841144 -11.75021076
3.97771955 -0.46690717 -9.28024292
-1.60668743 -0.04261572 -14.15496349
-2.87907195 1.61199987 -16.90175819
0.39959463 -1.11981106 -15.42066860
4.04681301 -2.47579527 -11.57525253
3.77531815 0.52140445 -10.24007607
1.58361769 -3.84582806 -14.24900246
-3.96564746 -3.65975475 -14.03372669
4.07689667 1.79784703 -10.16266918
-4.07979727 -3.49220967 -13.97143555
-2.25246382 3.98496509 -15.64356422
-3.91582942 -1.25872874 -8.90820312
-3.27408314 3.84997606 -12.28390694
3.08564806 -3.95750165 -14.44788551
4.00480604 -2.41020799 -14.98693275
-3.96640825 -2.62742281 -9.46098614
-1.01858056 -0.96200889 -10.19189072
1.48340857 -2.49163222 -9.14952374
1.82815099 -0.53639889 -13.07845688
3.80567670 -1.11147618 -10.32817554
-3.84463763 3.03779030 -14.92886353
-0.21602470 4.06969738 -9.52175140
-4.02939653 2.97301579 -9.56320953
3.92536950 2.80398893 -15.57069588
-3.88467526 3.93594956 -14.73063850
-0.44713843 4.12669230 -14.52455425
2.36303067 1.96484780 -13.97438526
1.12859166 1.55178964 -10.25284386
-3.51369810 -2.58464813 -12.36524105
-2.26486778 -0.89198416 -15.99254513
-4.01086378 3.34192777 -15.39187908
2.25916886 3.88698792 -9.61151600
0.33923173 -4.18546534 -14.92168427
-1.77282298 1.83487332 -9.31245327
3.57718658 4.07328606 -10.45430946
0.83444697 -0.96509802 -15.49208260
-1.85952103 2.16079426 -16.52530861
1.56390190 -0.42597276 -10.37373066
-0.02470732 -4.69307518 -11.37509918
-0.67351431 4.01481581 -15.82178688
-2.67587042 -0.54453272 -10.59047508
-1.60832250 -4.03143549 -9.70439529
1.47138774 4.05653572 -9.69690514
1.53416789 -3.37875843 -17.02701569
1.17584968 4.46671629 -13.74306965
-2.76274562 2.81895423 -8.83636665
3.93955278 -1.48619139 -9.82674694
-3.37859511 -2.76184821 -16.84770203
3.36998439 -4.19934368 -15.94945335
-2.70278549 3.98388195 -16.49206734
3.01905465 2.52293849 -12.43989468
4.13349867 -3.39014316 -12.71477032
2.24513602 1.63631928 -14.04658985
-0.00541143 -4.70616198 -11.49013519
-3.08286643 -0.46957496 -15.26832008
3.99417353 2.03192139 -9.12051773
-4.06329823 4.03137445 -11.51432800
3.88863134 3.37693095 -9.96214962
0.15726632 -5.02078342 -11.48966217
1.93801391 -1.78266025 -16.25043297
-0.53430313 -3.73250985 -16.90233421
3.71674347 -1.20294595 -8.84920120
-1.30240965 -3.96864724 -9.31485939
3.05716586 1.08511102 -15.18180275
-1.75284994 1.09444368 -11.86290550
0.40795994 5.35008621 -13.09838295
2.08528566 -3.96116066 -11.54512978
1.70018256 -1.16505957 -13.81938267
2.50344253 2.38709521 -12.98046112
1.79017460 -3.96835017 -9.23436737
-2.15815306 3.93757606 -16.51957321
2.54764700 2.20162392 -8.86206627
-1.50272107 4.30708599 -13.38193607
3.73421669 1.95433474 -14.93938828
-0.95443255 4.02779961 -14.33423710
1.84429097 1.17297721 -10.04307842
-2.21854305 -1.91697454 -13.53024960
3.96025944 -3.52756071 -13.30083275
3.68718815 -3.98533201 -10.84414768
-3.15804529 -3.72567344 -8.89251232
-3.00495815 1.78522766 -14.47351551
-1.79239249 -0.74889636 -11.77656078
-3.79741335 -0.19077130 -15.53644753
1.37267137 -4.04296923 -9.90771198
3.72868204 -2.38987589 -11.78877640
2.35505009 -4.02182436 -13.86831093
