-0.68842149 0.77967149 0.72531086
0.25898153 1.43561983 0.68698394
0.50250149 0.26883274 0.27661660
0.85035372 0.24965164 -0.47963941
0.26807484 0.46515435 0.49397773
0.09361747 0.01728532 0.72700697
-0.46122503 0.25837553 -0.76103342
0.26462394 -0.23955011 0.12559316
0.26226571 0.49041378 0.62134320
0.52102637 0.14563039 0.36239952
-0.47037950 -0.50152016 0.54285198
-0.32044736 0.02193698 -0.38344908
-0.29407880 1.50796402 0.70190722
-0.72030205 1.52385247 0.16117592
-0.68199563 1.07606339 0.73833537
-0.65341902 -0.07326198 0.74201292
-0.02413271 1.28689671 0.73462248
0.46748963 0.28206080 -0.72424972
1.00081635 0.52857608 -0.64620250
-0.24671863 -0.06597269 -0.24506874
0.40883473 0.93890393 -0.75289774
0.32574335 0.19535470 -0.48079360
0.23280172 0.00073946 -0.14528111
-0.63611096 1.26660299 -0.31952021
0.29567093 0.35656869 -0.74606502
-0.07706993 0.51061165 0.74926484
-0.37547708 0.98966300 0.74224192
-0.76477748 1.31048918 0.35021332
-0.60662907 1.00442910 -0.75071394
-0.15468045 1.49073827 0.66603041
1.02098775 0.62104511 -0.52556223
0.91088367 0.25539204 -0.36499625
0.97826999 0.84297240 0.16219614
0.44114619 0.25083685 -0.73247886
-0.96214771 1.12010956 0.27202895
0.02409393 -0.15873116 0.77013826
0.96508622 0.60278606 -0.61134285
-0.49444497 0.65382969 -0.75895369
-1.01510775 1.16603291 -0.56284171
-0.36079583 0.08850104 -0.51298624
-0.47721878 -0.13896674 -0.24171275
0.13641609 1.48988867 0.26996338
0.24945304 -0.05089116 -0.00655120
0.51492667 0.17772374 -0.40911257
0.39985016 0.91478324 0.50338352
0.63560289 0.25809163 -0.30816683
0.32598194 1.15225470 0.27973971
0.13879803 -0.50079703 0.64135939
-0.26818010 0.72831416 -0.73925173
0.31566408 1.24839437 -0.26712057
0.24638505 -0.03784215 -0.23999745
-0.27578211 -0.06779867 0.74652433
-0.50143713 -0.38280135 0.75495178
-0.75541466 1.10044503 0.46304569
1.00475347 0.80359501 -0.06987446
0.56830680 1.25723672 -0.36946872
1.01442873 1.24832344 -0.76107126
-1.01993787 0.91089606 -0.34394932
-0.50081813 1.32713437 -0.25355566
-0.75272942 1.46065795 0.74734652
-0.22513996 0.18027946 0.73997819
0.51161277 0.43706086 0.34832114
-0.60889715 -0.50411105 0.21452196
0.25781122 -0.28729087 0.51722467
-0.76134628 1.08684862 0.70803690
-0.50222546 1.49117160 -0.19979081
-0.73391646 0.40135661 0.67455471
0.50551194 0.07240912 0.47972652
-0.76159257 0.45483395 0.66049439
0.82556516 1.25978386 -0.58541185
0.27420366 0.94082510 0.50562423
0.03778951 1.32755959 -0.22381310
-0.25282836 -0.00132173 -0.48481899
0.49587783 0.79199588 0.28241560
-0.17437404 0.05173925 0.73998106
0.27338558 -0.24516666 0.48431620
-0.73628914 -0.50098479 0.07956698
-0.74396062 0.19098982 0.00388574
0.50050092 0.82902098 0.49121290
-0.15633035 1.48684716 0.52484053
-0.75254709 0.95724928 0.38693234
0.11245301 0.96897852 0.73130912
-0.22649558 1.24668121 -0.26604271
-0.26088184 1.24875093 -0.26410499
0.23814464 0.89430845 0.53345519
-0.20855035 -0.08199096 0.75131708
-0.75373477 0.40011293 0.46178243
-0.30684313 -0.48863727 -0.26313105
-0.32045835 0.02720684 0.77602464
-0.63550311 -0.03832030 -0.23711364
-0.44013163 -0.52921546 -0.10132197
0.23215547 0.07044101 0.52632821
-0.36127916 1.49654818 0.17425327
-0.76209074 0.24451014 0.16637535
-0.58024907 0.10786352 0.75018823
-0.75519764 -0.15103263 0.00147064
0.42205468 0.03804201 -0.49684170
-0.32950696 0.02330559 -0.49621639
0.22035740 -0.02801889 0.55920756
0.42029420 0.00854445 -0.27028662
0.22033556 -0.02686572 0.25433105
-0.12577049 0.21743226 -0.49825749
0.02205278 -0.50714779 0.67863655
0.21466143 0.91235131 0.74552244
-0.71900213 1.47364998 -0.01831848
-1.00630224 0.38881391 0.10883660
0.15686035 -0.20756745 0.74518961
0.25705180 1.37463260 0.08058392
0.84646428 0.29117462 0.24100137
-0.30223298 1.51924086 0.62920910
-0.51437277 1.35517192 0.76608837
-0.03537174 1.47205639 -0.06262498
0.52633715 1.17155504 -0.74439269
-0.97887737 0.42628759 -0.72289306
0.25151601 -0.12264788 0.20300117
1.01433480 1.05440760 -0.20814711
0.42662424 -0.02766305 -0.38384220
0.27073815 0.27411157 -0.67647874
-0.75100791 0.63862145 0.66434300
0.13605043 0.25720137 -0.48768097
0.19633676 1.24225736 -0.47179812
-0.70641768 -0.15687954 0.76560932
-1.01497626 0.62584585 0.24714726
0.25817212 -0.10067272 0.51960689
0.17900904 -0.41450840 0.76964980
0.48406720 0.15370813 -0.04065896
0.85411167 1.23732972 -0.14222416
0.95960128 0.64550829 -0.74127859
-0.41615012 0.48533091 0.73787481
-0.75756770 -0.08099496 0.49322271
-0.74123222 0.17557207 -0.01441403
-0.07525341 1.49519634 0.19315210
-0.07091706 1.53267860 0.19615042
1.00669670 0.37771767 -0.42161915
-0.06764927 0.24521911 -0.55511349
-0.62141758 1.24174786 0.74862021
-0.97760075 0.59920150 0.14151779
-0.24567202 0.70670992 -0.76349318
-1.02228224 0.57844305 -0.06420580
-0.87125784 1.05288029 -0.74850583
-0.91891021 1.26609635 -0.73398691
0.99873585 0.33123416 -0.35910013
-0.41069317 0.65775621 0.72651857
0.66177958 0.23908511 -0.28455973
0.26337779 -0.08153600 0.34267864
-0.78015608 1.34148788 0.76790977
-0.51371849 1.48702276 0.45912322
0.64253181 0.25012210 -0.02209472
0.49424309 1.11242700 0.24907030
-0.45356926 1.51777875 0.48204741
-0.35780343 1.50278842 0.70142800
-0.03507011 0.10291833 -0.51534706
-0.84034032 0.63135952 -0.75308365
-0.49379721 1.26850402 -0.28467348
0.59180713 0.35965154 -0.76519442
0.18426210 -0.51451123 0.67902744
-0.24368064 1.33074927 -0.24960238
-0.74124831 0.21425232 -0.07262365
0.65602118 0.57893276 0.27344012
0.06657872 1.48543704 -0.18427816
-0.53728878 1.27678931 0.76050234
-0.51509786 -0.49341983 -0.27961859
-0.14645480 -0.51391041 0.49719158
0.24141666 0.18933493 0.57482797
-0.84077418 0.93974042 -0.76651835
-0.74630314 -0.44634753 -0.19424938
-0.17084350 -0.50299513 0.36466786
-0.75371557 0.09970087 0.08447757
-0.74863350 0.08438179 0.62850612
0.26223910 0.99835491 0.69432300
0.50465286 0.43755907 0.29260719
-0.39453265 1.51713932 0.42515787
-0.74978274 1.40042937 0.20653969
-0.26859826 0.31686631 0.75722212
-0.62168795 -0.35580409 0.75538301
0.89201504 1.24383330 0.10857072
-0.75553077 0.14479008 0.41308993
-0.53669411 0.02584609 0.76474857
-0.75003123 1.29003835 0.00860755
-0.74525994 -0.45108294 0.34940869
-0.87066150 1.06115496 -0.71483815
1.00926423 0.82642174 -0.55283129
-0.78601640 0.47200122 0.24003188
-0.98506284 0.40613884 0.23001328
0.24833113 0.69468689 0.51408732
0.96860093 0.87474740 0.27134427
-0.65068960 0.26788592 -0.63481027
-0.80037725 0.89275986 0.26149791
-0.64179474 0.83047658 0.76011401
-0.64603794 0.68287319 0.74906695
0.24828586 1.28554976 0.43162033
0.26402870 0.26140866 -0.73941177
0.13586730 1.50688469 0.54868925
-0.70662332 -0.50712597 0.65861249
0.38473073 0.09314018 -0.51593637
-0.80965579 0.23783359 0.07762925
1.00691700 0.93087560 -0.70742571
0.62659132 0.36874825 -0.73619062
-0.44808719 0.67896652 0.74745262
0.29409260 1.22939324 -0.30731481
-0.54006600 1.40575337 0.75867754
0.84926069 0.36625165 -0.74229026
-0.69051534 1.25271404 -0.62981337
-1.03075981 0.31347281 -0.36759403
0.48732436 0.20087868 0.44803622
-0.10348380 -0.48569179 0.76776409
-0.28320476 -0.38689840 -0.24992095
-1.01023746 0.47886750 -0.26442224
-0.53884763 -0.02074140 0.75270575
-0.45501167 0.90613115 -0.72338825
-0.70463037 -0.48769855 0.44734812
-0.24103531 1.49696732 0.67010283
0.98579121 0.42754257 -0.39730662
0.17931521 -0.49294800 -0.12601689
-0.75882149 -0.11222422 -0.23018746
-0.58549064 0.44998369 -0.73189753
0.31403628 1.24353433 0.04711034
0.44946668 0.45469999 0.53379345
0.91695380 0.77566582 0.23026946
-0.74819559 1.46418297 0.27387819
0.04775554 -0.50422490 0.56795031
1.01308870 0.78057611 -0.21474941
0.23832811 -0.19155431 0.65472001
0.78239352 0.52933192 -0.73943621
-0.62185907 1.24684668 -0.51545870
-0.56705850 -0.24115336 -0.26056343
-0.53528434 0.69426298 0.77065516
-0.05843902 1.31654644 -0.25111550
-0.42555213 0.78670967 0.72851282
0.52727908 0.70234573 -0.74902475
1.02570784 1.16905892 -0.28559092
-0.72029138 -0.53099382 -0.14380206
0.24898179 -0.43571681 0.49518684
-0.61146986 1.04485059 -0.73075825
0.48928720 1.25220096 -0.59446877
-0.88692093 0.23398486 -0.34012872
-0.21166517 0.30501613 0.73032546
-0.77283132 1.25640965 0.05742361
-0.08292554 0.20592216 -0.49726084
0.48675030 0.03718004 0.16242214
-0.63262385 0.46441710 0.74707079
-0.48407286 0.21985826 -0.48172626
1.00157189 1.13422704 -0.59751987
-0.77680057 1.25191188 -0.54893357
-0.65153325 0.60662711 0.75220287
-0.91633928 0.23999271 0.03751032
-0.23524156 1.49054098 0.37130120
0.56146878 0.96689212 -0.74174702
-0.42595041 1.06634033 -0.72580779
0.24793205 -0.29191393 -0.08413875
-1.00633526 1.04703426 -0.67522484
0.52651310 0.61301887 0.45181885
-0.51794285 0.24547806 -0.75123125
-0.78130883 0.24343702 -0.11183517
0.70155245 0.65467149 0.24185193
-0.75565702 1.42829311 0.52646953
0.98704594 0.66477031 -0.75733304
0.49342787 0.21983206 0.17881513
-0.74919289 0.45944327 0.53419566
0.30166298 -0.01163435 0.26841587
-0.72764188 0.60861623 0.73369527
0.67414486 0.22463644 -0.55726135
-0.99113011 0.74020326 -0.75964385
-0.03837821 1.15684867 -0.77073395
0.79057628 0.27325845 -0.62519866
0.44606915 -0.01036853 0.17269476
0.22820556 0.70518017 0.55590212
0.77661657 1.25173974 -0.28974873
0.13146605 1.24673331 -0.73180950
0.01442169 -0.46799612 0.18494038
0.88510865 0.21287158 -0.65269935
-0.47901025 0.06997025 -0.50630170
-0.74670744 1.46969581 0.73291719
-0.40499771 1.49382424 0.39537162
0.32819304 0.98730397 0.40466994
-0.45042554 1.25531363 -0.45763132
-0.32255229 -0.49581301 0.33018428
0.99622691 0.35430717 -0.12062062
0.00107595 1.23347640 -0.60956162
-0.88421166 0.24122217 -0.46638405
-0.58104646 1.48825121 -0.09487566
-0.65680385 0.93744338 -0.76998597
-0.01171497 0.74193096 0.76530087
0.99524158 0.66649938 -0.40830767
-0.75681454 -0.10872644 0.50297111
0.45479789 -0.00614506 -0.36013746
-0.72258794 0.96341574 0.27666292
0.98703456 0.41862988 0.26033852
0.38529941 -0.00015062 -0.42626542
-0.06414410 -0.08438516 -0.26321828
-0.03639521 0.17610008 -0.49605063
0.91465205 1.03597379 0.26418331
-0.76671171 0.33643085 0.65971029
-0.13126510 -0.50096273 0.30871680
0.97856516 0.49348241 0.08528593
-0.33387205 1.48697782 0.26330253
0.22626041 0.11278883 -0.49384630
-0.83488262 0.25072488 0.15659739
0.20852453 1.24410212 -0.72930950
0.61023879 1.12668860 -0.75097668
-0.99202543 0.52859420 0.23418660
-0.09816941 0.04360169 -0.51901680
-0.73187768 1.32927513 0.18223488
-0.71725267 -0.31821406 0.16392168
0.26528090 1.36276126 0.59710789
-1.00564897 1.12838912 -0.76141220
0.18550572 1.26272130 -0.39588892
-0.73645574 0.06926355 -0.02277361
-1.00147593 0.72527826 -0.64810789
0.27248344 1.45648170 0.50479424
-0.38764581 0.50603390 -0.74687523
-0.42883876 -0.00373119 -0.43831858
0.33067453 1.28095102 0.24387787
-0.41283402 1.25361848 -0.70903128
-0.76174384 -0.34184176 0.32783258
-0.91122794 0.65055072 -0.75873762
0.38508001 1.01785398 0.32337913
0.82811934 0.25555182 -0.60053623
0.10298833 0.50343639 -0.75654823
-1.02951694 1.05487049 -0.18884388
0.19658755 0.06870040 -0.49688950
1.00401843 0.65448701 -0.51169175
-0.34988400 0.53636676 0.75197238
0.50859207 0.03400606 0.39461890
0.24482653 -0.04561126 0.26283571
0.47543842 0.36327398 -0.74755865
0.84366149 1.26602936 -0.22892798
1.00416553 1.19220114 -0.66326040
-0.97779882 0.94911557 -0.28093389
0.11079807 0.22412553 0.72973114
0.24224952 1.08062696 0.57629502
-0.40205351 0.23226365 -0.55006927
-1.01822495 1.10202861 -0.15555939
0.55986375 0.82333910 0.25495893
0.97085309 0.89528525 -0.17559129
-0.72578156 1.46621299 -0.10515524
-0.50114405 0.58186251 0.72325772
0.17901912 0.40039226 -0.74697661
0.92146850 1.24481082 -0.01121907
-0.09152809 1.25376964 -0.72455955
0.25918934 1.19369841 0.38482147
-0.14912142 -0.13722444 0.75324047
-0.72508734 0.00474882 0.14351888
-0.78906566 0.46042940 0.23013221
-0.95789218 0.29378903 0.24740206
-0.94034600 0.24721226 -0.24192558
-0.13821603 1.50875425 0.61552578
-0.98759580 1.14963126 -0.40272456
0.60382628 0.22447515 0.22306728
0.36816373 1.23462605 0.01006090
0.80141366 1.22665536 -0.30379477
0.99927807 0.61413312 -0.02070441
-0.99324405 0.35251480 -0.10072097
-0.99500221 0.70326900 -0.33820120
-0.20656797 1.23711324 -0.31807885
0.25383770 0.32732624 0.56830961
0.01092918 1.26588249 -0.29189318
-0.24250260 1.45664382 0.80499989
0.81753451 0.29256666 -0.75020915
-0.46062762 0.25216103 -0.66782153
0.81540728 0.55495423 0.23667692
-1.00104105 0.71651173 -0.32610598
-0.15084553 0.64561850 -0.76990217
0.06968938 1.05749154 0.73987383
-0.75007463 1.19700503 0.31524575
0.99980873 0.83580452 -0.30374801
-0.36773664 -0.35863829 -0.24273914
-0.55010939 1.24016070 -0.40814108
0.25910079 -0.48960650 0.49077189
-0.18935029 0.26991132 -0.71519589
1.00684023 0.80285037 -0.00435372
0.09829306 1.51383412 0.41487101
-0.20457037 0.26585352 -0.74191803
-0.54334426 1.50221503 0.42142996
-0.02694479 0.49974328 0.74975699
0.09397800 0.27217221 -0.72972447
0.13544251 -0.50691044 0.34725067
0.11351226 -0.53900254 0.68901277
0.67140782 0.86029744 -0.74702841
0.13526540 1.02638769 -0.75446314
-0.43444592 -0.15374005 0.77806211
0.39697316 0.24771553 -0.74466413
-0.99789631 0.98489004 -0.32799324
-0.03594952 -0.35738605 -0.26501626
0.11511295 1.21695709 -0.74402720
0.18798552 1.49974108 -0.18034044
0.99368244 0.34240314 -0.69443679
-0.92029327 0.73520625 -0.76145667
-0.45409936 1.50604296 0.09779824
0.49915844 1.25119257 -0.51928872
0.68692297 0.25069624 -0.16255167
-1.01567543 0.24718794 -0.67383486
0.05873282 0.77079678 -0.73097301
0.45353085 0.98331273 0.32952723
0.25159907 1.22246599 0.53046978
-0.84158391 0.87992585 -0.74127162
0.26563147 0.60429883 0.76965749
0.21379496 1.49734306 0.01606217
0.16613504 1.23598289 -0.41813567
-0.97549903 0.56471032 -0.72387159
-0.16377211 1.06808305 0.77503157
-0.98932892 0.69799054 0.12855744
-0.74169034 0.10980389 0.36442107
0.46606481 -0.01823920 0.43601701
0.88129085 0.48257717 0.24985896
0.25288767 1.30569232 -0.02146629
-0.36084357 0.47849366 0.76081067
-0.03932790 -0.47893882 0.46886262
-0.05269672 1.33138001 -0.26565042
-0.81831831 0.23808765 0.25263861
-0.74466467 0.73845553 0.35571617
0.22035535 -0.46159190 0.73746389
-0.98691422 0.56103480 0.04202461
-0.98754013 0.79424655 0.23362894
0.63290542 0.26484841 0.24778719
0.52168727 0.39347678 0.46822724
-0.90520310 1.25166106 -0.34229535
-0.76683778 -0.43929708 0.26780841
-0.99795109 1.21141136 -0.35743627
-0.68243027 -0.03282893 -0.25126788
0.49930093 0.05102512 -0.45367324
-0.11961479 1.23765421 -0.43815774
0.64787108 0.43234742 -0.74541563
-0.99802393 0.51115966 -0.07042930
-0.99598181 0.52988750 0.26166686
0.51030618 0.10031977 -0.13759418
-0.89597809 0.93522519 -0.73622781
0.22748877 -0.15717095 0.48219672
-0.00976165 1.51635993 0.30724189
-0.75330806 -0.00836825 -0.15389156
-0.60145038 0.82286263 -0.74614376
1.00188243 1.26449394 -0.50662261
1.00766981 0.66171783 0.05151831
-0.48004168 1.19510937 -0.75377512
-0.14302437 -0.21357042 0.74552470
0.22970688 0.62728179 -0.75967985
0.32644805 1.19423008 -0.73827767
-0.99204111 0.82852840 -0.19979757
-0.27912629 -0.41533875 -0.27390474
-0.73741657 0.52239144 -0.72766912
0.10000447 1.48765123 0.11783960
0.69684070 1.25751328 -0.58221972
-0.79695588 0.24277070 -0.12498798
-0.20634964 1.48724747 -0.23127919
-0.74639440 0.16290179 0.55619162
-1.00478828 0.44699049 -0.51723588
-0.23393193 0.30230862 -0.76635069
0.96831870 0.61745399 -0.29674065
-0.34646490 1.50181973 0.69300485
0.01320929 0.18571433 -0.48532251
-0.75021976 0.16720614 0.74050498
0.41356909 0.67122281 0.51932126
0.23493035 0.25129998 0.77482516
-0.10497753 1.25917125 -0.77009630
1.00300264 1.13530505 -0.32155699
-0.65392494 0.87177050 -0.77137744
-0.63056612 1.47765279 0.53996772
0.97745061 1.05078495 0.00165662
0.00831328 -0.51528537 -0.15480253
-0.17931777 1.49754047 0.42388821
0.38594261 -0.02237201 0.28592449
0.97107214 1.26112938 0.02655439
0.56345993 0.90962571 -0.75019062
0.27678829 0.32677048 -0.74559516
-0.23604693 0.90703356 -0.74221498
-0.56238443 0.25447202 -0.24551038
0.53551692 1.23450732 0.18328394
-0.07372583 1.48193145 0.75102329
-0.72266781 -0.50367725 0.23284781
-0.11149573 1.02195787 -0.77039391
-0.32754156 0.23095065 -0.51077771
0.24022949 -0.32736397 0.50905365
-0.75733232 -0.29681975 0.53104049
-0.99680185 0.56579876 -0.44467354
0.39556858 1.23568535 -0.49461728
-0.48712650 -0.47388107 0.75289243
0.25661036 1.04438412 0.50109351
-0.49463201 0.18378720 -0.25040331
-0.57961559 0.36948627 -0.75111896
-0.44560036 1.36500430 0.73737305
0.11013431 1.49645174 0.41496965
-1.00316358 0.46563163 -0.61103088
0.42178380 0.23565826 -0.52753675
0.82338649 0.54254508 -0.74851412
0.53140706 0.58337522 -0.73940432
0.47094509 0.96513945 -0.75830042
-0.54420936 0.50409728 -0.75227123
-0.53506261 1.49798477 0.68901342
-0.99588531 0.60417336 0.18328613
-0.01568227 -0.45193136 -0.25161758
-0.73935890 1.44211102 0.18646948
0.25906321 0.24705386 0.48076460
0.90363789 0.24927217 -0.46296686
0.75132883 0.26973271 0.05126503
-0.16147801 1.48351574 0.15322740
-0.61627001 -0.19296384 0.74529082
-0.60542047 1.26212335 -0.77180135
0.86930788 1.08961916 0.25264016
0.25228509 -0.01851255 0.14819448
-0.44385701 1.49508810 0.56800294
0.27074867 1.41545177 -0.07853793
0.61469615 1.26869273 -0.72438383
-0.53140485 -0.46736193 -0.23842146
-0.15164231 -0.49081492 0.69772011
0.97643661 0.28912544 0.24929041
1.02441978 1.16449714 0.19038875
0.14182015 -0.44843316 -0.24753813
-0.26252306 1.32281208 -0.23874985
-1.01004016 0.35994172 -0.26802918
-0.28229311 1.49409866 0.06262651
-0.56442899 -0.34204119 0.75755030
-0.54094088 0.18429643 0.73736531
-0.76316732 0.27531397 0.63961506
-0.68638790 1.27843821 -0.51707304
-0.75426888 1.36635578 0.38181996
0.36542466 -0.00517595 -0.46027461
-0.99974531 0.31690189 0.03764020
-0.72288603 0.82742256 0.70870358
-0.75732684 1.22790766 0.62430805
-0.57371169 0.87792444 -0.76881468
-0.00495539 0.14154902 -0.51361102
-0.99121064 1.02601838 -0.11241884
0.03662049 0.52139455 0.73384410
0.98150420 0.59370363 -0.72291476
-0.98445016 1.01288640 -0.70660812
0.26187602 -0.02140284 -0.05423260
-0.88536257 0.25808305 0.03410127
0.97802800 1.26256061 -0.30127731
0.99212819 1.25705457 -0.29311103
1.02020502 0.64076096 -0.05713302
0.72717875 1.17323077 0.27107775
-0.38719904 0.73244655 -0.73784345
0.52189350 0.13847587 0.12724285
-0.75872523 0.09214133 0.48342460
-0.09099638 1.43416429 0.75403649
-0.68126500 0.01086029 -0.24724413
-0.94400942 0.25471720 -0.54617786
1.02036786 1.21371269 -0.62824780
0.03363844 0.45085818 -0.73728526
0.99964237 1.11360586 -0.17886083
-0.71525705 -0.50165343 0.67835152
1.01286793 1.18741751 -0.41560492
0.55833596 0.33271945 0.26205251
0.98039722 1.21720243 -0.29707462
-0.76015472 0.03256607 -0.18652430
0.49430314 0.92273438 0.48786980
-0.74487883 0.06455714 0.48317248
-0.75205970 0.15789822 0.57222319
-0.02406752 -0.49875492 0.19712833
0.24754651 -0.41395527 -0.15700743
-0.48644248 1.13653243 -0.75813746
0.51268947 0.26333189 -0.35437036
1.01321411 1.23363638 -0.71521282
-0.66670454 0.26153290 -0.26997027
0.25241321 1.04482508 0.54112446
-0.99079657 0.36806828 -0.49791354
-0.73973352 1.47290945 -0.08315308
0.88163280 0.52192914 -0.73275203
-0.87940264 0.98180044 0.26134828
-0.30269486 0.09211469 0.74683744
-0.78929013 0.89323527 0.24943115
1.00916851 1.01064348 -0.60472822
-0.74595529 0.58833253 0.72803414
-0.32096469 0.13633311 -0.51674616
0.96732587 1.27668262 -0.18460925
-0.65586209 -0.34192353 0.74478471
0.23117290 0.09076843 0.72451943
-0.87110382 0.38955095 0.25647181
-0.72409606 0.01156595 0.04865495
0.18286903 1.14370275 0.76162922
0.23079081 -0.37295395 0.31328821
-0.10965753 0.83774853 -0.74230629
-0.24391134 -0.52329099 0.46940365
-0.04043724 1.53199553 -0.09503350
-0.87980819 1.25752640 -0.30627605
0.98819208 0.77115774 -0.07624053
0.34388590 1.24941158 -0.18917264
-0.06048093 1.37465668 -0.25862461
-0.64934206 1.25317836 -0.44282624
-0.75594479 0.77400059 0.43609214
-0.73028201 0.90193892 0.64914989
0.40069008 0.43955839 0.50076348
0.48617306 0.24504516 0.52806306
-0.73930025 0.11189130 0.06914626
0.24113278 1.34072685 0.64580965
-0.93394828 0.69427699 -0.74990582
-0.87059981 0.79384649 0.24129906
1.02920508 1.21415901 -0.65623033
-0.61474240 -0.31620449 -0.23887925
-0.23691694 0.79293215 -0.76508749
-0.71260643 1.24098802 -0.46965760
-0.56901354 0.34767008 -0.73456329
-0.34696338 -0.01348156 -0.28927702
0.55458575 0.72696793 0.25540763
-0.40808934 1.49219012 -0.20681866
0.61710781 1.10647261 -0.74628878
-0.76362997 -0.00650114 -0.04620340
-0.37410405 -0.50799477 0.30612561
0.07417168 0.41705644 -0.72977775
-0.75571531 1.27924502 0.64090341
-0.33792737 1.36114240 0.73780072
-0.14570062 0.64641535 0.74045700
1.01996231 0.86246562 -0.74271643
-0.63570458 0.15532976 -0.25475737
-0.21675810 -0.51609683 0.72523326
0.73563588 1.27382374 -0.20707439
-0.63424313 0.47607604 0.73049635
-0.40367165 -0.11215085 0.77643424
-0.20501998 0.26144558 -0.64117068
0.25918615 -0.05047649 0.57371134
0.09252425 1.24139857 -0.60268146
0.79324436 1.23418748 -0.19641724
0.24475124 0.95049828 0.72244668
0.90676719 0.61377287 -0.73247689
-1.00849044 1.17691278 -0.02889229
0.99019140 0.51234609 -0.62501115
0.35770446 1.26266992 0.19928750
0.23267289 0.59527159 0.74440974
0.99399143 0.81331044 -0.44179046
0.82904273 0.82169807 -0.75722140
-0.02448906 1.26486027 -0.69053578
0.94947684 0.98629856 0.22687212
-0.74347043 1.09716880 0.49132738
-0.66358465 1.23304808 -0.26403320
-0.48406672 0.24094367 -0.60314667
-0.11386491 0.26647866 -0.52984756
0.38880992 0.25961757 -0.62311822
-0.41696393 0.08966070 -0.52011299
-1.00820255 1.18103147 -0.49874079
0.53350794 0.24480507 0.20581020
0.63783360 0.24900475 0.04235432
0.51037669 0.25473866 -0.47159994
0.01241737 -0.17092085 -0.23163736
0.20229401 0.36942005 -0.77636594
-0.99993300 1.08066583 -0.20351067
0.22467436 0.18751329 0.74315387
0.15723859 1.48596525 0.31672004
-0.99741197 0.85282832 -0.74771935
0.66384137 1.26695406 -0.24760750
-0.20944357 1.25444555 -0.70845884
-0.89522678 0.37072688 0.21978299
-0.50126153 0.20721173 -0.37663254
0.83538479 0.39782593 -0.74377972
0.23917945 0.45737678 0.76027644
-0.72543895 1.34916854 0.56778294
0.02515221 -0.00434130 -0.27814078
0.16328740 0.90477967 -0.75455385
-0.73576474 -0.03230977 0.47893110
-0.81938779 0.74147177 -0.77070135
-0.58907664 0.24714634 -0.34235999
0.81231415 0.26172179 0.04232902
0.86055875 0.33416462 -0.75458908
0.91573054 1.16917777 -0.74474919
-0.44370240 1.46083927 -0.24018092
-0.26467052 0.09875488 0.73681611
-0.47257721 -0.46956521 0.56720966
0.83246601 0.37796846 0.24901594
-0.01143258 1.49452281 0.35643604
0.54500538 1.22111154 -0.00543220
0.99484032 1.05583906 -0.25243202
1.00960839 0.92326820 -0.10978293
0.49205756 0.98495018 0.37230548
-0.99520940 0.44037792 -0.26722050
-1.00746989 1.12225997 -0.58499551
0.07566553 -0.00460780 -0.32828465
-0.22554561 0.62095332 0.74973422
-1.00733232 1.00371957 0.12417313
0.23134308 -0.01048464 0.59998703
0.39716554 0.01690978 0.26286200
0.39920127 0.52659363 -0.77738667
-0.87092870 1.25235069 -0.16060223
-0.44779199 1.29440999 0.75791204
0.57955515 0.82471037 0.24684823
0.21471559 -0.54637694 0.28533098
-0.76078522 1.41030085 -0.04355661
0.26989025 0.11215919 0.53929132
0.05528384 0.23056981 -0.54903746
0.81330556 1.25056255 -0.73665535
-0.63300651 -0.15871584 0.72987002
-0.74054116 0.19187844 -0.14551899
0.22688712 -0.17024499 0.63977706
0.22388580 -0.43726695 0.40002975
-0.25945643 0.13737577 -0.51684552
-0.71775556 1.25713634 -0.72134674
-0.48209020 1.26699746 -0.36547491
0.10042412 0.15061045 -0.49805978
0.63104987 1.27848029 -0.60950959
0.80747163 1.18823624 0.24055709
0.00572480 0.18426290 0.75825912
-0.75101078 0.30576497 0.31467497
0.99289632 0.27412418 -0.50155652
-0.87990004 0.24427232 -0.06010902
0.17165910 1.52083981 0.69028383
0.27427551 0.64814633 -0.75136364
0.19594371 0.00889364 0.72320294
-0.77414370 0.61322838 0.61603427
0.08317643 1.32941794 0.75937951
1.00960588 0.56880111 0.25462601
-0.04450925 -0.50113058 0.00575079
-0.58488053 0.17873505 0.76757288
0.89328229 0.41312498 -0.75397074
0.98155147 0.25633126 -0.00022564
-1.01910233 1.17129517 -0.60729831
0.17652769 -0.51366687 0.72088122
0.48352194 0.11099210 -0.19848411
-0.37433758 -0.45585603 0.74596786
0.03153985 0.93163204 -0.75325072
-0.06450640 1.49465215 0.50858134
-0.38179338 -0.13675773 0.74302799
-0.99649936 0.58293188 0.25416872
0.48114336 0.01251462 -0.02818139
-0.75159848 1.27012777 -0.43666598
0.90399259 0.61290395 0.25147939
0.94639301 0.23162988 0.02778363
-0.76559842 -0.37379903 -0.19101655
-0.48936367 -0.48773843 0.23370527
-0.34789416 -0.01009184 -0.46592113
-0.75866300 -0.22336996 0.27787048
0.16026562 -0.51664209 0.42548075
0.41025072 1.23258173 -0.73721343
0.33364964 0.09283376 -0.49161813
0.70296812 0.57805908 -0.77094615
-0.75262326 -0.02465260 0.74814689
-0.73985285 -0.47363430 -0.27196291
-0.83029234 1.11598778 0.24814215
-0.00185658 -0.05224091 0.73864919
-0.34128284 0.72685039 -0.74292403
-0.75427908 -0.08647490 -0.16182460
-0.93552923 0.23922738 -0.60348135
0.09723257 -0.48118812 0.60834128
-1.02453578 1.26614881 0.26758081
-0.25885552 1.51847589 0.12554356
-0.54476893 -0.49614114 0.42425266
0.85646009 0.27758330 0.24915192
-0.25451124 0.73160958 0.73956060
1.03167963 1.01968646 -0.40804216
0.24439384 0.27945840 0.72496873
-0.43867841 1.23861766 -0.57557368
0.50477785 1.26142550 0.08282055
-0.75469160 -0.29066175 0.19472487
0.22697146 -0.43530118 -0.01357534
0.79020059 0.52890384 0.24048015
0.62921721 1.23165560 -0.19807544
-0.06427032 1.48252678 -0.14568956
0.37889886 0.09042850 0.52175212
-0.27749157 1.49941742 0.60320807
0.24473873 1.17271852 0.27618858
0.22581409 -0.48823190 0.10001800
-0.76102638 0.08718857 0.70442045
-0.68711352 1.49956965 0.58736622
0.93677640 0.24416181 -0.10511300
-0.75527334 1.34086061 -0.18213832
0.83986479 1.26690316 -0.29787758
-0.41036755 -0.46318841 0.44698101
-0.86692941 0.24901640 -0.05446915
0.85975659 0.25971633 -0.72800714
0.22974004 0.36992902 0.52923554
0.92467976 1.22457826 0.13269138
0.07151484 0.02366388 -0.26826692
0.21828045 0.41149089 0.63097811
0.98929054 1.04287159 -0.65926045
-0.28107601 0.78944767 -0.76729631
1.02094364 0.81313503 0.17956939
-0.77401334 -0.19103843 0.51399159
-0.08921754 1.33546805 -0.26752540
-0.63660669 0.50586009 -0.75450826
0.53083646 0.54491937 0.25903156
-0.26115167 1.48734856 0.66732258
0.01172184 -0.37697726 -0.27007660
0.99528420 0.52450025 0.04934509
-0.37781876 1.26773059 -0.55726939
0.71607178 1.24471712 -0.25758713
0.22682913 1.37561822 0.02658437
-0.75236064 0.33661151 0.70551735
-1.01356363 0.68299460 0.25199366
0.51586854 0.99965137 0.25401708
0.55535036 0.67372894 0.25707686
0.98947316 0.68757671 -0.73081541
0.81056964 1.17800963 -0.77951276
0.23038422 0.01848027 -0.44253826
0.63944709 0.25609997 0.17899162
1.01154029 0.45866352 0.19725955
-0.74189961 1.39324689 0.20691544
-0.32555613 1.05407941 0.75012451
-0.72769654 1.26768577 -0.24291883
-0.99233061 1.18751943 -0.24468251
-0.06135127 1.25710833 -0.45401940
-0.74830115 0.17497072 0.03173153
-0.99685001 0.77234864 -0.31262949
-0.26201755 1.51525927 0.52765918
-0.83745146 0.60035872 0.24516833
-0.76299804 0.80195165 0.72865093
0.52918977 0.85838521 0.31992564
-0.76217806 0.26851171 -0.18844110
0.25583899 0.89553845 0.60671723
-0.76586020 -0.15244061 0.14267105
-0.57665163 -0.26790619 -0.25178337
-0.31208506 0.01913345 -0.46753216
-0.73365247 1.36902571 0.02056256
0.21947563 1.51655304 -0.05230352
0.52909160 0.61106253 -0.75651515
-1.01394284 0.93638694 0.13496457
0.25094840 1.22977352 0.59767908
-0.62475127 -0.16391611 0.75020188
-1.00347328 0.29212505 -0.34729543
0.22285172 -0.47782707 -0.14134693
-0.43011546 -0.53237629 0.33214298
-0.91384965 1.23489141 0.11568499
0.39171386 0.81423879 -0.75097036
0.58426303 1.23212862 0.10181156
0.17701782 1.11810434 0.76159847
0.34696937 1.24588752 -0.23587869
-0.61421198 1.42903173 -0.24192980
0.81121039 0.26523912 -0.75058138
-0.55034220 -0.48738140 0.36449680
-0.77406186 1.26767373 -0.67106396
-0.73915982 1.43003440 0.00455720
-0.00080631 0.53311473 -0.72676057
-0.37077674 0.67286104 0.73544306
-1.00707901 0.49989447 -0.03307500
0.96152109 0.23203987 -0.17211366
0.01610855 0.87683225 0.76037741
-0.99334341 0.81576663 -0.03952724
-0.94617856 0.40151736 -0.73809654
-0.09193415 1.40140605 -0.25569811
-1.00590479 0.38300771 -0.35152555
0.25288239 0.78775913 -0.74347001
0.56096202 0.54765326 -0.74339932
0.43133321 0.76448250 -0.76777977
-0.92330498 0.87766790 -0.73029810
-0.98878622 0.72561103 0.00944300
0.51512617 0.20531005 0.22587422
-0.05042848 1.48274302 0.27182764
0.25738400 -0.05333573 0.17710944
-0.74023181 1.01789331 0.29117092
0.50932574 0.18577641 -0.27375337
0.39217174 0.02974579 -0.49235073
-0.02332954 0.34520563 -0.76002216
-0.63921481 1.22403693 -0.76718968
0.35943145 1.25430870 -0.00667823
-0.08652564 0.23900306 -0.68151772
-0.98678756 0.89139354 -0.29241073
-0.71957952 0.87190109 0.76806515
-0.52894765 0.23235616 -0.25326335
0.33191520 1.25561118 0.11499492
0.65419805 1.27333283 0.02491786
-1.00891078 0.66537076 -0.01985002
0.51949406 1.24366760 -0.64782858
0.64809924 0.27916127 -0.06328863
0.98275083 0.60224509 -0.07522199
1.01929379 0.42118219 0.14607482
-1.02953482 0.41138363 0.05332558
-0.64071375 1.50108099 0.49151221
0.30300328 1.23647666 -0.34508592
0.48083079 0.10799643 -0.52956939
-0.22647561 1.23178744 -0.34836352
-0.89950025 1.25957370 0.21228531
0.23789345 0.98398697 0.51874703
-0.37548754 0.83491391 -0.72785115
-0.99301034 0.35724708 -0.56360579
-0.26192477 1.50346005 -0.08336523
0.76112735 0.30221227 0.24259378
0.28175446 -0.37038320 0.35553831
0.00796355 1.50677109 -0.13971561
-0.32699147 0.22631228 -0.49461058
-0.74706340 1.24440014 0.72987503
0.06134376 -0.48762792 0.60646564
-0.98435891 1.24654150 -0.45306742
0.24386059 -0.21522534 0.26623103
0.22684136 -0.34779668 -0.07204077
0.27573207 -0.21388996 0.09121386
-0.76799101 1.42518938 0.58657330
0.12416296 0.08960846 0.74617916
-0.66394186 1.28321338 -0.64093995
0.92018706 0.28140843 -0.24466717
0.54825610 0.76594460 0.25177389
0.97388077 0.84592855 -0.12923180
-0.04525695 -0.51068509 -0.16902113
-0.07616580 0.58024549 0.75764406
0.60879630 0.27949658 -0.65653557
1.01041079 0.73158258 0.08564943
0.25691938 -0.16379732 0.66650677
-1.00054109 0.41148952 -0.25458917
0.31553748 0.10848913 0.50491744
-0.57127219 1.39245582 0.73638958
0.98921776 0.75198591 -0.64220744
-0.10843410 0.98983443 -0.72981536
0.97130954 1.26115429 0.01348484
-0.52017295 -0.51507020 0.13659470
-0.05622078 1.49221683 -0.24088533
-0.55317950 1.48496604 0.17712352
-0.17944692 0.27721414 -0.52061248
0.57369047 0.25174055 -0.25817513
-0.75874382 0.18982363 0.10728017
-0.77602428 0.87410629 0.44256350
0.02779411 -0.10946423 -0.25756711
0.38546667 0.65706533 -0.75032502
-0.74034166 1.25099874 -0.27016547
-1.00556481 0.25459811 -0.05995947
-0.73692185 0.01080021 0.41309738
-0.69701976 1.50888824 0.63584715
-0.75889945 0.04622594 -0.21733446
0.98072416 0.38923296 -0.49393472
0.23638064 -0.19453233 0.52099359
0.41853455 1.02165604 0.43301591
-0.43504962 1.50257659 0.18470848
-0.76661909 0.05222112 0.31294563
1.00366390 0.83807254 0.17638618
-0.81607097 0.25635844 0.01082489
0.08957750 1.48013210 0.39186132
-0.74710864 1.45359647 0.56891143
0.23782840 -0.22370178 0.02788602
0.25654820 -0.46672028 -0.11053032
0.79607821 1.09538913 0.26127544
0.26954776 1.14631712 0.33060303
0.38746017 1.24740458 -0.52567977
0.76528770 1.25256109 -0.52077448
-0.37175736 0.71716821 -0.70620126
-0.71365047 -0.22566348 -0.25019845
0.25645724 1.42819953 0.55726260
0.99768347 1.22108519 -0.28130275
0.92028767 0.35043332 0.24487095
-0.98552400 0.47840372 -0.58834088
-0.52915901 -0.44802058 -0.24463981
0.44397151 1.19194937 -0.73899096
-0.99365705 0.95771253 0.26137602
-0.77414119 0.21720007 0.46785808
0.26767209 -0.23170727 0.51708764
-0.45589259 0.03917485 0.74785382
-0.42125019 1.47490048 0.65552688
0.44344565 0.42315617 0.51361579
-0.24812534 1.32715118 0.75364459
-0.01400986 0.87265015 -0.75256270
0.46364045 0.24700141 -0.65541220
-0.75906372 -0.04728150 0.09315711
-0.44759569 0.94797480 -0.73277897
0.99252093 0.71874011 -0.11401160
-0.02644650 1.50968242 0.11651111
-0.97755092 1.21674538 0.22623219
-0.23413105 1.23348033 -0.57776999
-0.28121823 1.25702405 -0.40931159
0.51177132 0.45981467 0.23683016
0.70296681 1.24621820 -0.11255395
-0.23374404 -0.48503572 0.74629885
-0.38874090 0.94163007 -0.72881830
-0.06574085 -0.35356951 0.75781119
-0.08844148 0.14067185 -0.48314086
-0.74603331 -0.02272445 0.41501915
-0.63749218 -0.49925113 0.24330348
0.50285327 0.08034506 0.45062396
0.05671097 1.23491049 -0.39306918
-0.57116532 0.26335266 0.71808141
-0.76778889 -0.43387187 0.13101445
0.48587084 0.51452672 0.51898122
0.97920132 0.61049026 0.26715460
0.23643406 1.34749222 0.13552639
-0.03051092 1.24695015 0.76103431
0.43849504 1.15946865 -0.75768358
0.31865039 1.26887047 0.18253326
-0.76752335 0.50695622 0.28877121
0.52606779 0.49068823 0.24228911
-0.29408029 1.47889757 0.64598483
0.51650763 0.25554734 -0.44935864
0.97450000 0.82108325 0.23118152
0.24716368 1.28253627 0.38498679
0.88251644 0.25148252 -0.15679695
0.99346018 0.59227359 -0.38136294
0.41307148 1.23259139 -0.72018188
-0.02562934 1.25185466 -0.44535461
0.78573740 1.26287150 -0.32929626
-0.12046095 1.48124695 0.14466847
0.24205582 0.89740312 0.73306656
1.00501955 0.39658147 0.00234220
0.50754470 0.12636384 0.07984179
-0.50055385 0.08795640 -0.50950629
-0.56926912 -0.49242955 -0.21943960
0.03055081 0.26328135 -0.73987436
-0.75004447 0.19882143 0.29765159
0.98416764 0.48226112 -0.46902642
0.25094619 -0.12958664 -0.17457937
0.25580016 0.03983608 0.51121241
0.78521925 1.12271094 0.23407905
-0.74918348 -0.18416935 -0.06420507
-0.73560524 -0.26911020 0.65901530
0.70277494 0.25336564 -0.00967133
-0.69628900 0.92712760 -0.74833161
-0.61138994 1.50306392 0.07324123
0.53017205 0.94154572 0.24413542
0.54889965 0.84021389 -0.73966146
-0.56701201 1.26246023 -0.29713601
-0.82235062 1.26727128 -0.48344436
-0.98041403 0.86256969 0.25102609
-0.28634822 0.99196315 0.75688511
-1.00577128 0.49566934 -0.55660558
0.03125301 0.57433558 0.74161774
0.27302358 0.45767877 -0.75297093
0.07274491 -0.48684901 0.62540710
-0.73636824 1.45180905 -0.01886162
-0.50670308 0.23323199 -0.51390094
-0.76954770 1.24246192 0.04101330
-0.51987886 -0.51677370 0.09094357
-0.77451038 0.09165919 0.73344523
0.68371326 0.38797954 0.25581169
0.27501875 0.30136400 0.61183709
-0.09197704 0.31719273 0.73262990
1.01662230 0.44628426 0.08351643
-0.45997435 0.85254449 0.74652010
-0.73823386 1.09536862 0.35279202
0.27009982 0.81851339 0.56778336
0.24487092 -0.04853183 0.22245426
-0.71857929 1.48289037 -0.02784338
-0.40369800 0.93633854 0.73570114
0.08624125 1.47928095 -0.13495898
-1.01966882 0.74476677 -0.35325056
0.25196770 -0.31466711 0.31456336
-0.75521410 -0.00147063 0.24245343
0.25175074 0.78868806 0.65311253
-0.27980876 -0.29086804 -0.25138134
-0.76274723 0.17919680 0.56953424
-0.75929302 0.89390683 0.31467307
-0.70934349 1.37063575 0.62556422
-0.03479594 0.65432310 0.73693407
-0.70305014 -0.50110137 -0.23585550
0.03203846 0.69197738 0.75393730
1.00878990 1.08694410 -0.75914836
-0.35452524 0.12346223 -0.49813941
-0.69428009 -0.44669276 0.76069468
0.08531567 -0.22157544 0.73579299
0.22234499 -0.40532041 0.04451351
0.89010531 1.25799346 -0.44529435
0.60115862 0.70904255 0.26431897
-0.08685078 0.90180981 0.74747193
-0.37500033 0.65741813 0.74285644
-0.56049347 -0.52036130 0.05628910
-0.41604209 0.95976460 0.74745959
0.64047384 0.25591987 0.22131090
-0.83181494 0.36996236 0.24707793
-0.16769694 0.50708377 -0.73965442
-0.40750498 -0.48768252 -0.24894421
0.99641359 1.14829624 -0.34918469
-0.10700608 -0.01496446 0.75174916
0.48023474 0.16729113 -0.48105076
-0.15586008 -0.37186033 0.73766947
-0.04671240 1.21082592 0.74065953
-0.58913237 -0.51425397 0.73851514
-0.59201622 1.13778532 0.75402170
0.97835755 0.61652678 -0.30296412
-0.82067358 1.22534752 -0.32891190
-0.57783705 -0.50546944 0.31765547
0.17929628 1.47077739 0.20869672
-0.99107397 0.25516358 0.15475436
0.96108478 0.69745529 0.25480905
-0.25073937 -0.47443128 0.21233915
-0.58803660 1.23915195 -0.58317971
0.97987539 0.49079797 0.24657682
-1.03174877 0.44403368 -0.38025174
-0.10247552 1.23162663 -0.30091754
-0.68041044 0.22120896 -0.39888483
-1.00699830 1.10995722 -0.44923544
1.00310612 0.99719089 0.13997652
0.39872554 1.24813652 -0.64304823
-1.04001737 0.73414326 -0.53310496
0.68476731 0.79449797 -0.71911287
-0.07806253 1.52581120 -0.10723893
0.99117643 0.33607891 -0.38023618
-0.44838461 1.47117937 -0.25365695
-0.11665928 1.50003600 0.47807485
-0.04137001 0.85226655 -0.73457170
-0.01218866 0.43845934 -0.71232533
0.71405458 1.04089344 -0.75343800
0.22419371 1.52116716 -0.20317954
-0.98541504 1.05485010 -0.39099532
-0.77705753 -0.45023692 -0.04217192
0.60784507 0.24666491 -0.25036931
-0.26608801 1.49110270 0.63989222
0.25961566 -0.16957462 0.63771915
-0.28623208 -0.15266669 0.72734815
-0.46090969 0.69562024 -0.79520100
0.73288077 0.26000249 0.11282901
-0.25939506 1.23870039 -0.33363909
0.60405713 1.24093127 -0.15691736
-0.00805091 1.22634506 -0.53498423
0.98125529 0.69543225 -0.65616220
-0.69081616 0.25925463 -0.43801203
-0.90613949 1.25818563 0.22803816
0.36507434 1.24746549 -0.68415356
1.00438571 0.54690093 -0.67152077
-0.27153850 1.06200457 0.75657469
-0.96949166 0.24334648 -0.51222557
0.55407196 1.22669911 -0.23810962
-0.07375678 1.22825944 -0.27281195
-0.51327002 -0.21679419 -0.27173880
-0.50882775 1.24017167 -0.73370457
-0.12055727 0.80914485 -0.72572118
0.03102329 1.25566638 -0.32573149
-0.07807676 -0.51223743 0.69396061
0.17566727 -0.16557366 -0.23982410
-0.88818318 0.21475321 -0.47816616
-0.69060552 -0.48898101 0.75378472
-0.05659990 0.57955086 0.76245576
-1.01197875 0.23978958 -0.49961770
0.24386188 -0.07667929 -0.10404541
-0.76253957 -0.33150482 -0.06494731
0.58091623 0.44303006 0.26643363
0.16309993 0.63662761 -0.75183791
0.23161910 -0.27755457 0.07958847
-0.74265969 1.15455961 0.73023558
0.50863349 0.93007612 0.50108773
-1.00555611 0.91758794 0.19612980
-0.81169063 0.24422243 -0.18995960
0.12524433 1.48709297 0.23197336
-0.50285077 1.27738309 -0.38969311
-0.21870796 -0.48652339 -0.06921236
-0.47933337 0.16588852 -0.49911401
-0.96062130 1.23625398 0.24961269
-0.33652791 -0.18436992 0.75454015
-0.45651141 -0.10357553 0.74719745
0.57919812 0.55003226 -0.75535005
0.99301142 0.63527858 0.08525319
0.23303530 0.94750965 0.69292665
-0.22215249 0.85520965 0.73821008
-0.67786425 1.51964736 0.16307707
0.67974132 1.02570629 -0.77602500
-0.75401694 -0.32544267 0.23942533
-0.42134181 1.39132476 0.75746828
0.25095072 -0.02437180 -0.02281329
0.24776264 -0.03469187 0.32288408
-0.39515647 0.98930871 -0.77112740
1.02329767 0.89392334 -0.11181509
0.00088017 -0.08980221 -0.25408569
-0.05504211 1.40396738 0.74526483
-0.00642976 1.48288691 0.61000139
0.55608994 1.07336664 0.26484194
-0.36809424 1.50791931 0.30545565
0.60739410 0.33330411 -0.74394089
0.47359759 0.81362092 -0.75054246
0.30435467 0.98000789 -0.73952174
0.36478442 0.55197537 0.50037825
0.84787309 0.28463411 0.24781404
-1.00329411 0.93727744 -0.39824268
0.14471652 0.66586691 -0.75275832
-0.66179770 0.08385181 0.74627501
-0.74050295 -0.21365905 0.73579037
-0.97844374 0.24279049 -0.45497650
-0.14726757 -0.52755260 0.71194977
1.01211679 1.12854421 -0.16599101
-0.99645907 0.96994942 0.26673421
0.25560576 1.23943639 -0.23939559
0.46333671 1.10202050 0.25227073
0.74323338 0.25051108 -0.73033816
0.98846412 1.24336457 -0.63093561
-1.00875688 0.93984812 0.25147548
0.63450390 1.22777426 -0.59920740
-0.75020087 0.18943870 0.73934740
0.25525123 1.21934652 -0.69589669
0.37086588 0.30047429 0.47911346
0.11921090 1.29506087 -0.23758303
-0.95761192 1.24510539 -0.19951101
-0.70786804 -0.47527164 0.71918792
-0.70959151 1.50891757 -0.03706064
0.54629469 0.96687967 -0.75189215
0.81807011 0.97310066 -0.76188076
0.24444808 1.39595318 0.23679736
0.51620919 0.02101180 -0.20571636
0.15693955 1.49136925 0.42894173
-0.91302961 1.24807572 0.15417676
-0.06948777 0.23770446 -0.67774028
-0.26013747 -0.27057415 -0.22908741
0.00899011 0.36555302 -0.75077206
-0.85345477 1.24758601 -0.06571317
0.13054545 0.04996338 -0.51711720
0.12217493 1.52477074 -0.18132071
-0.73375100 0.77758425 0.70714891
0.27639884 1.04584885 0.34761316
0.22986166 1.37702847 0.68616652
0.48764822 1.23894548 0.22574151
-0.36596557 1.48394752 0.62627810
-0.18571497 1.49101472 0.15746504
0.24095200 0.03506398 0.68735266
-0.82924557 0.22554007 -0.46596593
-0.22625040 0.25411981 -0.71844196
-0.81861246 1.11390328 -0.78731793
-0.61364931 1.22830629 -0.56406444
-0.22069073 1.49999785 0.14378552
0.76834530 0.69587487 0.25276425
-0.44925728 1.49265504 0.66385114
-0.20811717 1.28811264 -0.21421297
0.97519153 0.88052690 -0.31829533
-0.61539090 -0.29398280 0.74750459
-0.75728196 0.99633306 0.46658301
0.83732295 0.22693083 0.16986188
0.50294828 0.37752554 0.45688367
-0.74101067 0.14367983 0.70782286
-0.29599860 0.44583675 0.75064373
-0.76156235 1.27898431 0.11103173
0.76933450 0.51914710 -0.75019169
0.70336676 0.99141210 -0.75719726
-0.27057800 1.48226953 -0.15583454
-0.85688573 0.46055359 0.24891269
-0.71536118 1.24377537 -0.64239067
-0.46720967 -0.03216010 -0.26511335
-0.59322262 0.24075860 -0.46579361
0.17530966 1.22287726 0.75428516
-0.76231897 1.22073948 -0.58793819
0.22993106 1.48917222 0.65670407
0.65427768 1.12365532 0.24436767
-0.00188848 1.49099970 -0.07465435
0.24245179 -0.19909757 0.39100823
-0.09322007 -0.48931366 0.48075667
-0.73532605 1.26578212 -0.24083504
0.02352038 1.25131178 -0.29590505
0.25304526 -0.07651824 0.40229934
-0.79618281 0.60782075 -0.71950352
-0.23089390 0.58268130 0.73865920
-0.17345296 1.47558975 -0.24518761
-0.72154367 1.27204931 0.66335601
0.48981670 0.64622331 -0.76536554
-0.30257323 0.00824091 -0.38354287
0.70423836 1.20295656 -0.75000930
0.26353008 1.41007662 0.33785686
-0.84428799 0.26668018 0.20236079
-0.74146962 0.27272126 0.40343791
-0.89813030 0.40083131 -0.75387293
-0.74139994 1.25137496 0.35590073
0.26259574 1.22180676 0.65587318
0.69786757 0.24149734 -0.13501167
-0.37502372 0.07151619 0.76631635
0.47509974 0.06316662 0.11278164
-0.46597278 1.48888946 0.57245338
0.24136274 0.40504199 0.58986759
-0.55442387 1.50585854 0.31837609
-0.95530462 0.49510929 -0.06994226
0.13680553 -0.00188822 -0.23225532
-0.75846088 0.27116579 0.32063654
1.01684105 1.00381243 0.12147127
0.73994303 0.69298619 0.26338917
-0.98770350 0.67799699 -0.74171817
0.97283435 0.95254207 0.24783719
-0.73914230 1.34400558 0.57229537
-0.73534662 1.44577503 -0.16901936
-0.75087750 -0.34954411 0.00938890
-0.55264920 0.13850901 -0.23839855
0.99428809 1.10043585 -0.69855255
0.26881012 1.11390936 0.23524295
0.24557258 0.18168920 0.68573767
-0.19240116 0.53738332 0.75017840
0.50802475 0.07600683 0.33893543
0.38133296 0.98917139 0.49698529
0.02517799 0.48838657 -0.74643296
0.25627589 -0.20526034 0.16970654
-1.02331579 0.30727124 -0.56613761
-0.31403080 -0.51968825 -0.00384546
0.26004577 -0.48994464 -0.15333731
0.50227338 0.69042039 0.38245279
-0.00238335 1.50342166 0.21341269
0.48193604 0.88791656 0.52230722
0.25293079 -0.01621574 0.75790852
-0.10044128 -0.00396878 -0.30533317
-0.22109647 -0.02216911 -0.25012293
-0.04120822 0.59255773 0.74024999
-0.18952005 1.48578238 0.53924251
-0.71603853 0.25784469 -0.39035216
-0.42961448 1.28383934 -0.35101390
-0.73246658 0.75413573 0.77163649
0.98177779 0.82469821 -0.04090465
-0.75498730 1.12410390 0.25957248
0.04912905 0.00018424 -0.44409284
0.12519415 1.23911226 -0.32849142
-0.74338371 1.49192119 0.60716337
-0.96226299 0.57787496 0.27483976
-0.76633406 1.52290571 -0.00156077
0.15860708 -0.49263048 -0.25865328
-0.41433421 1.25247574 -0.25003222
0.51765293 0.25276783 -0.00811742
-0.77607894 0.78898144 0.27007061
-0.33026034 0.04525900 -0.47959673
-0.77231836 1.31188178 0.23091313
0.26323026 0.64269698 0.48666131
-0.19886014 1.50865400 0.48655507
-0.81317633 0.98625678 -0.73501182
-0.53306848 0.59394360 0.74559152
-0.72189128 1.26975489 0.78253126
0.03683338 1.33888650 0.74391478
1.00513875 0.42580152 -0.67050636
0.21486130 1.48136568 0.69613200
-0.09705220 1.50358975 0.11108662
0.89730507 1.10205376 -0.75590432
-0.19143313 0.68241763 -0.74667132
-0.41788688 1.48530149 0.46302781
0.52271700 0.46038249 -0.76446009
-0.75675112 1.33131766 0.29426405
-0.35890982 -0.51435637 0.71640587
-0.20730890 1.49409592 0.54487091
-0.29412627 0.12479699 -0.51161563
0.72687072 0.87150639 0.27525073
-1.03420603 0.76134104 -0.09425907
-0.30076963 0.70543855 0.77102387
-0.49352434 0.16941559 0.75300682
0.28780046 0.74002814 0.49391323
0.53084397 0.83445549 -0.76149839
-0.91670430 0.32362819 -0.74245954
0.44641072 0.00192043 0.32466343
-0.77429849 0.78411019 0.29434705
0.95683473 1.19618821 0.24392304
-0.95605993 1.25687253 -0.42942777
0.25317529 -0.10965842 0.41247386
0.24105443 1.48069811 0.03231776
0.23896071 -0.42466676 0.25274611
0.69111842 0.54753309 -0.76337683
-0.75856352 -0.54716349 0.29461753
0.10276106 1.12252963 -0.72685266
0.61168343 0.25734761 -0.54666889
-0.22845738 1.02510333 0.75820792
-0.73664063 -0.22223467 0.65960699
-0.08081609 -0.48611015 -0.06215770
-0.41347069 -0.00308651 -0.41948858
0.60770643 0.23951188 -0.68098098
0.53418934 0.77773756 -0.73973405
-0.56226993 -0.16539782 0.72009915
0.36696336 0.07183614 -0.48116264
-0.73248804 0.53860444 0.28760701
0.98027122 1.17944765 0.01995512
0.98905838 0.64845759 -0.10927936
-0.76235664 -0.41080803 0.19041918
0.24444228 1.42109096 0.05419881
0.99108672 0.56969333 -0.66148466
-0.20620255 0.53576368 0.75441730
-0.48938698 1.48402226 0.15234132
-0.75006723 -0.34998673 0.68152547
0.99367547 0.58199054 -0.61939132
1.00909448 0.33909404 -0.58312708
-0.59919316 -0.48294091 0.44388223
0.89316499 1.04741609 -0.73616797
-0.17246513 1.49359143 0.60945189
0.16550705 -0.00098437 -0.39030638
-1.00463295 0.94148850 -0.23929191
-1.00494051 1.06944203 -0.67992079
0.47358313 -0.02133781 -0.25002426
-0.20651811 1.21103644 -0.72976536
-0.11027531 0.39557788 0.73934776
-0.75747657 0.13715726 0.34300983
-0.99367404 0.74919480 -0.59187794
-0.76162064 1.34670246 -0.08767669
-0.72120255 1.24205744 -0.28362876
1.02055061 0.60523552 -0.37758669
0.91269732 0.29559049 -0.74263567
-0.29811665 -0.46346241 0.33081710
0.98620707 0.68078649 -0.50565964
-0.11479156 0.00608122 -0.46100384
-0.29297826 0.61705709 0.76127386
-0.80187166 1.24485087 0.21070805
0.50246972 0.19082537 -0.32957980
-0.86946374 0.23978701 -0.30779830
-0.31962448 1.49858284 0.73102111
-0.75384825 1.45820665 -0.10204289
-0.09647581 -0.05805296 -0.25336960
-0.51774114 0.57185060 -0.74699688
-0.33435389 -0.54112005 -0.07064857
-0.84279382 0.23823652 0.08096957
0.70434779 0.82019281 0.23902930
-0.88479763 1.24909139 -0.75575012
-0.99933261 1.23460841 -0.48111564
0.24987258 1.29114509 0.06351954
-0.72673845 -0.40863836 0.59559762
0.97723323 0.49069789 0.01360682
0.77677345 0.49765369 0.26429194
-0.74564636 0.06055674 -0.25188252
-0.18479624 -0.36841750 -0.23454028
-0.08883488 -0.01400459 -0.25865656
-0.65734053 -0.08721709 0.75229698
0.97729254 0.48613024 0.22607560
0.45081216 -0.00443172 -0.07384403
-0.98875731 0.30388361 -0.69798738
0.00866679 -0.32875270 -0.24025895
0.21573386 1.29279613 0.78193432
0.18586236 0.01545715 -0.35548723
-0.61638409 1.26135635 -0.47232336
-1.00850165 1.06652617 -0.53039539
0.43011603 1.23156285 0.28022295
0.26813316 -0.30125177 0.72365820
-0.28660443 1.20208728 -0.74206513
0.55497885 0.25602907 -0.29108235
0.88418490 0.25108337 -0.48751938
-1.00495160 0.76557893 -0.71740520
0.12760226 1.25780559 -0.32726380
0.69191432 0.25415576 0.16801323
-0.74622577 0.00408170 -0.27385369
0.79746789 0.22685087 -0.10295837
0.21946289 -0.19441175 -0.26477927
-0.69528133 -0.12688804 0.76037127
-0.75481403 -0.46901524 0.65241241
0.25855488 0.61254209 0.65884638
-0.29197550 -0.50510025 0.11243634
-0.28987038 -0.45707482 -0.24908611
0.39722267 1.27029872 -0.68563217
-0.11421054 0.71337855 -0.75551152
0.85756153 1.24606550 -0.29221290
0.91102242 0.25984129 -0.39359111
1.01410222 1.08179021 -0.41557664
-0.28820577 1.25662565 -0.25494751
-0.32351109 1.51164031 0.39612669
-0.06874013 1.50482714 0.31254697
