-4.96032190 74.20215607 5.41449070
0.19239017 69.36913300 -6.41350651
-1.11609495 74.15000916 -6.25383329
-8.22725201 78.44121552 -5.80590725
-6.45169306 70.60475159 1.01949906
7.22922754 77.30911255 0.63708723
-4.01490402 66.43501282 2.77874732
-7.62145615 78.39433289 3.36668301
7.15991259 80.35083771 9.39562035
-1.13734329 64.05432129 4.17861032
4.67490196 77.93169403 -1.15966904
1.18675613 77.94950867 -3.86012220
-7.39797020 80.77720642 8.85819626
4.46872234 77.27453613 7.16116667
3.83703256 76.83843994 5.93055534
-1.06650829 80.51959991 5.90413809
0.81454605 80.39801788 1.59789395
2.99120474 75.86274719 -6.31103563
-4.43234539 64.31421661 1.74811113
-7.92379093 80.51963043 -8.35820103
6.45725346 75.54811096 -8.56754589
-6.91428804 76.95835114 -8.44906521
-1.32175505 80.62517548 -8.08159447
-5.95503187 73.53474426 5.03823805
4.48262072 67.22965240 4.68830395
4.38335371 75.82760620 5.13718462
-5.71746302 71.66742706 -3.12811947
-5.47880793 73.79615784 -7.85322666
4.44573879 70.39485168 -5.64503098
-4.67347908 80.47090149 -2.87539196
-6.20079088 69.49364471 -0.23922129
-3.75105500 65.23429108 3.38947129
-6.96375561 75.37544250 2.39221120
-4.04725313 80.57617950 2.00584078
-5.51879930 75.19166565 -1.84456003
-6.20730495 71.33164978 0.27624846
-4.57243109 74.32015991 5.48153162
9.20810604 79.43733978 7.99104548
0.15690857 70.34234619 -6.51027727
-8.89063931 80.58208466 -4.49031305
7.90596390 79.25313568 -1.90684724
7.51854753 76.10172272 -8.36437798
-6.63726854 68.96128082 0.36722001
-5.01263094 68.73301697 -4.04254436
-0.00827571 66.30027771 -4.81113195
3.51180840 72.66081238 5.62241268
6.07375908 79.44561005 9.20309544
7.61972523 78.26696014 -1.05936337
-6.73011017 75.90891266 -0.67100734
7.06992817 79.21959686 9.11105919
1.53464448 64.07133484 2.66997218
-6.34681368 70.15637207 -1.17787850
-5.84685183 73.30637360 2.80046606
-2.55180883 77.77191162 0.96721762
4.99962616 67.72026825 3.69943357
3.00909042 80.39982605 6.79949856
-6.64148951 70.38726044 0.39020404
1.70226443 69.72428894 -6.11036110
6.61650705 74.41307831 -4.21490288
4.74579811 69.60404968 -5.43304157
-4.33225107 69.06974792 4.52576971
6.57122564 73.81954193 3.49269176
-5.68159103 70.67080688 4.23024130
-3.34580278 80.62709045 -5.54702902
-0.84945345 79.24573517 8.20648766
0.21118031 78.39542389 -7.91008186
-4.89526510 77.80288696 -5.00060797
-1.78646994 77.37979126 -7.12686300
0.95115066 71.04135132 6.38261223
6.35683441 77.73667908 6.73402452
8.93423557 80.85991669 6.19920254
-3.47830486 77.85961914 7.00761461
-4.79811144 72.60617065 4.29450130
3.53034759 73.98532104 6.39970303
4.69235563 73.59447479 -5.59942389
1.64541578 64.16994476 -0.64752871
1.13498461 80.60721588 -4.77458811
-3.20706487 64.21524048 -1.70559931
-2.92862535 76.75088501 -6.38932753
8.18621159 79.00423431 5.60817575
7.21724319 77.54931641 -8.22030640
-5.83300924 69.12611389 -4.23986149
6.49372244 79.57553101 8.73497868
3.84047389 77.81807709 5.55350161
-3.35097003 68.12962341 -5.62812996
-7.22376299 78.38584900 2.18660402
1.67680895 71.63361359 6.15072918
-3.29807162 64.22804260 -1.19737589
9.33431244 80.13198853 8.41026306
-6.13902283 71.14861298 1.54216301
3.93726945 80.47776031 3.99320197
1.29258859 79.01893616 -7.95715380
-4.54861498 80.58791351 -3.54455566
-6.43716812 77.74309540 -1.73735046
5.73739910 75.42099762 3.11546659
-5.54348421 70.59871674 4.53264475
8.50834846 74.64429474 -6.62783623
3.94557691 75.44300842 -6.88844824
-5.03078747 80.57482147 2.89973235
1.46006429 80.66535950 1.97304034
-6.07042551 78.36692810 4.07231951
6.50556517 74.38247681 -0.94870424
0.16521558 78.84483337 7.48424673
-8.65615654 78.45665741 7.50507879
-7.08308220 72.81999969 1.89372289
-7.54195690 77.25119019 -7.59509087
-6.47039652 74.35447693 0.18713415
-7.15753984 74.90651703 -4.41256380
0.36245054 66.54747772 4.94922447
-7.22588587 74.14215851 -5.44723701
6.43253326 74.22146606 3.64899874
6.25889015 69.16053009 -1.55017102
8.75595188 77.71311951 -6.52684689
8.40251064 80.50729370 3.12834740
1.59214175 80.46796417 -7.89420748
4.53689337 69.07405090 -5.63022614
4.29085350 80.72566986 7.33798504
4.37242699 72.54013824 4.70735502
-4.12814474 71.20377350 -5.91771460
5.89412117 77.91336060 1.79600167
5.65902615 80.48863220 6.14400434
1.21077013 76.38417816 6.64746094
7.67925119 80.04609680 10.09257889
0.66558290 80.51042938 8.27693558
4.37464333 69.35414124 -5.38066959
-5.78575087 74.55590820 8.40337563
4.77607584 77.95651245 0.82035822
-4.75618267 77.52069855 0.82738787
-7.36412764 77.74687958 -4.79207325
-2.74378467 80.68735504 0.00526640
4.11226559 75.12907410 -5.03840113
-5.74283504 71.30777740 1.99994755
-8.07703876 75.97504425 -5.75704527
8.72520351 76.50247955 6.96137047
-6.17774296 75.74438477 -2.00542569
3.34967637 77.68591309 5.87223339
-5.78875446 70.37409973 3.45327973
-1.23955250 64.97459412 4.61648369
5.98108435 77.24997711 -8.26555443
-2.80280352 80.64530182 2.95684791
4.67155504 67.66557312 -5.43835258
-5.05407095 80.57373810 -1.93528831
-5.56635714 77.79150391 3.78237557
1.45283866 73.70827484 -5.78564596
-1.58762801 78.45819092 -7.35670376
-5.01448393 73.93077850 4.09045267
7.79042816 76.30014801 -5.66924429
5.57326841 80.52310944 -8.39208031
-5.76775455 77.49790192 -8.05143356
-3.33735228 77.91283417 6.75361252
-8.32565117 79.20597839 -7.89034462
-8.56255245 77.21017456 -7.16397142
-5.06934357 80.84664154 4.36167765
6.37358522 74.42589569 0.66952497
7.48579311 77.69702148 0.60626513
-5.20383692 79.55787659 8.71900368
5.82227135 80.71308899 1.58984804
-9.09518623 79.38909149 -6.06255531
-4.87616539 80.46398926 -5.48548985
4.69656181 77.94741821 4.51114655
-5.51285696 76.50650787 -3.25734568
3.78596258 69.93475342 -6.10648632
8.02429867 78.51985168 -0.91139370
6.72051811 75.28459930 -1.41134000
5.54409027 75.90126038 -7.65584421
-3.20552301 73.88043976 5.84498310
-7.11154079 75.24388885 -4.39599085
-6.67150116 75.76256561 0.37618661
-5.07866049 73.56084442 5.66665411
0.35755882 67.12478638 4.78674364
2.00959396 79.33519745 8.30444336
-2.40779233 75.44054413 6.26430416
5.56102848 74.51228333 -3.35822892
-6.16137075 77.84290314 6.40761328
4.83992052 77.93610382 4.98721457
-5.91954613 71.21964264 2.85118532
-8.71875858 78.07276154 7.70058060
5.85855389 71.76988220 2.93060780
6.83707047 75.46942902 1.28566480
-4.80914116 79.04422760 7.58326054
6.65310049 74.59010315 -3.96917224
-5.06734276 77.86865234 -3.05397105
8.09840202 80.75752258 3.16650820
5.26289558 68.55158234 4.31214237
-6.04810238 73.56557465 2.50910330
4.54764557 71.48107910 5.18915987
-5.57866096 77.93584442 -7.27556849
6.15797186 77.62760162 2.56249499
7.67244339 78.40718842 1.16141510
5.16598749 71.05492401 4.21277189
6.23383093 75.67010498 -2.49884510
-6.31754303 72.04796600 1.10343266
-5.73032618 72.25749207 1.15693247
6.05045938 73.29550934 -3.38914132
5.62736368 68.71757507 -4.28397131
-7.15535069 77.97920227 -4.69146967
0.26230732 73.82820892 6.65388155
7.34228754 75.64003754 4.61553812
-9.89720058 79.92554474 -7.71372604
-3.42513347 77.73349762 6.16640234
-1.67091966 75.17891693 6.40860367
-8.61589336 80.04540253 2.98762989
-8.11293125 78.61785126 0.41084781
4.08510399 80.49398804 7.68219948
5.37777710 79.01863861 8.17892933
-3.85266280 77.97720337 -5.39909840
2.02862930 69.24179077 -5.84958410
-5.88148880 67.98549652 -2.13734221
-3.50152063 80.86971283 -2.30422401
-2.18953347 77.89160156 -3.99481678
0.78259182 73.15396118 -6.49279261
-4.68757868 78.10562897 -5.49263191
4.74897242 69.55136108 -5.35596514
-3.12922668 80.71109009 -4.34070063
-5.30865955 69.61200714 -4.73829269
6.62691879 74.56211090 8.56560898
6.37972975 74.13500977 -3.79183197
2.69870734 67.93292999 -5.83375502
8.28409004 76.13487244 -5.96163940
8.36529732 79.63594818 -0.68873262
7.63371992 80.21346283 -0.08853250
4.44372654 73.13653564 5.25280333
-9.61642170 80.57723999 7.82708597
-4.31522369 78.57604980 -8.00518417
-1.53334785 73.31213379 5.66127729
-6.69287491 80.23076630 -9.64488411
6.40733147 71.71818542 -0.26877862
7.79301596 80.76168823 -0.93639547
-3.78578162 80.33801270 -6.20392847
2.25267172 77.84572601 -3.75109482
-7.13974380 77.85781860 -7.65741444
0.36454323 80.32901001 6.95509195
-5.99634743 80.57655334 6.02049017
4.89748764 80.69322968 1.48496962
2.54756784 79.59609985 8.47768116
-5.51582623 68.24772644 4.11302900
-5.79127932 76.34248352 1.84744167
-4.26341343 80.73701477 -0.53679836
-6.90114641 80.63121033 3.64442849
-5.30268431 77.17680359 -3.61140513
-6.83340359 74.06105042 7.28274345
-3.97628236 68.89384460 4.63705826
8.58685398 78.97902679 -0.43145213
7.01282263 74.39444733 8.62237835
-6.05776644 74.33615112 -4.86362934
6.01133633 77.77075195 -7.71749020
4.93578291 70.47647095 -3.68104219
1.23702347 72.81008148 -5.48656750
5.44313049 77.73864746 3.19665480
-0.91471630 80.66901398 -4.15912962
-0.54064351 80.74468231 6.63495111
-4.75034332 73.96033478 4.02632475
4.19587374 71.22295380 4.78399897
-6.10617685 77.39054108 3.88284445
1.67346978 80.22812653 1.97279310
-1.31743169 77.74404907 5.37866497
1.55233943 68.99661255 -6.65016222
4.86418104 77.74738312 6.87151766
4.23688841 68.25350952 -5.25998306
-5.66058540 74.89516449 1.65549767
5.15273237 71.46655273 -3.84393835
-3.24871206 74.06774139 -5.21350765
-0.68344206 77.91648102 3.92171693
-0.43601000 70.39407349 -6.71115208
8.07881069 74.24816895 5.99292231
3.60031486 65.51589203 -2.64039445
2.72863030 77.75539398 3.11032724
7.04071283 71.09886169 0.49947429
-3.84982514 65.07780457 3.09183669
6.04711437 75.96681213 -2.51403642
-7.63542175 80.55290222 8.27280235
5.96085548 75.80637360 8.08354568
1.44620883 76.27725220 6.55192709
7.14062738 73.99111938 -5.56387854
-4.08986282 73.88095856 5.62781382
5.12063074 77.09014893 2.95803618
6.09050608 73.96433258 -3.95105624
8.01014996 80.76372528 2.43872762
3.32408834 64.01055145 -2.19012356
-5.55204868 80.57677460 5.26604509
-0.31864744 72.59677124 -6.51352978
9.43079376 79.46112823 -6.44328070
-7.95103931 78.68762970 4.68022537
-1.10153437 72.12439728 -6.71683741
-5.79094696 76.27271271 -8.14026833
-2.28687263 74.60800171 -6.70022202
5.48341131 77.89125061 7.15392351
8.18748379 79.24507141 -3.76714015
7.99740219 80.75029755 7.12655973
-7.47376251 77.95983124 2.07537866
-1.75440371 64.28671265 2.84424901
2.53278136 76.08848572 6.10428286
-4.54200745 70.85354614 -4.27120829
7.13140392 75.24951935 -3.62039161
-6.15702724 80.44950104 -1.15972900
-8.25987530 79.05937195 1.16816545
-1.21218872 78.34306335 -7.42913055
3.73165393 70.47879791 5.66757298
4.22378397 72.72682953 -5.32487583
3.40920043 77.84340668 5.49972105
8.76042843 80.14523315 2.99080467
-3.98289704 67.33290100 5.13305378
-1.25509989 80.57595062 -6.69476652
6.77153683 75.92090607 0.33489355
-1.52474105 80.70007324 8.03353405
-6.00097227 67.86244202 -2.29161644
-4.90183210 71.65610504 4.36012316
5.04675913 76.37959290 4.70635319
-3.49388814 80.59139252 7.58587265
7.00581312 74.30422211 -0.17552687
5.40581989 73.97006226 4.34036970
2.00145912 77.82942200 0.30347276
1.83784211 66.21864319 -4.47019386
-7.68983936 78.67704773 -0.26504070
-2.90030575 69.10644531 -5.44319725
5.46251917 73.04884338 -4.34779930
6.52205610 70.55259705 -1.73364508
0.40505299 78.04177094 0.07731238
-7.95263338 79.02352905 -3.55638790
-0.85394233 77.84977722 3.46631312
0.28500602 75.84405518 6.44005060
9.38607025 80.78417969 8.16274643
4.46778059 70.25664520 -5.29580784
-0.42387807 76.86940765 6.96162605
5.68809509 76.07528687 3.56717825
2.21408319 73.51283264 6.59343481
3.77337241 79.39421082 -8.28892422
7.11221313 77.89662170 6.34636211
-7.65755320 79.72469330 -2.48928285
-5.54199743 69.62774658 3.81353664
-3.48476171 73.38330078 -5.68893003
6.08583689 73.32456970 -2.76276612
-0.99732935 64.26369476 0.67703480
6.48857927 75.86048889 1.94934452
6.38028002 68.07873535 0.28582051
-1.98216784 80.60704803 -7.34593964
7.40162373 78.85644531 -2.94890738
-0.51042110 76.92461395 7.16355181
-6.47000885 77.99737549 8.00436783
-1.24716413 71.38823700 5.79314089
-4.76421499 68.25573730 -4.77357864
-7.98488092 77.69146729 7.06727886
7.57997513 78.34181976 4.17663860
5.90864229 77.17481232 3.03818178
-6.96046972 75.33232117 4.86661816
2.20208788 76.24581909 6.54355335
4.22998905 74.67236328 4.89508486
-1.95125246 80.65986633 6.28701925
4.53199387 76.93098450 -5.32504225
7.63530350 80.52146912 3.89071441
-5.47907114 71.57100677 -4.30961370
-7.35030603 77.77017212 6.44420004
-0.00641291 80.59523010 6.90329790
-2.53447914 64.12823486 -1.65376854
-5.49762821 69.37783051 -4.58622885
4.37293339 78.17537689 -6.29612303
-8.61713219 76.30136871 7.08106089
5.57708263 77.98884583 7.41596508
0.98295981 77.81526947 -5.44061279
-6.52875805 78.11099243 -4.24747229
-7.74991655 74.77106476 5.15309525
4.11272621 75.95687103 5.48973989
1.50107658 78.06133270 4.60111666
8.34114838 75.54020691 6.69819260
-5.87205696 70.78981018 2.47269583
-4.74646425 80.60317230 5.06813049
-0.68004513 75.73325348 7.52997732
-7.65643930 78.02341461 -8.63043594
-2.92887712 70.88584900 5.72744036
3.52570581 77.82600403 -7.18890142
-3.46379709 80.62981415 2.13785148
1.03433478 70.71965027 6.10308075
2.18874216 64.12268066 3.99821210
0.77883732 64.11392212 -1.58166349
5.69432831 68.25105286 3.27244854
2.66337919 80.43345642 -4.52037954
-5.91620445 67.35951233 2.51378798
6.56066608 80.74288940 -4.90334606
7.02360868 73.94821167 -7.01802874
-2.41713405 80.71867371 -2.49049830
5.05556297 67.21224976 -3.64038253
-3.82090664 75.08359528 7.04855776
-3.62545347 64.70182037 3.56670237
6.28263760 74.34703827 -4.14461946
5.67821836 76.00994873 -2.98734689
-5.05787611 73.99682617 7.10120535
4.64870310 66.56401825 1.23709226
-2.71896052 71.83462524 -5.91029835
-3.74252009 67.71714783 5.41051102
-6.73943138 73.10590363 0.48013130
-5.76292229 75.91505432 3.39649796
7.20339108 76.22506714 3.94249010
4.87574053 77.17511749 5.37814283
-8.53801823 75.55735016 -7.42086077
-7.75073481 77.73293304 4.82061529
5.58603430 80.50467682 5.83411551
7.72932768 77.56947327 -8.10086346
-5.69258213 75.56610870 -7.57745218
1.09091222 68.07140350 -5.98934317
8.85716152 75.75903320 6.54364920
3.36441159 77.79591370 -2.17096949
6.35431385 71.41625977 -2.20279288
2.62107849 74.79515839 -5.93777752
0.29521322 64.17864227 4.12684870
5.10622644 80.17287445 -8.78258610
-3.82567430 68.34315491 4.75816536
-4.00639677 64.22399139 -1.87879920
3.02808046 71.69171906 -6.02257109
5.94409943 69.93900299 -2.17912769
-3.91391253 78.75038147 -7.40575218
-6.12235069 75.90373230 -8.49293995
1.04490578 80.65240479 0.59405804
7.05362844 80.61352539 8.81976223
1.06391168 73.18219757 6.41700888
-4.02333546 71.58326721 4.74428463
1.99398053 74.13115692 -6.34005976
-0.24587452 80.65697479 7.51241016
-1.59807289 80.34579468 8.38543987
-5.90180397 75.70090485 -8.46311474
3.59876394 77.55944061 7.18363380
-1.09159827 78.77977753 7.54819107
-5.17303228 67.34205627 4.04602385
-6.62098455 77.85500336 5.77874470
-6.08333445 73.09970093 1.88725471
-7.01486731 74.30384064 8.47169876
5.33956528 72.17276001 -1.40335381
5.67619658 80.77606964 3.03720832
-5.81746817 77.68331909 4.52105618
-3.80701685 75.04105377 -5.47715521
1.50657189 63.89813614 -2.81317925
7.96838236 78.72477722 -4.54517031
-6.86601305 70.45623779 0.29802877
-4.11990309 66.21716309 -2.35452628
9.33631897 80.53494263 -6.36131334
6.25855064 68.90144348 -0.13449019
7.06307316 76.96927643 3.98479605
-1.88490140 74.10977173 5.60424280
8.02304840 79.45925903 0.13003999
5.60201645 69.39524078 -2.99542785
8.11804104 77.07827759 -6.95574665
4.24296474 78.10837555 5.73376894
-6.85367060 72.86318207 -1.80972755
-2.23369384 74.85755157 5.21612883
-6.25522232 68.62342834 1.62557173
7.64182234 80.50341797 9.59777546
-4.68032026 74.18869781 5.94460058
-2.11717296 64.10126495 2.59926152
-0.14657888 80.64285278 2.57587600
-3.92167497 68.11080170 5.33311987
2.69208002 64.19354248 -1.23356771
5.97801542 78.14713287 -4.08233452
-7.61460066 76.23972321 8.03282833
-1.72130132 75.89587402 6.42489910
2.78757620 79.96949768 8.17680073
8.08200550 76.88040161 5.69358826
0.68661946 80.58483887 8.03376770
-5.01966619 72.69395447 -4.07714844
4.94659042 72.14929199 -3.87448096
6.60154390 78.29145813 -5.47564840
-5.20726013 78.95977783 7.82144642
2.16557193 73.54957581 -6.05483437
4.67805052 65.02841187 -0.32267258
0.85048288 75.67804718 -7.06160259
-5.20530367 80.58505249 1.88685882
-5.97252703 70.47662354 -2.85933065
6.46290731 71.06813049 0.86607319
-6.88720798 77.98905945 -3.71176767
1.12336063 64.08592987 0.38714090
5.43541718 71.22573853 -3.74210167
5.50099802 71.34076691 -3.60489702
-8.29392433 78.83412933 6.27483368
1.43192160 78.11336517 4.55341005
-8.19999123 80.31534576 2.38282394
4.77383232 76.02536774 -7.32411814
0.28801313 77.35842896 7.35286570
-0.63659340 70.71083069 6.38107777
4.35035276 80.67803192 0.91671127
-0.73283648 80.11988068 -8.29478073
-5.89195633 71.76309967 -3.48275423
-5.71121597 76.99558258 -3.27976227
-5.59109306 73.14370728 4.54618359
7.47188663 80.90100861 -8.91410732
-1.83812523 64.16479492 -4.37534666
2.24809527 77.73541260 -5.91388130
0.84761435 79.92480469 8.55230808
-3.20831394 80.57186890 -7.25155735
-4.93450642 67.21620941 4.70483541
5.92606640 77.70883942 0.44166455
-4.00199556 68.81706238 -5.85760975
8.58869362 80.52278900 6.35775709
1.14029408 70.14675903 6.20146227
6.32051373 75.70482635 8.33408546
0.08446524 79.15947723 8.47404957
4.63213587 78.00004578 -1.81996810
0.35712558 64.06290436 3.59705901
2.88240123 80.51641846 7.86596584
5.47600079 80.69401550 -0.78972632
4.34137249 66.76151276 -2.84293485
-2.85778928 72.98452759 6.79053497
6.96974659 77.14576721 0.90039706
-0.62538588 66.64841461 -4.75994825
-2.60127401 80.49771881 -4.90397215
7.51076174 79.84555817 -10.03439617
0.85803014 78.01429749 7.31655884
2.21422219 80.30766296 -6.24740648
-8.33550644 79.91487885 -1.22224414
1.49854815 74.36853027 5.72517538
-6.19271469 75.83153534 2.83614087
-7.35850286 78.11299133 0.43606400
-0.78345287 73.91666412 6.91171741
-4.65964603 73.78427887 -5.78256416
-6.40766144 69.32999420 3.58428812
6.87511444 75.04025269 0.66589630
6.62546396 75.25876617 -2.58993411
5.37617064 71.50036621 -4.39428043
-1.85812807 80.61188507 4.93370104
-6.76140642 77.85481262 6.66319609
7.43890858 77.56818390 -7.59157419
8.75750732 77.19590759 5.62846136
-0.53537220 80.87596893 -5.83779049
6.16724253 72.27847290 0.46135634
-1.36481845 80.49362946 7.11902714
-6.99429417 71.46156311 1.67470384
-6.58926725 77.92256165 -5.33690929
-1.34190166 64.18071747 -4.15019083
-7.25277233 77.85865021 -5.93362093
-1.79467273 78.10369110 -6.40927696
-5.46475792 67.79791260 4.67403221
-1.24163258 77.90538025 -3.46085358
-2.17344737 79.24858093 7.34051132
-8.89648056 79.58827209 -8.02511597
-8.14163017 78.64376831 -6.01969719
3.09141183 74.86353302 6.94329166
4.59270763 69.00816345 -4.46308804
8.62262917 80.29948425 -8.81047249
5.39166832 77.78703308 6.73705196
5.66071415 68.84528351 1.99808836
7.70501900 78.58552551 0.59393191
-5.22322130 78.44394684 -8.15385246
6.84302044 80.74814606 1.73483443
-4.73360062 67.27774811 -1.52168882
-4.05524397 77.69409943 -5.62923956
-5.99665546 74.21094513 -4.85108995
7.78417778 78.36442566 -3.78405333
1.34512305 72.20281219 6.27415609
-7.14615536 80.38233948 6.50318146
-8.01082802 77.86691284 -7.39863348
2.08126068 80.55493164 -6.45422745
6.11730528 73.35370636 -1.88233507
6.68550110 76.48807526 0.03095582
-5.29714298 80.61405182 -7.28341579
5.28115177 71.09616852 -4.39170837
3.16233850 80.51587677 -5.37335348
7.00871849 74.42613983 2.35064411
-2.83851385 76.86581421 5.06638241
-6.30696487 74.95230865 1.69017220
1.11009538 77.89943695 -2.51554799
4.42959738 66.73383331 2.01028347
-4.79199982 68.63968658 -4.92790413
-2.44814086 67.31175232 4.20386982
2.50331116 63.91730881 2.09810495
-4.56551695 70.45625305 5.15346003
5.22841072 73.00380707 -5.09452057
-7.95909977 78.08496857 -8.31993008
5.80834198 68.05461884 2.64286542
2.61058021 70.22455597 5.83965445
-2.89752507 64.29803467 -1.24700809
7.54490662 78.38987732 2.16570902
-4.75854492 67.56163025 -0.71816748
-8.23811245 77.41867828 -5.72226334
-3.24281645 80.56294250 0.63986814
-3.34351492 67.23757935 3.51670909
-5.20475912 76.01489258 2.13757634
7.62986231 74.03337097 5.29467201
4.70170259 68.58423615 4.75109243
-1.30601799 66.00586700 4.33185244
-0.94691545 77.85480499 2.34359646
-6.60768557 77.22838593 -3.69799280
5.56141043 73.25209808 -1.46777952
-8.53534317 80.37989807 2.72515392
3.72116399 77.59551239 -6.54723310
-7.86036396 80.61590576 -2.10791063
2.37792373 80.68581390 4.58514214
6.11830854 80.48877716 -4.34719229
-2.89509892 77.66913605 5.71862936
-9.11975956 79.64608765 5.86405420
-5.77637148 80.70310211 -1.16972804
-3.62136221 67.14653778 5.71896362
2.47859740 69.42687225 6.09377956
6.32939386 75.67706299 8.72334003
6.15459967 78.00695801 5.23310900
3.17271328 77.90219116 -0.04412179
-5.68294430 74.74985504 1.89848948
5.38348913 76.06945801 -4.12738132
1.53611231 72.75323486 -5.59122705
6.56399298 69.77213287 -0.28880823
5.79744244 67.63436890 -2.15689039
7.37659597 78.14608765 0.86513323
5.50096750 72.08198547 2.86408782
5.12656116 76.26496887 4.32216835
-7.65336943 78.15634155 -3.82451916
7.11585999 77.75640106 5.53043938
4.45191288 69.11484528 4.30723572
-6.92938662 74.84767151 4.15756130
7.68002987 77.63207245 -4.63074923
-6.07433701 72.63622284 -0.94134086
7.41227055 77.79295349 0.79239511
-7.08183146 80.44994354 -1.13483834
6.20411730 80.51536560 2.44570899
0.55861837 72.43269348 6.32655525
-1.07776630 75.62728882 -6.40471363
0.55550307 69.98042297 -6.35270548
6.68677950 77.85401917 6.24399185
5.28545475 68.66195679 3.67876244
0.61052746 71.43288422 5.53313398
5.32727957 76.91111755 2.47301245
0.69268423 80.66635895 7.30021381
4.71909523 77.87667084 1.20087802
-6.40956926 70.18548584 2.30053377
-8.52752686 79.16503143 7.99277592
1.38987291 77.91936493 2.84805417
2.94356751 77.81465912 -4.56248999
6.19122934 70.89446259 0.78130400
-4.44030952 75.56439209 5.17481470
-7.40741253 75.69894409 3.68939257
-2.23506427 80.72993469 -1.42041075
-8.26599884 78.95681000 -1.09145832
-6.66566849 77.03115845 2.81080484
4.33032799 66.36223602 -1.69190860
-0.75899804 80.59983826 3.96460032
-6.40386200 70.32903290 1.02616596
-4.42871428 72.75755310 5.56306267
-0.21093056 77.92175293 -7.44953394
6.10547400 72.51211548 -1.15318286
-8.29109478 77.68518066 -7.15893602
-1.26245582 77.92123413 -5.56593132
2.53065014 73.84148407 -5.94783068
1.53599167 80.29654694 3.33526587
-7.09665632 75.01967621 1.10750091
4.39811659 76.08269501 -7.20862246
-3.88071966 68.09272003 5.08368111
-8.71073437 74.18426514 6.29105902
2.95652175 77.66314697 6.20779181
4.30824232 76.51768494 -5.74856710
-3.18819547 69.59294891 6.03598595
4.66566944 69.22957611 -4.64004326
3.99900532 80.50444031 3.09818077
-0.99160910 68.52720642 -6.16271162
3.84299707 80.69147491 7.08567572
-5.71816587 67.17619324 4.01220131
7.26317072 80.68710327 8.94231319
5.78572416 78.10943604 -5.24091816
-6.26560736 69.42765808 0.09708889
-6.07172108 71.44871521 -1.23436785
-7.93134356 75.69664001 5.01972628
3.38565326 70.94824219 -5.55856657
-2.56472874 77.68793488 2.45119715
6.09291697 74.55720520 -2.39783311
-3.55194545 67.95246887 5.61084414
-8.24172878 74.54048920 5.61525345
3.17016554 74.69840240 6.85694885
3.49180937 77.81369019 -7.03453588
3.71423292 75.15455627 5.66768360
-6.35447693 74.02220154 1.34384036
4.03281593 80.65419769 -7.68776464
-5.37926531 80.56285858 8.58192539
3.51050591 80.77974701 -8.29975414
3.26736784 66.69318390 3.82548833
4.78646898 80.44809723 8.93351555
7.34162760 79.62702942 -8.98111820
-6.55013466 73.95587921 0.19850624
-5.82058907 75.64782715 -1.58569300
0.67636502 64.40912628 4.15475607
-4.42583132 78.50364685 -7.38937044
5.61701965 69.81609344 -3.94798970
-4.75274849 78.22227478 5.68067694
-3.68414640 75.82311249 7.15961838
7.63715744 75.81650543 4.63485718
7.46691036 77.64390564 -0.14313461
-4.29974747 77.96430969 0.39556265
-8.30250072 80.53880310 -4.43733215
6.21494389 76.25932312 2.16334939
-4.55930042 78.04721069 -0.21843441
5.35722876 73.62817383 5.50674772
0.28155950 80.40821838 -7.85022354
8.12232971 80.53983307 -3.02763581
6.60669518 74.29233551 -4.74481773
-1.59578359 65.77948761 4.74650145
-8.02850819 79.38453674 2.59411144
2.49461675 78.06691742 -3.02783918
2.82334614 76.72198486 6.38900232
0.88305151 71.32476044 -5.96241426
-7.55818748 76.49334717 -4.65214014
-3.74468184 80.64841461 6.90148115
-4.53192520 73.15341949 4.43268538
-5.87597895 73.32775879 2.57822657
8.79392433 79.76881409 4.27129078
7.40184736 76.02980042 -4.26256180
6.28867388 80.50997162 3.36794853
5.60758448 67.40195465 -3.25647044
2.49192071 80.38815308 -2.62205672
6.49358845 75.11376190 1.04719806
1.41854000 74.45268250 -5.98199940
0.72771788 67.12112427 4.87931585
-8.05507183 79.10909271 -3.59565711
2.14358902 78.89971161 7.08656025
2.92878604 68.08603668 -5.57493401
-3.26801491 67.07800293 3.52566051
2.52847385 80.71517944 -1.44205725
7.46763992 80.25083160 6.77802324
1.28963625 77.89588928 5.09940863
7.59063530 78.13665771 0.11208142
-5.28768349 72.36118317 -3.72279501
7.00130463 75.75368500 1.06258488
-5.91684103 72.93144989 -1.98807931
-0.31064445 71.84928894 -6.53487253
-1.18139923 73.25347900 6.09740877
7.86347532 76.86692810 4.50207615
7.11016989 74.49441528 5.03458309
-7.51907730 78.85264587 -8.41546726
0.14280295 71.29923248 -5.97552919
5.28226662 73.72337341 3.66059518
1.57931721 73.24521637 -5.47542858
7.83156061 74.96014404 4.55482960
0.69482040 79.78288269 -8.09031963
0.48726156 72.59154510 -6.68112230
-3.35348964 71.28589630 5.31573296
6.98775959 74.44812775 2.63797760
2.88899446 77.73424530 6.18302727
1.28269839 80.55006409 -7.36580229
-7.25998545 80.56678009 6.14459372
-6.64567423 72.40561676 -1.03873444
1.56350327 80.79115295 0.65264851
-6.27130890 69.73087311 0.69342607
-5.07983971 69.23490906 4.95460081
5.98296738 80.67698669 -5.25434732
-6.66762638 70.17897034 0.59366626
-2.21800780 71.26029205 5.86853123
2.56623769 68.84188843 -5.75584030
-7.49338627 77.96166229 -3.01374078
-1.61148822 80.03144836 8.21770096
-0.40063617 69.98143768 -6.56234694
-5.01276159 77.79280090 -3.18871808
-1.42018723 67.94087982 -6.43838930
2.35793972 72.46506500 6.33436298
5.59337997 80.89753723 6.01483870
0.81800526 80.77423096 -6.64998007
-0.72113043 63.84202576 0.58091557
5.06808519 77.73004913 4.13662481
-3.51256347 76.81350708 -6.75164795
-1.42156613 73.15261841 5.39317942
-6.27858925 80.58239746 -4.32932806
0.05646469 80.85402679 1.99346638
-7.30400467 76.10366821 4.43353033
-6.45659018 74.75457001 4.57135487
1.77512217 72.93585205 6.19768333
7.81467152 80.76957703 -9.15877056
4.98314667 67.08531189 0.63075650
-6.62064266 78.01918030 -6.47496223
3.23292327 77.68379974 5.62661171
3.44984198 80.57862091 -7.54349089
6.26460314 68.74654388 0.85201877
3.14911103 74.26386261 -5.61338520
5.66945362 69.77013397 4.31282520
1.47185040 77.74179077 -5.57008171
-7.43099070 74.52593231 4.85008717
6.01531363 77.81962585 -4.24745035
4.19937420 70.15247345 4.72292948
2.07735467 77.91034698 -0.68336827
5.11702585 80.66356659 4.16180849
-6.94205952 74.52235413 -4.66340399
-6.63493013 72.62309265 -0.90577722
-5.93348932 74.36287689 5.69390440
-6.33361530 78.07296753 -5.84892559
2.62997055 74.62013245 6.08841228
-5.69522524 73.21646118 1.58970010
2.74802685 64.29308319 -1.82234859
-4.94626141 71.54455566 4.93696213
4.66801453 77.65822601 -5.52420616
1.34470594 64.19374084 0.06150227
-2.38398385 74.21994781 -6.60611677
5.80962038 71.60802460 1.70935452
-3.36858630 77.18641663 6.72947121
4.32469511 68.53643036 -5.22942781
6.13220549 73.76355743 -6.76653767
-2.24080253 66.56834412 4.31792068
6.25657415 80.44878387 6.59729624
-5.06826258 68.28783417 4.76239157
0.83439934 77.98868561 -4.49686813
1.63124728 68.20101166 -6.00517368
-4.59442616 64.05871582 1.16247857
-1.57311571 74.36888885 -6.10523510
-9.52533340 80.69734955 -7.31666040
-7.20446444 80.67908478 -5.41359043
2.82314062 77.88407135 5.49777412
-2.68333125 80.75093842 1.98277986
-0.80531555 77.89103699 5.23132086
-6.48793697 74.15014648 -1.97482562
4.43511248 69.78073120 -5.25182486
3.92093420 74.12553406 -6.75755453
8.63357162 74.87698364 -6.86741304
5.12837315 73.59365082 4.76611614
7.10815573 75.13296509 -3.52062178
2.85952687 69.32629395 -5.78381586
3.99673700 75.62647247 -7.11689281
5.69314337 73.87551880 5.48404455
4.70269585 77.75306702 -4.60661459
-7.69684982 78.66030884 3.17979860
5.76536655 80.48934174 -9.12311840
-3.88276315 66.14147949 -3.40732837
-4.98862076 77.70831299 -5.89030838
-5.48394012 79.11226654 8.02724171
-0.39055112 80.52252197 -1.87207592
-5.53853559 80.87265015 0.65201944
-6.32852125 73.99098206 1.90632725
5.78397083 70.74769592 -3.57294273
-4.68875170 64.15420532 1.52538776
-3.18704844 64.24421692 -0.66663349
6.19321012 71.20788574 -2.33719516
1.75912702 72.01308441 -6.65499163
-5.87043095 70.57173920 -2.31139779
1.49406636 70.40952301 -6.03919792
-2.17506814 77.96916962 -1.60853767
2.03061986 70.99542999 6.14494038
-4.02403355 77.65194702 2.54597425
8.40464497 78.94770813 -7.94024754
-6.50160122 74.04941559 -1.33218241
8.36786938 80.75416565 6.00122643
-1.62148333 69.65086365 -6.46104908
-5.09918642 75.75370789 7.83549213
-6.46651506 74.35282898 5.05180454
-3.68204212 72.35385895 5.81450129
-6.78623867 76.88478851 -8.44970036
2.89373207 77.82023621 2.72533512
5.31614017 74.10637665 -6.15786648
1.51295412 80.48228455 6.69915962
-2.13625073 73.79166412 -7.01870155
-6.97857380 73.98502350 7.62494087
3.87268257 77.92034912 1.85531127
-6.15942574 69.89751434 3.49762750
3.49189782 77.75998688 -3.92677140
5.03888321 75.00891113 4.54113674
4.21581316 66.12842560 -2.02152419
-5.26442146 74.21292877 4.83546305
5.08796644 80.37038422 2.71775222
7.06874895 72.87815094 2.61629653
-4.53460884 73.62380219 -4.52076769
8.35529041 77.74220276 7.55038881
8.58158398 80.60797119 -5.60710716
1.87306368 77.06179810 6.67951107
7.54856730 75.09724426 8.11598778
5.78306007 71.36318970 2.65125513
-2.08572364 66.41898346 -4.27072811
-8.73427105 76.29170990 6.25879812
6.25824118 80.20875549 9.34316635
-7.94127846 79.29828644 9.50448418
-8.44995594 79.77342224 -2.93726063
5.07962322 80.45258331 1.24501324
-6.70222139 74.35288239 0.70859128
-6.01204157 69.23208618 -3.12504077
2.48725629 64.21440887 -0.39487636
7.92646980 79.65125275 -8.81379318
5.07724762 80.28351593 0.09932950
7.35522413 75.67330170 3.19766688
-2.90426660 77.84396362 -0.91600180
4.51493549 74.58818817 -5.93057632
4.06061649 69.52362823 5.66442919
6.85319090 71.71288300 1.60711455
6.42122746 78.32344055 5.09194469
-5.71268511 73.91817474 -6.35276175
-6.84870529 76.55875397 -8.47757816
4.85167313 78.14553833 1.25849366
0.45778793 80.47910309 -6.21717072
-8.35143280 74.96435547 7.51135874
3.87989020 73.08371735 -5.05488062
2.12715244 80.57927704 3.80732965
-5.06483030 80.73934174 -8.66639328
-0.43739071 64.57075500 5.03688431
-7.70954275 79.60788727 9.62944031
-3.50453591 78.02414703 -0.04385597
0.57218248 80.69623566 -4.55799961
-2.75565410 77.91077423 0.84803122
-1.30039740 71.00301361 -6.00582743
5.39629364 74.02574921 -4.82805347
-7.19434929 77.30773163 0.44977432
7.89248466 79.11896515 3.00253558
9.71086121 80.18372345 7.29302263
-6.00931215 80.42076111 -9.31649780
-9.26074600 79.66482544 -6.91820908
-6.05312586 72.35899353 2.28492212
5.61212492 74.52249146 4.81322527
-5.20153189 72.13916779 3.65406466
-3.46067858 71.68317413 5.74567556
-7.23355055 76.59622192 0.77951926
6.54762793 73.79479980 6.31563091
3.66889429 73.70928192 6.28696632
5.18782568 73.34362793 -3.76473665
-2.03277183 74.21401978 5.24403858
-5.43781900 77.98379517 -6.04671621
-6.50169420 77.77083588 -0.17375134
-3.66842556 80.78646088 5.90919924
2.13574862 77.84912109 -3.65057588
0.54838222 66.69392395 4.86554909
-2.80168939 77.97276306 4.72553062
3.24585533 73.91035461 -5.98722029
-4.80537033 76.19271088 -7.61335850
1.18316305 77.91668701 -5.76394749
-9.62005138 80.66264343 7.56950235
-6.46684837 71.76993561 1.67429674
-6.54169512 67.99580383 -1.80483985
-5.51321459 79.95420074 -9.04772377
-4.80831432 64.35286713 -1.45328116
0.19588645 80.78997803 -3.51237369
3.35799456 66.46399689 -3.57399440
1.51775324 76.06201935 6.60114336
3.45527792 69.92388916 -5.91826725
9.00270367 79.60034180 -5.21375799
-7.54466677 78.64030457 3.39659405
6.95501375 74.40941620 -0.11030470
1.59951031 73.86749268 -6.49509335
-7.62108183 80.24277496 0.50518495
-6.38128757 77.75038147 5.11385918
-7.90147638 80.79805756 8.19291782
4.58673620 80.63603973 2.18620515
-6.91739178 77.03187561 -3.62655759
-2.88100004 70.51609039 5.65134192
5.78032541 72.24868774 -1.14803767
5.83255386 69.37547302 2.64089203
-6.35215950 80.69789124 0.00905356
8.42810345 76.22457886 -7.40345192
-0.36222586 80.86376190 7.88834572
-2.45909786 77.09498596 5.32218027
4.94815731 68.69271851 -3.83055520
-0.70169896 80.51591492 -1.68934691
-1.04141355 64.23171234 -1.95582461
-2.55239463 68.68220520 -5.80785704
3.13647771 74.36267090 -6.94336510
6.04829407 70.06346130 -0.75469911
-2.91227055 67.77246857 -6.03332233
-3.77745008 80.56972504 5.99095201
-4.72469282 74.95411682 -6.06205177
-4.90624952 68.81995392 -3.73818898
2.98529315 73.84128571 -6.64332771
0.47295102 77.78791046 4.28736830
-6.82223368 75.23542023 1.09876955
6.28495932 68.38273621 0.47926363
-4.60664892 75.59156036 4.82661486
-0.00317688 71.55016327 6.91460419
-1.19530976 77.70121765 -6.82337046
-8.78790283 79.29994202 -7.92790031
-6.21283913 77.67498016 -3.01291156
-0.06735254 73.05688477 6.45962191
-3.51666141 76.47139740 7.22016382
-6.01402187 72.99846649 1.88008380
-3.35215712 69.83898926 6.02980709
-8.76465893 79.59348297 -0.55775154
-2.64813447 77.92295074 -3.36191607
-7.01357412 77.62114716 -8.18182468
-5.61200476 80.88543701 4.45067263
8.75573730 80.38673401 -8.66336918
-0.57972175 63.84867477 3.74055934
3.02535105 77.84818268 5.56317616
-4.10157347 79.51187897 8.34568310
-2.20271325 79.38748169 -8.03579617
7.09174109 77.22451019 -8.13441944
4.40083885 66.50438690 -2.06779861
0.89869457 68.52086639 6.46131849
-4.16571236 72.71308899 4.82727671
-0.18075316 80.57034302 5.44484758
-2.59792566 80.25886536 8.23780823
4.60586452 76.17012787 -5.05378628
-2.51176381 76.16727448 -6.19162750
-6.14076614 68.23002625 -1.75113213
-5.86832142 78.68353271 -8.14400864
-5.85278273 74.17002106 4.76039839
8.69466209 79.16359711 6.41931915
-4.33739996 70.08190918 5.04154634
-8.23735714 77.80886078 -7.77985430
-5.56546736 72.06704712 3.86999488
-7.19590759 79.43742371 9.70793152
-1.77311802 68.08868408 -6.48443460
-9.29485607 80.37770844 -7.01547956
3.86353469 72.56173706 -5.73961163
-0.34282890 77.66738129 -5.38487196
-5.20300245 68.53794098 4.62750196
1.50006437 68.77167511 -5.81325531
-1.67429674 80.79193878 -8.18095970
0.31847960 74.52851105 7.21119738
-3.56291842 71.65789032 5.56086969
-4.44629288 80.59462738 8.20731354
-7.40827513 79.24217987 -8.97559166
1.95866394 67.12390137 -5.87140036
3.73878169 66.72457886 -3.20458555
-6.10066319 67.31816864 -3.64266896
-7.29749870 74.64353943 -0.19672960
-0.73937023 74.73014832 6.32400227
-7.38284063 77.47679138 -7.64678335
-8.25426006 79.82981110 1.73591101
6.03680801 77.91691589 -7.24247742
5.87939215 69.43464661 0.55973911
-4.64892626 77.75991821 -5.90302753
-6.45261431 79.62561798 8.86819458
7.67084932 80.29531097 -2.82491541
-6.68354654 79.14785004 -8.74665737
5.93483067 72.33115387 1.25477326
7.52643538 74.34397888 7.98685503
1.03359497 77.78585815 6.28605366
8.18923664 74.29460907 -6.73166943
7.87540007 80.35498047 5.74824524
1.91378772 76.56764984 -6.83866644
6.35425425 73.76367950 0.56618303
-5.67360210 79.22171021 8.59024143
-3.39714885 77.79151917 0.83024758
3.44231915 73.45044708 6.44619417
8.15176010 74.39151001 -7.16357565
-1.41526723 75.52042389 6.48367262
-7.51906586 73.42115784 -5.99290562
1.93058145 75.10096741 6.00155354
-5.76070499 79.89611816 9.16619682
-6.82874584 75.25627136 8.35633564
0.81246090 72.37314606 -5.81983089
0.86002707 64.25745392 -4.40233517
-7.18068123 77.89541626 -5.49624491
5.23308039 77.98801422 5.34865761
4.94792700 66.14158630 0.57981151
1.19767821 80.88896179 6.33250856
-6.68856812 77.66445923 4.63703680
-1.86357665 66.08469391 -4.62663269
-7.50775623 77.54457855 5.29122496
-3.79103589 70.03891754 5.82079601
-0.15549149 71.74726868 -6.67696238
4.08652258 75.49298859 6.80185747
0.00570733 80.32032013 -6.51873970
-7.59143209 76.43250275 5.07467222
-1.97425842 72.60015869 -5.95585680
6.01430702 78.37738800 4.87054157
2.45912862 77.83493042 -0.34925812
1.02811742 72.19920349 6.41539860
-1.97769511 80.55804443 -0.40225816
6.05005884 74.93991852 8.22109127
-4.36268806 68.34671783 -5.65381098
3.67162442 77.71935272 6.24984121
6.97076273 78.27968597 8.35582447
7.72971439 74.96492767 -7.65489244
-5.36440754 74.61442566 7.73098230
-7.69514227 79.04475403 1.56491649
-5.01963043 80.72708893 -0.17012560
-8.27610111 79.69583893 1.85471737
5.12269497 77.69756317 -0.17318785
-0.81377667 64.25001526 0.25481206
5.31759357 70.01452637 -3.48028612
3.22851110 80.53589630 -8.20303535
-5.70234919 77.89238739 2.76502991
3.98892951 80.78324890 7.23836946
7.48746347 75.97227478 -3.51904178
-4.99341106 76.36960602 7.57902050
-6.37009430 76.46542358 2.15542769
-3.25582433 77.59533691 -6.19685030
0.04187376 75.36776733 -6.75756979
2.70311761 77.83114624 4.46651363
-3.90805101 67.26490021 3.12830138
-6.81754923 73.88181305 7.64043379
-6.68389320 71.98466492 2.28669620
-5.20363235 79.52182007 -8.82562447
0.16911888 77.93737793 4.36290932
-3.91858101 74.86061859 -7.02586937
-7.91402674 77.21199036 4.48762560
2.51352596 72.80278015 -6.78274870
-8.70490932 75.95755768 7.44343662
-1.01069832 77.82272339 -2.98471069
-5.89643621 77.13698578 -4.05944347
6.55119038 76.28280640 2.67158365
0.48650327 80.41170502 4.07396555
0.51920295 75.59056091 7.01398706
-4.78002739 73.72750854 5.53933144
-8.16992378 80.70819855 -3.99962521
8.81998348 75.88033295 6.49400711
6.34839725 73.23836517 -0.09141637
5.79931879 68.60067749 -1.97962880
-6.16229153 73.53433990 1.44174540
4.55991697 70.64942932 4.81744528
1.18093348 66.35089874 -4.36653948
4.18537283 77.63279724 3.70016289
-3.40404987 80.56749725 -7.27175570
-6.19596052 78.67167664 6.39764357
6.19850636 69.66961670 1.55260098
-2.71118736 69.57328796 5.84623289
-5.93630266 74.00791168 3.20988846
9.21131325 80.69408417 7.49749947
4.31741238 75.00921631 7.12512064
-4.90854406 69.05989838 5.07755041
7.14066505 75.66217041 2.91887569
-6.50791454 79.29950714 8.61687565
4.07045794 71.15763855 4.70784235
8.64935493 76.21688080 -6.20014048
3.51486611 69.10875702 5.83512402
-1.39329875 77.25256348 6.78133440
-6.00274467 78.71318817 8.32780170
0.16517794 77.65899658 6.78434134
-7.46477413 78.38385010 0.81793314
-1.28247392 77.75921631 0.78682458
-4.90328264 75.09387207 7.59617996
-3.79036784 78.05472565 -6.15257931
-8.12168598 77.90711212 7.91328669
1.32693243 73.37143707 5.64270782
-3.88275814 67.38008881 3.36911130
-0.65965116 64.26837158 2.54730272
6.00991917 73.11670685 1.98425603
-1.12453711 65.60234070 -4.65141535
-7.91313028 74.83082581 -5.70206404
-7.76624250 75.80204010 4.29917145
0.01280172 70.78324890 -6.33731842
-1.64546728 80.63859558 -0.79961646
-5.98500633 80.77229309 5.69615841
-3.59434628 73.82559967 5.43917179
-1.52129948 78.08458710 3.64601469
0.57623720 72.32072449 -6.52925634
3.99529076 80.49444580 -4.05551863
6.38267851 77.58401489 -3.01972651
4.84058857 66.59615326 -0.26577118
2.84475207 70.77003479 -5.85139751
-4.56673145 80.56267548 1.68319833
4.32282162 78.20674133 2.08652353
1.65111578 80.58460999 -3.49922395
-6.08029795 74.45576477 1.22025156
-1.47970879 73.76834106 5.75945759
1.52466214 77.87886047 -6.67094469
-7.58595181 79.69783783 9.81897259
-7.04935360 74.45463562 -4.40945959
-6.36593390 72.09403992 0.89955032
-4.86122990 74.28311920 4.46963692
0.35277843 71.21365356 -5.95452452
-5.70277452 76.75241089 4.41049051
2.11796427 67.57731628 6.28033209
5.11263657 71.41948700 -4.56858301
-5.52006769 78.12542725 -7.08906794
-6.68556643 72.22628784 -2.10285616
-0.24874444 67.23689270 4.82140160
6.26839256 71.52445984 0.79667377
9.68509483 80.61192322 7.07480955
-3.60411739 73.84339905 6.19910336
-3.29089189 79.24388885 7.78954744
1.24851573 67.77014923 6.25213146
8.95616245 80.23174286 -4.16516972
-3.05231547 66.38020325 3.72535300
-4.27558136 64.82908630 2.18908310
4.99274445 71.56491852 3.38089681
-0.49276644 71.17335510 6.64681292
-7.16212797 74.52532959 7.97968912
-0.21230707 74.80657196 -7.02052784
-1.76602399 74.07358551 5.81418467
2.77249050 80.42095184 0.95920539
0.15597157 72.18954468 6.05940676
6.59159708 74.19788361 1.27166629
1.32267940 64.20749664 2.04261589
6.65399933 80.88407135 -3.19965267
2.50869012 80.52783966 -6.44478989
-0.32522112 63.82220459 -0.13210180
4.94545650 75.21083832 -4.61163521
-2.64272738 80.58248138 4.83773565
8.20410728 80.38532257 4.12288427
-8.92548656 74.67049408 6.92340803
-0.57262635 68.15316772 -6.02161884
5.92937469 78.36718750 8.23541451
2.64158607 76.38842010 5.02401686
3.70745063 78.04190063 0.84811085
-4.08649969 77.71320343 -6.24322701
5.79510307 77.26067352 -4.29113817
4.82669115 80.17758179 -8.78607655
5.64985180 75.25891876 -1.80257893
4.01576614 70.49271393 5.46832132
5.86375046 71.39179230 -3.45206738
2.26904202 70.85189056 6.00574970
5.63629866 73.49497986 -3.15157866
1.45360315 77.59324646 1.75552607
7.11392832 76.18040466 4.45063972
-1.87970042 75.31248474 6.48901129
7.63164186 77.52381897 4.75839520
-6.20048237 78.49202728 7.14814091
-3.64633775 80.91178894 2.44133377
4.86344337 74.45738983 5.85391617
-5.50936413 73.11155701 -3.91529012
-6.08896542 73.60073853 -2.40463138
3.22751164 80.65309143 -3.66280699
5.05960655 77.97656250 -7.24382877
-5.15396881 80.40190887 -9.07965469
0.41947395 78.52925873 -7.27786398
-2.59565878 63.98173141 0.99618793
-8.01447392 80.92292023 5.37037420
1.62613392 68.07634735 -5.88826084
4.81946135 65.62665558 -0.46225569
6.32452393 80.50592804 -0.38040540
-5.45697308 72.82101440 -4.39925289
4.50780487 67.57003784 1.57990575
-0.43700647 77.72307587 5.91136074
-2.83857036 80.56211090 -8.11911583
7.50541115 77.32281494 4.06205940
7.65463972 80.51564026 -9.38539219
-4.85870886 74.23091125 5.00987005
1.37828612 66.61560059 4.61284304
4.14596081 80.57236481 -1.62403047
-6.12539244 75.45070648 -1.95999205
-4.11875963 68.77854156 4.83220434
-4.01581812 80.73330688 -5.11134577
-5.75618935 76.38963318 4.19049931
8.45941925 80.48495483 5.74242544
-6.58861399 75.39806366 0.39266884
4.76037550 72.89486694 4.75830746
4.34175539 76.39158630 -7.52980614
-4.83514214 80.64204407 -0.86981267
-5.71512318 78.09892273 -6.34192085
-7.47785616 80.70893097 1.82816362
-6.08189154 80.87787628 8.60549641
-0.27494910 73.73856354 -6.41816950
-5.19716406 77.75601196 -4.48857450
-3.87756681 77.89469910 0.13236590
-5.11078405 71.50129700 3.57165003
5.24838209 77.43578339 -3.34706736
5.24794769 80.68331909 -3.45500708
7.73199320 80.24709320 -2.60748124
1.77035224 77.81608582 6.19844389
5.34402609 80.48173523 -4.00082541
-2.94393802 68.53373718 5.66219234
3.14008880 80.60449982 7.19851971
-3.11586738 76.75953674 -6.83837318
-2.30811977 77.48536682 5.70285511
-6.40097046 80.62597656 -3.04936123
2.16583443 64.30173492 2.88868475
5.32424784 77.79785156 3.85818982
-0.24845409 78.10848999 7.18171406
-7.91006184 80.09674072 9.81109333
3.10303521 67.13848877 -5.32553291
-6.19591618 72.60407257 2.38436770
-5.18886852 80.64427948 0.35949829
5.99173212 68.47614288 1.50100803
6.77996540 77.03166199 -1.25087309
-2.87187767 80.01031494 8.51329899
4.14041042 66.97397614 1.94505668
4.35257149 70.31275177 -5.49698830
4.83634090 63.91553497 0.83113235
1.75406528 64.74269104 4.46971893
-7.05037212 74.21527863 5.13060093
1.78665304 74.19735718 6.74109888
-6.42346621 77.59483337 3.64938664
-6.56937599 80.48508453 8.13373566
2.83454609 80.67686462 -8.29192829
-7.65486145 80.59039307 -5.62844658
5.66191101 69.23841095 -3.81787467
-8.94129276 80.52818298 4.03093147
-3.77638602 69.39549255 4.70189428
-5.09371710 74.09518433 -7.35536337
-4.65809679 66.75556946 -1.11038721
6.55817509 78.23722839 7.22847462
-2.32062864 80.47407532 7.54547548
-0.53988039 72.78257751 6.15907431
8.08087921 73.83291626 -6.07965755
5.59114313 77.70311737 -7.16866922
2.30925322 69.33403015 -6.00985718
6.17866611 68.14621735 -3.02032995
-0.23080246 76.49604797 7.02477884
-1.02313817 77.98273468 4.48768044
-4.09926796 77.68170166 -1.21710742
6.99949121 80.88838959 -1.37967396
6.19014692 70.95803833 1.50193393
3.93272185 67.68862915 -4.52919483
-7.73510170 80.60682678 -8.11208630
4.42051840 65.79489136 -2.25009036
4.72928715 66.51100922 1.04335701
-4.71868801 68.27581024 -4.69697285
5.69528246 77.45166016 2.67679310
-1.13935935 80.35871887 0.38745126
5.58818531 76.72457886 -4.37294865
6.18757105 70.89828491 2.34968972
-0.66413367 68.62640381 6.09519339
-2.30064082 76.17376709 5.73156261
0.89202905 80.37007141 8.13120365
5.33297300 71.18166351 -3.35391879
-6.26183128 69.81903839 0.06061596
6.75730419 75.91445923 0.82333821
5.97955322 76.30796814 1.93720293
-1.79384398 77.84409332 4.07784939
-4.95846462 70.29287720 4.69079494
5.16095400 68.38960266 -3.35069108
4.60507345 80.53052521 1.86916411
7.44613743 74.90151215 4.43740606
-5.97372007 67.64721680 3.51253629
7.02843761 73.34065247 2.03205681
-5.45959902 75.74301147 8.01613998
-6.73737049 78.61026001 5.97246504
-4.69461775 72.47969055 4.99058771
-6.05607462 75.97608185 8.21589565
0.24293599 80.72915649 -2.45936108
-2.39186525 69.07645416 5.82792425
8.57043934 79.80760193 0.14422545
-0.43351337 80.51380920 4.70345354
8.33078957 79.51601410 8.90966129
3.93395352 75.16751862 -6.91013861
-6.68472147 80.45645905 -0.60637289
7.01990843 78.21144104 4.83679676
-4.75735044 67.81400299 -5.73988056
3.87566376 64.04585266 0.81407285
-3.93630552 64.10265350 0.20149872
5.97298241 70.00109863 2.15472937
7.81239796 78.05529785 0.57765675
4.32411385 80.71781158 -6.33027077
3.48415375 73.88419342 5.39011812
-5.85437298 76.49094391 -8.52055931
0.95572907 71.13376617 -5.32889080
-9.36725616 80.27892303 -7.08827257
-6.97406626 76.50394440 -3.10641384
8.43061066 79.53837585 -4.97046041
-7.28878117 80.54107666 2.48627424
6.26647377 73.13488770 -1.20572913
-3.59095573 73.95891571 5.34098148
3.81831264 71.26441956 -4.92510176
8.39633274 80.72000122 -5.04842043
1.02537882 77.71867371 5.87025595
7.40661860 78.20507812 5.67085218
2.32886100 64.57687378 -4.28035307
2.23899961 80.29189301 8.10645676
-6.54878473 75.04276276 0.42877910
-0.81103969 76.89970398 -7.40043974
-7.13848257 78.53939819 -8.34089851
-7.35951090 80.59579468 1.46292055
-0.65234584 80.04125214 -8.42049503
-7.37125111 80.60105896 -4.35035133
-3.05506110 74.99618530 5.86402559
-0.08755308 80.51867676 8.22768211
8.15473652 76.17800140 5.99423361
6.83486557 73.01889038 -1.85025859
-0.45150340 80.51857758 2.61060786
-8.92003727 80.62999725 5.73902893
5.69589090 80.81539917 0.70085245
3.60502934 72.31857300 -5.43690252
3.11595440 77.79241180 -0.20519161
-6.27733564 74.97351837 -1.70850646
4.78170919 77.80799103 1.40821779
4.38019800 66.97866821 4.12228823
-5.89693832 80.82080841 7.85357523
2.29017973 77.30846405 6.44923973
5.49762106 73.92068481 4.52257109
-3.20546794 76.97701263 6.20501518
-2.79792213 78.93576813 7.44874144
4.00609732 67.42262268 -5.25589180
5.67671967 74.12149811 -7.91277933
-1.95092809 77.95474243 5.31786585
-3.70705128 64.04669189 -2.33575583
-6.26223803 78.15144348 4.35394478
5.51439142 77.37839508 7.94397163
0.67301351 77.88397980 -6.42200851
8.06204128 79.71817780 -0.61800051
1.09131777 66.25999451 -4.85574675
5.13791037 78.45827484 7.94454193
8.76348877 79.01561737 -6.66673565
-7.13808012 75.43083954 1.01196337
1.61455417 69.02637482 -5.93971825
-6.43239069 69.39420319 -1.20562983
6.57683992 80.58530426 -8.46648693
5.85471296 75.76586914 1.69883513
0.12429515 74.70796967 6.52514410
-8.01027203 74.09539795 -6.55160332
1.38987064 77.70390320 1.34003305
-7.42711830 76.28406525 -0.64151162
-6.00821781 73.94974518 -6.28585672
-4.81683683 67.90250397 5.01169586
-7.12068844 75.54405212 3.91357446
4.80028677 76.97937012 7.65526533
5.72707224 72.96619415 3.61606359
2.23926759 69.68900299 -5.86085606
6.41542244 78.75418854 8.47882652
-8.77258968 80.43136597 -4.01328707
-3.16242933 64.11361694 -3.02190065
-4.20428991 79.19313049 -7.70196342
