-0.37628129 -0.11754753 -0.93350840
0.26151848 -0.98815691 0.41666034
-0.62941122 -0.89418179 -0.75809979
-0.10522033 -0.12146409 1.00679791
0.70364976 0.99302232 0.69633591
-0.60867834 1.00516379 -0.00039718
0.97029531 0.97708505 -0.11510341
0.97625935 0.57175916 0.17060530
-0.99135733 0.61784673 -0.10354903
-0.75546658 0.48452684 0.66374612
-0.89464223 -0.72043383 -0.44996464
0.78730094 -0.89668804 0.63507652
0.61784506 0.98898405 0.68606341
-0.63062227 0.79486108 -0.77587640
0.88398504 0.36689216 -0.46445549
-0.72487235 -0.25446942 0.68440199
-0.26056796 0.99427420 -0.75494158
-0.09396374 -0.99242997 -0.71872926
-0.36488628 -0.99294376 -0.03097042
-0.01682988 -1.01270366 0.72565818
-0.87799335 -0.81368113 -0.41852280
0.40571380 -0.99072349 0.60741258
-0.93306017 -0.11615391 -0.34566754
0.15122211 0.02495695 0.98071396
-0.80955207 0.45954540 -0.57575405
0.82265282 0.63022208 0.57263637
-0.27022815 0.99146241 -0.02756529
-0.99368250 -0.53139871 0.01150273
0.57715058 0.98117077 -0.80672133
0.33408299 -0.71139967 0.91408288
-0.12116224 -1.00390685 0.23004436
-0.44260088 -0.58487827 0.88053465
-0.73889542 1.01283550 -0.45197076
0.12007145 0.34637415 0.98833156
-0.86100245 0.72437549 -0.47497973
0.32365981 0.68073660 -0.94110441
-0.42157248 0.82972366 -0.92117202
-0.64565635 -0.99854809 0.46704966
0.74901855 0.99294132 -0.63142323
0.34206802 -0.17763381 0.91897464
0.00659350 0.98348117 0.97721231
0.69032609 0.32758471 -0.74432707
0.72038484 0.10183647 0.71426988
-0.91689181 -0.47981173 0.32490852
0.24453148 0.98135626 -0.49713570
-0.70728481 -0.12675487 0.74371350
-0.16505751 -0.99930644 0.31557855
0.98483002 -0.47993767 0.14000148
0.94838536 -0.36959839 0.26536676
0.08392715 0.82750821 1.02110541
-1.00464189 0.51010776 -0.10266077
1.00480652 0.89976579 0.01933802
-0.89633405 -0.51365769 -0.43564433
0.52414024 0.37048420 -0.82843339
-0.80930579 -0.25185993 -0.58076513
-0.90633714 0.99992007 0.03852760
-0.67155015 -0.97353661 -0.18626687
0.13810566 1.00650847 -0.71930015
-0.75088203 0.59162164 -0.64234638
0.10540377 -0.97110248 -0.33573315
-0.95529974 0.87557060 0.22841993
-0.56441081 -0.97675061 0.33037919
-0.34624884 -0.98930871 -0.85821080
0.17829965 -0.99696559 0.08198357
-0.21692795 0.99594402 0.19431560
0.37803257 -1.01424420 -0.29064542
0.48762390 -0.18209140 0.85854495
0.40601107 0.43282157 -0.90090930
-0.82536256 -0.05961600 -0.58484018
-0.91032767 0.41043270 0.42379582
0.92268002 -0.48878786 -0.34081438
0.90782344 0.78804606 0.39501441
0.72669566 -0.97763807 0.65686584
-0.68102479 0.22858909 -0.73987770
-0.31344140 -1.01175010 0.55577338
0.86260736 -0.59884661 -0.44829056
-1.00637174 -0.96349001 0.08383691
-0.87162936 0.17018497 0.51762092
-0.89855134 0.15659161 -0.45947874
0.59486473 -1.01278281 0.07304871
0.34530628 0.21112052 -0.94180739
0.28483760 0.99080497 0.67213070
-0.56844807 0.78131008 0.82814503
0.57856464 -0.69784683 0.83174980
-0.79581857 0.49630794 -0.62032223
0.79639792 0.65203762 -0.62176752
-0.02878108 0.98915261 0.44031999
-0.15850739 -0.37164161 -0.97066498
-0.10645132 0.22359160 -1.01733255
-0.83483100 0.36863506 -0.57020438
0.95032954 -0.12795903 -0.35486341
0.98072076 0.97772062 0.03343072
0.36732295 -0.63458145 0.93347728
-0.89052689 0.12242675 -0.50434852
-0.28938279 0.26832262 -0.95798600
-0.56399131 0.93182367 0.80316532
0.11741410 -0.48504597 0.98094440
0.98893487 -0.05559515 0.17044894
0.27517006 0.99324965 -0.82480800
0.98831618 -0.22105756 -0.06081017
0.99299419 0.94708365 0.19544517
0.92168236 -0.94593889 -0.37537110
-0.85530519 -0.94779599 -0.45430860
-0.60162663 0.05105101 0.82654870
0.74681795 -0.15277331 -0.66710258
-0.50311530 -1.00017977 0.84180963
0.33167738 -1.03515434 -0.68671942
0.71954727 -0.86039782 0.68327677
-0.76592207 -1.01218820 -0.17454593
0.90446758 0.90064323 -0.42572677
-0.85992336 -0.35042050 -0.51226914
-0.01843216 0.98507351 0.99562895
0.37151799 -1.00798786 0.18141909
0.89450228 0.76221853 0.36776367
-1.00000823 -0.02634798 0.05489020
-0.84815347 -0.78976810 -0.53556120
0.84662604 -0.98768580 0.12361089
0.95027053 0.56060356 -0.25325879
-0.11252582 0.79382384 1.01439035
0.44316217 -0.76693344 0.87404382
-0.28485847 -0.59449297 -0.95369124
0.46789324 -0.08506348 -0.87473369
-0.98956418 -0.76455408 0.13399155
-0.10361404 -0.94909203 1.01190591
0.27355653 -0.24682297 0.96290398
-0.36919010 0.98646677 0.05510011
0.54895389 -1.02439415 0.55191374
0.13312969 -1.00006652 -0.59426510
0.98884463 0.13613252 0.05360904
-0.72890484 0.52524233 0.65205657
-0.32688159 0.25217634 -0.96867132
-0.04404414 -0.52421081 0.97545886
0.33330718 1.01804292 0.43198398
0.81559694 0.72208667 -0.55602694
-0.54799080 0.97809517 0.67327499
-0.78829014 1.01211226 -0.52951527
0.96027291 0.80656803 -0.32346183
-0.31976473 0.12173326 -0.98094857
0.36442843 -1.00432849 0.10642375
-0.42572090 1.02226198 0.31609136
0.89679468 0.12292305 0.43294811
0.36867973 -0.60459429 -0.93808830
-0.38414890 -0.83105606 0.92130268
0.16162798 -0.72069114 0.97967064
-0.98863316 -0.59250247 -0.15671179
0.44187856 0.78667355 0.90829206
-0.58448100 0.76720095 0.83107293
0.85995042 0.19778781 0.46124145
-0.73136818 -0.22432120 0.69740558
0.83250868 -0.60390401 0.56919980
-0.20603554 -0.77835727 1.00531077
0.56820428 -1.01846623 -0.04102068
-0.63120317 -0.98430866 -0.01393517
-0.75598490 1.02485585 -0.62633097
-0.36390379 0.99458688 -0.36469564
0.45228946 -0.84375215 0.88337350
0.81965375 -0.59744316 0.55929422
-0.80768454 0.58830613 -0.57264817
-0.80784118 -0.86206430 0.56671453
-0.98994732 -0.63419300 0.18216756
-0.99617815 0.19635105 0.03056177
-0.03117763 -0.05713365 1.00311601
0.67216408 0.16876644 0.70349658
0.98290503 0.35124046 -0.16916046
0.59594846 0.69795465 0.81416428
-0.87671459 -0.04913776 -0.49894416
-0.12399505 -0.01450222 0.98191845
0.91185737 0.78474838 -0.40269473
0.40450856 -0.90093565 0.89245021
-0.96305525 0.87422568 0.37723368
0.94377768 -0.96118349 -0.31562045
0.57469237 0.37626898 -0.82375729
-0.05556889 0.99777132 0.17228359
0.96950102 0.01883212 -0.19026065
0.32165956 0.29013300 0.94839346
0.77162802 -0.40283307 -0.66875899
0.89234400 0.99620593 -0.45540497
-0.46682906 -0.23175621 -0.87627447
-0.97416365 -0.52944916 0.22535127
-0.77461708 0.92585230 -0.62397957
-0.02214436 0.83347827 1.00018573
-0.22656527 0.68320191 0.98609483
-0.04713207 0.20019114 1.00677884
-0.38688898 -1.01720750 -0.49848539
-0.18541242 0.72789913 -0.96600270
-0.36515105 0.99840516 0.21650060
0.98589313 0.48350984 -0.16556168
-0.98554575 -0.63240325 0.12047899
-1.01649213 -0.42809901 -0.01409267
0.11645857 -1.01978779 0.08926871
-0.45232362 0.98907447 -0.63153529
0.09096933 0.99381018 -0.02511454
-0.17118303 0.13135691 0.97628832
-0.48951718 1.01371002 -0.45030200
0.39292443 -0.26231894 0.90356314
0.20162433 -1.00799990 -0.15328507
0.57675171 -0.63381493 0.81597936
1.01814353 0.09339254 0.16862950
0.66121888 0.77381682 -0.77358913
-0.60931456 1.00050974 0.48838225
-0.98865724 0.80655295 -0.18022417
-0.07319214 0.99760717 0.10249450
0.78394616 0.58026892 0.60160077
-0.96081388 -0.82469064 0.21799628
-0.72202241 0.00665465 0.66708779
0.25298053 -1.00261724 -0.88184702
0.77136314 0.93116522 -0.63573349
0.49319205 0.99737507 -0.62326753
-0.53891098 -0.99469823 -0.02949669
-0.98744702 -0.80380911 0.08860400
0.41444144 1.02166486 0.59904683
0.62155497 -0.06899665 0.76521969
-0.68144047 0.99026191 0.07437002
-0.97858727 0.31174758 0.22866051
-0.43228438 0.43231118 -0.88816094
-0.93661129 0.90120876 -0.33524331
0.34126183 0.99195182 -0.38675040
0.90593004 -0.64312690 -0.42979228
0.28829044 -0.88419747 0.96693206
-0.30021909 -0.96332413 -0.68764341
1.01331592 0.19831000 -0.16664359
-0.29478660 0.58786017 0.98935556
0.80909467 -1.00040138 0.54647839
0.44638142 1.01648068 0.24418898
0.76193178 -0.27228856 0.67797220
0.76756966 1.00809622 -0.23950522
-0.60045874 0.70516837 0.77659667
0.16587466 0.98832238 0.56162977
0.30113101 0.37177542 -0.95620430
0.91626799 0.77000475 0.49696979
-0.76765919 0.38178718 -0.66434002
-0.97946966 -0.87408721 0.14264970
0.94944155 -0.57151002 0.34038100
-0.93801677 0.21638550 0.32214358
-0.68259346 -1.00194585 0.16262439
0.74440348 0.03500334 -0.68052530
-0.98984182 -0.64486176 0.03593854
1.00153458 0.86194426 0.18080527
0.40197048 -0.99040961 -0.24965818
-0.28046978 0.54186392 0.94911647
-0.35679007 -0.36405063 0.93276441
-0.75979877 0.28208211 0.62424827
0.74775434 -0.13063760 0.66194999
-0.95008111 -0.67783332 0.22413571
0.60385847 1.01213992 -0.67263877
-0.54389548 -1.01261532 0.38314134
0.02120823 -0.98072916 0.24922132
-0.22518891 0.29599085 -0.96054137
-0.79661453 -0.58906966 0.60680509
-0.90530396 0.56180352 0.44822282
0.95366371 0.35521030 -0.28374681
-0.11240157 1.00021207 0.85374606
-0.48023644 -0.63818151 -0.87326300
0.52739322 0.99501282 0.00516424
0.57749367 -1.01632762 -0.24223118
0.50522256 0.16054139 0.85936570
-0.29249099 -0.47471160 0.94490814
0.97477782 -0.15289871 0.27147236
-0.65946519 0.81992126 0.74338758
-0.49520534 -0.02618288 0.86709881
-0.88346434 -0.06612599 0.45806909
-0.37857702 0.17825943 0.95767200
0.83533752 -0.78806311 0.59704399
0.31579065 -1.01410544 0.08287212
0.46073461 -1.00524724 -0.20259912
0.41990981 0.40821549 -0.92005634
-0.62802720 0.41527796 0.76194096
-0.29900843 0.37630340 0.94725597
-0.10566020 0.99898565 0.04020040
-0.92190039 -1.02802491 -0.11577600
-0.87194216 0.38846508 0.51913178
-0.79231691 0.98187935 -0.58967292
0.10819107 0.80667931 1.00715256
0.93523085 0.03737918 0.37242112
0.43468675 0.00667122 -0.90362477
0.27969745 0.95174134 -0.97760034
0.56320822 -0.17346381 0.82914591
0.80332339 0.77371329 -0.60127020
-0.75484157 0.98582131 0.39165506
-0.97530556 -0.15807506 0.19965422
-0.94865453 -0.66981578 -0.32967582
0.32855123 0.56245059 -0.92002392
0.99930048 0.28922692 -0.05603705
0.87816417 0.98987007 0.33768329
0.07541975 0.29424909 1.00978124
-0.72719514 -1.01713479 -0.49233919
0.60434449 -0.99677932 -0.11132339
-0.83673728 -0.44054165 -0.56872439
0.49166086 0.17322852 0.85136902
0.22829731 -1.00538552 0.94810212
0.50405812 -0.55463660 -0.87866569
-0.73616195 1.01293421 -0.08312277
0.92891514 -0.15837301 -0.35439268
0.89181960 0.22728643 -0.46371570
-0.66832972 -0.17702352 0.73068857
0.09118725 -0.98916405 0.11769184
0.38291311 0.80023074 0.93744802
0.90508795 -0.28278136 0.45463690
-0.22247596 1.02329266 -0.21518788
0.97984314 -0.41116729 0.16187312
0.36532933 0.06357235 0.91682911
-0.02683174 -0.04033795 1.01587570
0.02457742 -0.93737394 0.98817170
0.89223957 -0.57900119 -0.46253794
0.61696315 0.29713422 0.80309284
0.12205656 -0.77590942 0.98758399
0.90464115 -1.00292540 0.19606274
-0.43881634 0.21147457 -0.88886356
-0.88396192 0.22305593 0.43652168
0.18069138 -0.99840075 0.48870364
0.18464626 -0.11664323 -1.00386178
-0.97206402 0.08349849 -0.18124834
0.19878612 0.36342454 -0.97787035
0.28559780 1.02612543 -0.12250708
-0.35430625 -0.99520260 -0.36231479
-0.00059102 0.19295813 0.98984134
-0.53857839 -1.00273716 0.14886555
0.41515407 -0.40607592 0.90270698
-0.00773535 0.75645363 1.00344002
-0.60765743 -0.95492136 0.77411914
0.36248824 0.48479989 -0.94489992
0.43539718 0.76678127 -0.87841094
-0.99474454 -0.69882578 0.01945927
-0.46494383 -0.23365979 0.86736763
-0.63683450 -0.51460737 -0.77620876
0.16909245 0.98674101 0.62493885
-0.73833716 0.99965435 -0.11424584
-0.80801260 0.23017251 0.59861839
0.55976486 -1.01603568 0.16912866
0.60595143 0.57082778 0.81563747
0.98443484 0.59407037 0.21463352
-0.99409378 -0.81621301 -0.17121904
-0.45012608 -0.66413873 -0.88175631
-0.04308657 0.47217008 -1.01584780
-0.39719665 0.93389398 -0.90944624
0.73965228 -0.72727954 -0.69236195
0.00610843 -0.83105725 1.00273407
-0.63726771 -1.01167929 0.72874641
-0.35976925 -1.00432742 0.84001505
-0.20770399 -0.92765099 0.95628393
-0.90466177 -0.64348191 0.42402259
0.55029488 -0.40071657 -0.85173082
0.93677723 -0.86584586 -0.38718829
-0.98383260 0.54694271 -0.02085640
0.78720260 0.99458134 -0.33653843
-0.52092528 0.32265308 0.85683692
0.60282385 0.08055666 0.79692793
-0.08656796 1.02719295 0.64094031
0.60005546 0.41394362 0.80427599
0.92545581 -0.62052345 0.36391941
-1.00368357 0.24228437 -0.06273748
-0.01478202 -0.43865904 1.01067090
0.51262617 -0.77176350 0.86057854
-0.08233328 1.00604856 0.91647887
-0.14559914 -0.77209008 -1.00720978
-0.72499609 0.46949357 0.70372093
0.84778428 0.98452604 -0.25127280
0.86530113 0.06552932 -0.46901664
0.55741763 -0.86435270 0.83118176
0.52961349 -1.01693380 -0.64299202
0.20686480 0.42272946 -0.97415495
0.83600855 -1.01597309 -0.00836010
-0.85200965 -0.96672052 -0.53182602
0.10136013 -0.68795806 0.99559808
-0.42295313 -0.69993758 0.92553329
0.05267645 -0.97457635 -0.40258649
-0.59337139 -1.01677966 -0.41850182
-0.37867165 -0.93228692 0.91198182
0.87865090 -1.02060521 -0.05859585
0.97958422 0.16862734 0.19583306
0.87118673 1.00517917 -0.06804003
0.90664971 0.08268803 0.41363004
-0.90374887 0.44398662 -0.45799342
0.73683667 -0.98574042 -0.60612035
-0.54727387 -0.26461753 0.83429933
-0.33918396 1.00422335 0.87644756
-0.86471236 0.21691108 0.50205541
0.76315379 -0.98980749 0.60711598
0.49289721 0.99866122 -0.59293461
-0.65451217 0.69546080 0.75773513
0.33766991 0.83936322 -0.91257906
-0.65302873 0.05208634 -0.76299703
-0.98263621 0.34787497 0.22102298
-0.25961828 1.00943339 -0.44119719
-0.28109667 -1.01058543 0.41519868
0.12064322 0.99083936 0.10829844
0.05249614 0.97928292 -0.71399307
0.54864645 0.61531144 -0.80067229
0.73765790 0.98544985 0.43665940
0.78127766 -0.31859919 0.64259470
0.85749710 -0.50048333 -0.48498899
0.52895951 -0.79216242 0.88356793
0.44151556 1.01713490 0.67099595
-0.65950859 1.00391686 -0.18719296
-0.57773542 -0.58810186 -0.80540454
-0.82143152 0.13836010 0.54146957
-0.00606092 1.01170135 -0.10746428
-0.62893736 -0.63801181 -0.78065526
-0.64501512 0.22709516 0.78684688
0.98007536 0.59293264 -0.14457326
-0.10196712 0.66841245 -1.01890004
0.18236928 0.99755180 0.58440197
0.90502775 -0.98901564 -0.26237237
0.19117498 -0.99865568 0.03013343
0.84189713 -0.92521805 -0.54132652
0.41473866 -0.28068426 -0.92048752
0.91721940 0.52885234 -0.32100949
0.12199727 -0.99488825 -0.25357786
0.81266332 0.98157197 0.53094506
-0.34089518 -1.01442707 -0.22840495
-0.29889455 -0.32729834 0.96128702
-0.62498963 0.22704606 0.77876937
0.10403764 -0.15680729 -0.97959745
-0.61939228 0.88034195 0.78462005
0.02420289 -0.34365577 -1.02136159
-0.64705467 0.71658635 -0.77513039
-0.42737049 -0.98662043 0.74415314
-0.90774953 0.18783017 -0.33642399
0.59153390 0.57611835 -0.81652868
0.64727890 0.14616536 0.73911166
0.32519004 0.24637921 0.96302032
-0.78297961 -0.02300081 0.61017609
0.21020290 0.99692422 -0.50049877
0.30372393 -0.90520465 -0.95922446
0.03773895 0.99676037 -0.08710448
0.08243254 0.35350665 -1.00636733
-1.01190341 0.40883899 0.01156948
0.59939075 0.99745727 -0.05702374
0.44735685 -0.35353482 0.90445387
-0.33732709 -0.98283428 0.92339325
0.07509633 -0.01090089 -0.99084401
0.03304674 0.43442565 0.99135721
-0.86427093 -0.45824972 0.50113320
0.94257247 -0.99952710 -0.25996733
-0.99835479 0.86601901 0.15802996
-0.19253297 0.80826658 0.96798062
0.09987403 -0.55077761 1.01483548
0.15065551 -0.98874253 -0.10819947
0.24143089 0.67740625 0.95172215
0.97499108 -0.25707099 0.17139527
0.02942456 -1.00014865 0.25299498
0.18681750 -0.78893244 0.95468533
-0.22622654 0.97269922 0.13479981
0.83628488 1.01907861 0.15565763
0.96572304 -0.77119237 0.15016587
0.85935521 -0.18454748 -0.45966300
0.24142535 -0.98741144 0.32259804
0.99343276 0.66956055 0.11610991
0.32977954 -0.93978190 0.92512238
0.38361612 0.99225783 0.09421417
-0.84366512 -0.43189842 0.53591442
0.25780144 -0.01687833 -0.96245396
-0.42443296 1.01404679 0.23088922
-0.30456319 0.99007672 0.94281101
-0.42915675 -0.98507625 -0.03351302
0.04933735 -1.02055228 0.91216087
-0.03438069 -0.88585877 -1.01623881
0.97470891 -0.74100178 0.20861256
-0.56010687 0.83031440 0.80045700
0.37584123 0.47637978 -0.91762018
-0.19179770 -0.34375939 -0.96914577
-0.39392596 -1.00495481 -0.05320339
-0.36941686 0.81631535 -0.91744411
-0.24391085 -1.01812100 -0.52471244
0.46806419 -1.00915992 0.02713757
0.93783569 0.72669119 0.41903397
0.94841588 -0.38129967 -0.32923993
0.96121264 0.64956427 -0.25783241
-0.51253235 0.30512568 0.85750103
-0.38351670 -0.69128180 -0.90519655
-0.95089114 0.60646594 0.30052829
-0.97135735 -0.54973066 0.13521561
0.96710563 -0.49816406 0.15912911
0.19921178 -1.00316572 0.80708361
0.66621912 0.14115329 -0.75494576
0.98736250 -0.79415476 -0.08775947
-0.92957199 0.29515561 0.37793624
0.92280972 0.76868445 0.35657439
1.02828944 0.94472182 0.04248166
-0.68094563 1.00366938 0.07654869
-0.91334617 0.87080890 0.46901011
0.89486742 -0.08269367 -0.43901673
0.96687436 0.41085669 -0.26211220
0.16150971 0.99186677 -0.19161636
-0.35224795 -0.49285021 0.92580056
0.77301669 0.20789981 0.64333045
0.52112281 -0.62860239 -0.86460054
-0.62179649 -0.82207000 -0.78319645
0.70637631 -0.22046196 0.71729684
0.97349823 -0.23672934 -0.29552081
-0.27780369 -1.00287294 -0.57422996
-0.97462261 -0.94650149 -0.24307328
0.67619789 0.05108781 0.77566040
0.81802297 1.00918865 0.52551711
-0.06406227 0.07078875 0.99437594
0.67510629 0.04317974 -0.75676560
0.90447128 0.05335750 0.39542064
0.45301801 -0.40069404 -0.91691422
-0.78832793 -1.02305150 -0.11278473
-0.71481431 0.78401464 0.71980178
0.47392642 -0.53091317 -0.86842489
-0.89927077 0.92653567 -0.44837022
-0.26041979 0.51228017 0.94302750
0.01081775 0.59296489 -1.03653026
-0.97117829 -0.80691755 0.22448497
-0.99719012 -0.98843026 -0.11029024
-0.37285569 1.02966619 -0.82064807
-0.23895304 -0.73932135 0.95104003
0.87229824 -1.01283741 0.29807800
0.12240360 0.99624777 -0.73330486
0.46490684 -0.98061883 -0.03556106
-0.90731752 0.20197529 0.42448258
-0.67110801 0.01810714 0.69508398
0.27632302 -0.75261939 0.97589970
0.40855709 -1.01374292 0.15938966
-0.29539353 -0.48397201 0.95015800
0.13225661 0.82155746 0.99374056
0.16295981 -1.00739789 -0.22071895
-0.00188527 0.28693095 -0.98852646
-0.32110491 -0.58323509 0.98208737
-0.25970238 -1.01332390 0.52313900
-0.31691039 1.00469089 -0.65607202
0.92295265 0.53345394 -0.40442139
-0.86674309 0.65767002 -0.48665181
0.46955717 0.99051100 0.39762241
0.59562898 0.49816671 0.77912664
-0.73697352 -0.76189250 -0.68218195
-0.73353839 -0.45367309 0.69741488
0.78529274 -0.50129932 -0.62090743
0.79746652 0.44746202 0.60596335
-0.95568848 0.41409799 -0.32112110
0.90212667 1.01682103 0.04771710
0.32198766 1.01585984 0.77084935
0.85166073 0.82079434 -0.51235402
-0.74513721 1.01503980 0.35013986
-0.32769018 -0.05280023 -0.93812799
0.24343495 -1.02572989 0.49964514
-0.39153275 1.01861656 0.01336921
-0.57104385 0.86658961 -0.79202986
0.71414828 -0.76159877 0.62343132
-0.87530375 -0.10666626 0.48402953
0.95574605 0.02278651 -0.25111431
0.41334006 0.58697259 0.89310563
-0.90934479 0.26140773 -0.36966756
0.39659041 0.05766314 -0.89168048
-0.96544337 0.99071759 -0.19898216
0.89231932 0.80398315 0.45474482
-0.59869242 0.98752373 -0.21630849
0.92531967 0.32427603 0.34288394
0.24125397 0.57058501 0.95750582
-0.51113701 -0.38960117 -0.87329984
0.91304004 -0.99813139 0.36064908
-1.02685905 0.06389608 0.00655091
0.35315141 1.00631821 -0.76707315
-0.78757739 0.61134958 0.62705183
-0.30482677 0.96546513 0.39422917
-0.42741242 -0.38678637 -0.91269004
0.53226626 -0.64189690 -0.86003900
0.97273827 0.11336748 0.03448100
0.20652732 -0.72561055 0.98270476
-0.56082344 1.03659821 -0.14615509
0.80929947 -0.99055564 -0.14329186
0.90963840 0.98380101 0.16371705
0.05422772 1.00310123 0.99334133
0.66573071 1.01172197 0.00112457
-0.12789254 0.97182137 0.95481992
0.29313236 0.89565080 0.98166203
0.32212952 0.17537272 -0.93546844
-0.40532520 -0.40596053 0.93046999
0.18517308 0.75454444 0.99118471
-0.38962299 -1.00190675 0.77182603
0.56554079 -0.32659864 -0.83588469
0.80409122 0.45176345 -0.59588265
0.67262518 0.88401371 -0.73065293
-0.74522984 -0.39728701 0.67214346
0.81779873 -0.07202421 -0.62936354
0.36660159 -0.98597890 -0.01651112
-0.11931766 0.38058627 0.97843957
0.83008313 -0.99966305 -0.50344265
-0.84399247 -0.74340099 -0.50812542
-0.95313549 0.99668407 0.30909798
0.03783930 -1.00928640 0.89039934
-0.51500499 0.93414819 0.85142303
0.15242596 0.75623155 -0.98110890
-0.19144976 -0.16968153 0.98018432
0.11954942 -1.01406372 0.40007603
-0.19607928 1.00617325 -0.46766910
-0.31655747 -1.00780821 0.76846993
-0.89324510 -0.90623039 -0.45936608
0.41778824 -1.01969969 -0.23253727
0.06333382 0.66771042 0.99602902
0.98918927 -0.01510079 -0.05713436
0.24999070 -0.20469198 -0.96121120
0.53140163 -1.00896347 0.53055012
-0.89292622 0.98520744 -0.36145192
0.45306978 -0.51734835 -0.88182998
0.20005736 -1.00660229 -0.86569142
0.93567216 0.59510636 0.29272968
-0.04229666 0.95237875 1.00270331
-0.72742486 0.98531902 0.50343549
-0.25382888 -0.87540680 -0.95427620
0.03613571 -0.35857812 0.96563685
0.37298104 0.85292828 -0.94928467
-0.01123477 -0.90874457 1.00626862
0.42775759 0.99886513 -0.45580724
-0.43214452 0.99394333 0.71990025
0.58203137 0.61216885 0.79898584
-0.17381369 -1.00671768 -0.49109316
-0.81023276 -1.02324188 0.30300084
0.85716009 0.97074383 0.51489151
0.94048607 0.96280444 0.36650074
0.14704935 0.99876022 0.37537408
0.16664732 -1.02258086 -0.25411177
-0.68276095 0.61965698 0.72708786
0.96501923 -0.30667695 -0.31862041
0.81523275 -0.09473851 0.59259605
0.90776956 0.86963809 -0.41007206
0.71434379 -0.21730307 -0.69456291
0.27629632 -0.48781392 0.97060370
-0.06355873 0.14326924 0.99831903
-0.86682451 -0.30079728 -0.52271998
0.81030726 -0.83518666 -0.52899992
-0.86212873 0.51326114 -0.44517988
0.47930184 0.99388689 -0.38081187
-0.24437436 0.02807428 -0.99658298
0.01145097 0.96624494 -0.29550731
0.38545772 -0.84497988 -0.91995490
-0.48299941 -0.99034196 0.48561940
0.19145741 0.83694094 -0.98145723
0.12897229 -0.52512258 1.00185132
0.72364199 0.42011020 0.72747695
-0.95010698 0.12986778 -0.34495354
-0.59502578 0.61234945 -0.82040703
0.18891995 1.02229178 -0.50326979
-0.43634549 0.49636948 -0.89908111
0.19097538 0.09387369 -0.98767340
-0.62911308 -0.56957126 -0.76713109
0.83915150 -0.88684428 -0.53590691
0.39333329 -0.99692750 -0.75283635
-0.82212019 -0.34446865 0.57726395
-0.73351669 -0.61791134 0.67059624
0.43180346 1.00147450 -0.23572256
0.92338049 -0.46990621 -0.34417212
0.63801551 -0.19099161 -0.74749672
-0.21016790 0.00691329 -0.98437071
-0.43190819 0.37510097 -0.91594839
-0.60837686 0.11162330 -0.80452681
0.87199724 0.58247453 -0.48045942
0.26636025 -0.27361721 0.98007607
0.52578914 -0.82290304 -0.84876215
-0.87575054 0.20424275 -0.44816381
-0.65208089 0.82260364 -0.77163839
0.45193350 0.85896063 -0.90499520
-0.46983382 -0.28979737 0.88164771
-0.63344800 0.17617899 0.78118753
-0.54994750 -0.74211687 0.86301637
0.23155533 0.16581485 -0.95818222
-0.17062284 -0.24791361 0.96958363
0.30923975 1.00033498 -0.50239038
-0.98231232 -0.06039767 -0.19338979
0.91262615 -0.92621142 -0.45579389
0.22102354 -1.02045429 0.38526586
-0.93353713 0.73124337 -0.37081924
-0.88940561 0.31749579 -0.46714532
-0.80760038 -0.78389204 0.58045518
0.88217449 -0.22165184 0.50702894
-0.72790968 -0.14227434 -0.68161952
-0.28356251 0.77718377 -0.96580100
-0.52401400 0.99415010 0.38704062
-0.46389890 -0.92707199 -0.91260862
-0.84565389 -1.00631034 0.15155190
-0.64506030 0.53833580 -0.74127090
0.62313879 -1.00462377 -0.30415833
-0.07493664 0.70039064 -1.02735448
0.50385249 0.54135555 -0.86951411
0.81528890 -0.50520122 0.59761739
-0.73621392 -0.55614448 0.61218023
-0.94338119 -1.00804842 0.35415626
-0.78220892 -0.15093344 0.58980274
0.91146505 0.94200420 -0.41462946
0.13107176 -0.12768328 -0.97768235
0.76106489 -1.02191281 0.13983566
0.24030599 -0.32070538 -0.94789350
0.95770323 0.98234272 0.11564982
0.19440576 -0.69558173 0.99741089
0.30806860 0.31087586 -0.97637057
0.86849213 0.49499509 0.48247752
-0.46074924 0.48833939 0.87560356
0.78761065 0.09055536 0.66498065
0.75390065 0.71520281 -0.63085091
1.00114298 -0.21153875 0.02593994
0.64921391 -0.69103116 -0.75439727
-0.28008819 1.02062356 0.17793757
0.79394460 -0.20875446 0.60293519
-0.70196891 -0.04235307 0.70314538
0.45257419 -0.98698926 0.25743493
-0.77086270 -0.21801846 0.61789894
-0.42410555 0.40940681 0.89339805
0.11536738 0.37426728 -0.99374366
-0.97304523 0.03945189 0.08144818
-0.46415362 -0.85764188 -0.88743711
-0.73292923 -0.63406694 0.68943620
-0.70001590 0.57863963 0.74358284
0.77855611 -0.03743455 0.60183084
0.94808900 -0.34100583 0.32052600
0.40494284 -0.98582578 0.16543390
0.24305001 0.66990721 0.97290516
0.39457455 0.70298094 -0.93280697
-1.00089276 -0.09998879 0.00770910
-0.47453213 0.83655077 0.84429681
0.94175231 -0.98445255 -0.34063232
0.97979367 -0.44339645 0.08508874
-0.73392093 -0.60181046 0.70845377
0.52527535 -0.30252638 -0.85387504
0.57853651 -0.91893584 -0.81185472
0.72695804 -0.12666984 0.70706046
-0.53769624 0.87113947 0.84353340
-0.29063901 -0.97680944 0.80782378
0.15729389 0.98721105 -0.63852966
-0.99501801 0.85358059 0.02593427
0.82309163 -0.50430673 -0.58248889
0.72050107 -1.00106955 -0.18785486
0.57690334 0.99989730 0.80642974
0.75327241 0.37576500 0.70259106
-0.59921682 -0.88987917 0.85464692
0.34747046 -0.74587113 0.93891513
-0.86591649 0.59524810 -0.51952314
-0.85155380 1.02300215 -0.53204083
0.13792808 -1.00581074 -0.21237512
-0.47067243 1.00906432 0.46447298
0.95434916 -0.63823390 0.27690944
-0.67385256 -0.03724747 -0.74121201
0.47410992 -0.02331701 0.92443323
0.19822450 -0.46345061 1.00047398
-0.76612544 0.00642701 -0.64050651
-0.74990964 -0.56093472 0.65512896
0.74586463 0.78460282 0.64704692
0.62412834 0.99668509 0.02106242
-0.62139070 0.77114463 0.78009915
-0.67680669 -0.20987265 -0.76326764
0.94462037 0.85523427 0.32540554
0.24913009 1.01259446 -0.16381313
-0.80103981 0.47602999 -0.63876498
1.01628661 -0.44170889 -0.03777989
0.48979819 -0.98134303 0.68447328
0.52468979 0.38664460 -0.85625339
0.60972130 -0.61681181 -0.78210390
0.84954262 -0.96688747 -0.54928958
-0.54625595 -0.97466981 0.67201591
0.28249058 -1.02120233 -0.45661923
-0.89926267 1.01218605 0.02754767
-0.23925626 0.00150365 -1.00909591
0.80914676 0.99086338 -0.20842458
0.36601749 0.99579257 0.84806383
-0.96834171 -0.73854381 0.20832859
0.32176971 0.99906284 0.19799854
0.62130606 0.90094984 -0.80573130
0.99576128 0.99667609 -0.00741485
0.96172476 0.77157056 -0.24723323
-0.81437218 -0.29486290 -0.60292494
-0.76319170 -0.98925507 -0.41216013
-0.22585696 -0.71072775 -0.98704576
-0.64783883 -0.96061492 0.75072467
0.14327601 0.80652994 -0.99176347
0.47626448 -0.54994500 -0.87246954
-0.60615015 -0.85940313 0.80188036
0.58498001 0.39034000 0.81363237
-0.39889508 0.60843199 0.92340970
-0.95371103 -0.59576213 0.34106219
0.92048216 -0.54371476 0.41154784
-0.21453571 1.01939416 -0.06646486
0.67568183 -0.81697804 0.73217452
0.90478361 0.98241025 -0.40638509
-0.94390166 -0.11323352 -0.29709858
0.78666377 -0.68472552 -0.58265102
-0.84649670 0.96930987 -0.54907799
0.15455242 -0.99145991 0.35961470
-0.01820649 -0.07736550 0.98866844
0.58430922 0.22872792 -0.83270144
-0.19166288 1.00549400 -0.67461109
-0.01267804 -0.83658159 0.97441924
-0.93353093 0.99782228 0.24977799
-0.14347900 -0.98077869 0.40277740
0.98909509 0.53778708 0.19830331
0.80947924 -0.41111967 -0.62676823
0.95545340 0.70264822 -0.44859809
0.81284988 -0.05961993 -0.56816614
-0.12476505 0.44703478 -0.97211552
0.86960757 0.18879730 -0.50275040
0.29279825 -0.79615039 0.94263899
0.39493701 0.83861476 0.91493940
-0.95779479 0.91601276 -0.32990512
0.83497894 -0.67793149 -0.61106122
0.17418192 -0.95731348 -0.39462829
-0.30302674 0.99359667 -0.62809336
0.60724616 -0.05098339 -0.76036918
0.25501993 0.30173448 0.96748829
-0.62424684 0.98109961 -0.57320833
0.19028191 1.02081156 0.35879403
0.86779511 0.88651329 -0.47229445
-0.40910068 -0.08046921 0.90102863
-0.23745282 0.79823035 0.98819053
-0.96649730 0.18000324 -0.33758613
0.21961699 -0.24024725 0.96872747
0.92529523 1.00796235 0.20367058
-0.56775701 1.01229072 0.33756366
0.08756588 1.01008701 -0.86256588
0.32341531 0.13346756 0.94252849
0.96199203 0.59871799 0.34509084
-0.50853717 -1.01391339 0.47824672
-0.92573607 -0.89489305 0.24055286
0.82382178 0.48202357 -0.54859412
0.79067111 0.08555029 -0.58116055
0.78270996 0.34306377 0.62326539
0.51083541 1.00039530 -0.78349209
-0.71426630 0.49988171 -0.70679653
-0.49230763 0.13083291 -0.86945355
0.04494466 -1.00802815 -0.06982438
0.89480722 0.80343962 -0.45841289
0.89132023 -0.24177590 -0.44444272
0.96912479 -0.70409232 -0.24585001
-0.07674570 -0.70828980 1.01618290
0.85965419 -0.11547742 -0.46588042
-0.11225822 -0.64011663 0.97359586
-0.68366337 0.86851579 0.71509671
-0.71082687 -0.67276901 -0.69970882
0.28564110 -0.31689113 0.97859454
-0.90925980 0.68031734 -0.43450931
-0.99660802 0.06578282 -0.08048292
-0.53179848 -0.94532686 -0.81557119
-0.63786340 -0.35101995 0.78908217
0.81817985 -0.77534473 0.50016916
0.31156087 0.93142760 0.96954250
-0.71785331 0.88095796 -0.69621050
0.88042319 0.69227993 -0.52151966
0.34923762 -0.91000342 -0.94496775
-0.38024247 1.02009869 0.26717362
-0.03930897 -0.99662125 0.69783688
-0.91927385 -0.58638126 0.34201950
-0.98958063 0.54748231 -0.20083368
-0.73122239 0.14885797 0.66019845
0.63721204 0.41543931 0.78003001
-0.89570153 -0.34447211 -0.40742129
-0.09971937 -0.03737865 0.98250127
0.86119461 0.22152951 -0.50663614
-0.11745568 -0.99371326 -0.49967840
0.06550708 0.98460621 0.06099957
0.98271847 -0.32662180 0.17535153
0.94811869 0.36098567 0.35150906
-0.97403216 0.67784160 -0.27500474
-0.81241441 0.07192723 0.53223395
-0.71384585 -0.41285610 0.71882105
-0.91494823 0.11057977 -0.43198815
-0.78074706 0.80398840 0.59295940
0.99672771 0.84906983 0.11090091
0.85551560 -0.75781953 0.54197025
0.26859102 -0.03457488 0.92297494
-0.32362220 0.99128371 0.10596453
0.65076518 -0.82500941 0.76032722
-0.22776634 -0.99499965 0.27123138
0.87371886 -0.41669327 0.52161443
-0.28221196 -0.15565492 0.94593394
0.94510126 1.01751530 -0.31170011
-0.98165548 0.28444234 -0.14758843
-0.99046957 0.83487517 0.26644638
-0.89808130 0.88470942 0.42878056
-0.80457985 -0.49342877 -0.61986351
-0.06236736 0.99616605 -0.16206381
-0.22784077 0.99347067 -0.23621939
-0.85110927 0.13151573 -0.57427979
0.82878542 0.84350169 0.51340544
-0.51615655 0.99906307 0.78112924
-0.94314551 0.06332989 0.32626420
1.00097919 -0.48042598 0.05312621
-0.75400102 -0.28314528 -0.63797879
-0.99722195 -0.44761825 0.12759827
-0.19060899 1.01194894 -0.73222446
0.32501459 -0.90636158 0.95514476
0.79307723 1.01621103 0.50351048
0.80555987 -1.01121330 0.54442346
-0.31705797 0.99021792 0.89170063
0.93931031 -0.70543176 -0.22944123
0.57627785 -1.02174711 0.78528929
-0.36991906 -0.10756022 -0.94253409
-0.48664314 -0.59259290 -0.89166415
-0.09689893 0.23973599 0.99366868
-0.55048954 -0.66742998 0.84338212
0.10517917 -1.00940657 -0.37556949
-0.52186728 -0.55747038 0.82148850
0.37176004 -0.90826046 -0.93048918
0.86504078 -0.19236158 0.48035878
-0.97623777 0.23580810 -0.18516046
0.06364463 0.99326408 -0.54803348
0.84753358 -0.03967800 -0.53813767
-0.51552761 -0.97951323 -0.20403899
-0.69146764 -0.31404606 0.73091233
-0.93285453 -0.36333784 0.42715925
0.39845899 1.03345728 0.49174976
0.94599843 0.20630930 -0.36807162
0.37453258 0.04829485 -0.94705725
0.96755111 -0.06985128 -0.19539635
-0.90757787 0.70756280 -0.48196107
0.66391134 0.58172566 -0.75074935
-0.21073684 -0.97764099 -0.31853122
0.55587232 -0.23781854 -0.80798149
-0.36654499 -1.00464690 -0.51452017
0.06507153 1.00919747 -0.04591011
0.33030373 -0.96904778 -0.41312131
0.43020812 1.01200581 0.63912153
0.98213911 -0.44163078 0.15633212
-0.36508939 -0.90042585 -0.92899978
-0.99083960 0.02963767 0.01396303
0.76668572 0.05429021 -0.66335607
0.21812880 -0.70861566 -0.96245527
-0.25387987 -0.69038808 -0.94797921
1.01535165 -0.16437551 -0.09661385
0.17599265 0.99419439 0.62317979
0.82776082 -0.33876556 -0.55681407
0.41047081 -1.00787950 -0.72338021
-0.39267993 0.16708852 0.89179814
-0.19772120 0.23518401 0.99543786
-0.57929814 -0.90258020 -0.83400106
-0.00606223 -0.23197310 -0.99575508
0.03578926 0.99823993 -0.19051024
-0.12016591 -0.36050743 -0.96623206
0.25827688 -0.11506082 -0.95225382
0.57332611 0.99655461 0.62351215
-0.89630413 0.97698522 -0.47873688
0.66702688 -0.84160835 0.75505650
0.35906053 -0.80197686 -0.94777524
-0.95804024 -0.73682743 0.24165012
-1.00130451 -0.72460347 -0.16163781
0.25579417 -0.07135054 -0.95873725
0.41485259 0.57951641 -0.89583528
-0.71572506 -0.95942545 0.67706156
0.74523056 -0.74799830 0.67848969
0.44327462 0.75499582 0.89551926
-0.51152360 1.01877439 -0.52998948
-0.40512162 1.01494467 -0.67865074
0.81742287 0.88332200 0.57481086
-0.94340062 0.58876806 0.36269459
-0.26802656 0.75004488 -0.96362579
0.48768702 0.27188465 0.86164725
-0.99977565 0.48459166 -0.19725075
-0.64943516 -0.99878901 -0.28942525
0.00414041 -0.90807688 1.02757502
0.63220978 -0.44822273 -0.78096116
-0.64923096 -0.99070019 -0.47532949
0.74758029 0.13763943 0.66163135
-0.99409378 -0.81605774 0.11836959
-0.59957421 -0.38675150 0.82645476
-0.70487416 -1.01425183 0.61308885
0.35654762 0.98276502 0.19407104
-0.66695309 -0.39021510 0.74389672
-0.20527765 -0.99175668 -0.87048769
-0.91344261 0.09503625 0.42844945
-0.22313677 -0.45714673 -0.98850477
-0.93625033 -0.98454821 -0.33476064
-0.84953868 -1.02058458 -0.45736539
-0.53789151 -0.57744569 -0.84636939
0.19552720 1.03704381 0.18683329
0.32231036 -0.14031748 -0.95496893
-0.91373801 0.14196447 -0.41069287
0.09979531 0.39638370 1.00517833
0.27553937 0.98794442 0.06040743
-0.97880673 -0.27016914 -0.19806205
-0.99323606 0.95155472 0.06606019
0.71504879 -0.07751299 0.71340787
0.57707202 0.28475809 0.84513450
0.78155994 0.56674087 0.64290476
0.69439471 -0.98969465 -0.05672979
0.99441648 0.74959588 -0.13612461
0.88189900 -0.70672297 0.43502787
0.84886336 0.11515070 -0.54725945
0.92582893 0.11619011 -0.36082214
-0.43775818 -0.60261798 0.87160420
0.49769980 1.00516450 0.85296214
0.02454054 0.94035178 -0.99728680
0.44119611 0.46576682 -0.89029980
-0.95866406 -0.31626368 -0.27869794
-0.11567221 -1.03540611 -0.59502685
0.64221406 -0.97395730 -0.27783939
0.85307777 1.01230884 -0.03995850
-0.30841926 -0.20401646 -0.91888571
-0.22938113 0.80539685 -0.95731091
-0.25295326 0.87665832 -0.96425021
0.59982789 0.55103129 -0.78228676
0.48386440 0.03104443 0.87238622
0.54154694 0.99336874 0.13485862
-0.92082584 -0.85951549 0.38742772
0.96667504 0.16193096 -0.26197335
-0.42783567 -0.76518452 0.90665865
-0.98733449 0.61286306 -0.18647598
-0.91502309 -0.62008280 0.33965561
-0.77175415 0.83243519 -0.65897596
-0.76943552 -0.14692029 -0.62055039
-0.49676934 0.07370076 0.85128510
-0.13315164 -1.00916731 0.10320211
-0.24741641 0.97001415 -0.94777787
0.43015790 -0.28360745 0.91157758
-0.97367644 -0.23089898 0.13499478
1.00611508 0.52176666 -0.10385039
-0.62249875 0.96836168 0.38824233
0.52256119 -0.08915990 0.85512400
0.73446023 -0.39865309 -0.69946086
-0.88076019 1.03697979 -0.32848346
0.34453768 -0.98881400 -0.22356217
-0.65601218 0.38806403 -0.78892899
-0.88827872 0.56946975 0.40452710
-0.76396048 -0.80723500 -0.63138473
-0.98403192 0.63622308 0.21684231
0.52418947 -0.99328363 -0.83283985
0.75677168 -0.30466667 -0.66158092
-0.48614356 0.92698193 -0.84354424
-0.86775196 0.88463575 -0.49941289
-0.18050589 -0.58828026 0.98840153
-0.86550188 -0.72892880 0.50001419
0.96193659 0.21185310 -0.13210833
0.35346389 1.01927710 -0.06048626
0.95741820 -0.62210667 -0.26879826
-0.56876135 0.14693300 -0.79627979
-0.35718101 0.97199637 -0.48531443
0.19363387 1.00430691 0.68811226
-0.96001136 0.86669946 -0.28666863
0.16602373 -1.01587355 0.10528776
-0.57602108 -0.12483349 -0.76954460
0.97107840 0.25889444 0.17199481
-0.31535807 0.98718458 -0.61674190
0.91522777 0.35839319 0.45069525
0.96637356 -0.97922045 0.04640965
0.65097225 0.76212490 0.78215945
0.85379648 0.86842763 -0.48854628
-0.01833102 0.99517268 0.05469969
0.77123153 -0.99310833 0.33503965
-0.04356155 -1.02025425 -0.39399037
0.73819172 1.01548147 0.21446729
0.06068787 0.53136331 1.01182497
0.90558827 0.85415500 0.40946782
-0.66628432 -1.01196253 0.01151232
-0.62391841 0.15155888 0.77062786
-0.62249160 -0.97242111 0.71475005
1.00272536 -0.91410828 -0.01993596
-0.73653841 -0.08464170 0.66646826
0.21395770 -1.01342928 0.22516003
0.91151500 -0.60949576 0.43609664
0.72135866 0.93260628 0.71376133
0.14968807 -0.98714495 0.19836600
-0.11244915 -0.99955654 0.75578940
0.59173524 -1.00017953 0.34050539
-0.26604521 -0.24713597 -0.96875918
-0.82186031 0.41702455 -0.52028573
0.64624798 -0.24051800 -0.72622299
0.47230580 0.51525104 -0.87776053
-0.04599335 1.00679910 0.53938985
0.10130323 -0.96616364 0.97504997
-0.71640527 -0.30750096 -0.67916703
-0.95247066 -0.26293519 -0.30888155
0.85191321 -0.67124188 0.50604761
0.12577841 0.99871844 -0.43981183
0.24048698 -0.98768449 0.33458135
0.89094770 0.21502481 -0.46274313
0.41475213 -0.89200127 0.92774332
0.40842652 0.98280787 -0.72400939
-0.81005931 -0.45979384 -0.59062302
-0.51437163 -1.00788510 -0.70895076
-0.69247544 -0.44265428 0.69978356
-0.61391151 -0.30425602 0.77475095
-0.53754425 0.99841475 -0.13661143
-0.54963386 -0.06989289 -0.85427427
0.94589305 -0.91619051 0.34774613
0.60112417 -0.43410528 -0.79188979
-0.91108477 -0.25928915 -0.47726473
-0.83345175 -0.19797164 0.55107296
-0.49009424 -0.88625932 0.87959993
0.09065588 0.04182888 0.99536836
-0.91043591 -0.97984821 -0.41449723
0.42793232 0.98515737 -0.42322236
0.00067491 -0.04760669 1.01172507
0.49997765 -0.66143924 -0.85486758
0.92985177 0.59929675 -0.31977579
0.18979226 -0.90979725 -1.00041223
0.95039952 -0.63986027 0.31668988
0.87632334 0.80859214 0.49648064
0.59811509 -0.17778836 -0.79934692
-0.33571565 0.40704280 -0.92960024
0.73548698 -0.98450810 -0.63364339
-0.65722179 -0.65223485 0.75559938
-0.96240127 -0.56472808 -0.19517739
0.46554491 0.90338892 0.89215338
-0.59843850 -0.94890749 0.79011095
0.04001787 0.50543875 0.99967325
-0.79885280 0.98246652 0.19707565
-0.30340368 0.98547715 0.93484712
0.62701666 0.69028395 -0.77882206
-0.91560459 -1.00185382 0.26305905
0.04293646 -1.00349224 0.29584345
-0.90775371 -0.16678160 -0.46356580
-0.37913442 -0.96860850 -0.07187168
-0.60632575 -0.84721166 -0.80099821
0.09652077 1.02494705 -0.44449630
-0.38806999 0.85381138 -0.91586888
-0.96570814 0.30606601 0.22996445
-0.03077483 0.99906117 -0.23000799
-0.74823415 0.97760826 -0.16032715
-0.77353954 -1.01081204 0.60084736
0.51190245 0.30386338 -0.84155297
0.34577277 -1.00392079 -0.92157257
-0.96449971 0.02334517 0.27454865
-0.98079169 -0.29152974 -0.14721461
-0.99314713 0.86789256 -0.16053392
0.25028324 0.80166441 0.97118056
0.88658047 -0.15773828 0.44527793
-0.82535160 0.50003445 0.56218278
0.71533513 0.78419721 0.73498237
-0.02611741 0.88966358 1.00673771
-0.32523823 -0.80715495 -0.94674850
-0.48708522 0.95267880 0.86839545
0.39387336 -0.57724166 -0.93802190
-0.68446493 0.95764953 -0.71950924
-0.10040953 1.00005257 -0.22506638
-0.22506626 0.45945984 -0.95282376
0.43137500 -0.47105214 -0.91071033
0.87227607 0.50866026 0.49588755
-0.77588487 0.66985297 0.63106370
-0.45504943 -0.91695213 -0.85968649
0.35850629 -0.99531817 0.83269739
0.93602800 -0.83066612 0.34484592
0.93527818 0.13876067 0.30392927
-0.64670217 0.83034629 0.74759066
-0.92381406 -0.92901278 -0.33342916
-0.91427767 0.78233886 0.40324074
-0.67943072 0.84547073 -0.76048601
0.63233745 -0.97857380 -0.76496029
-0.20554543 0.41487905 -0.97215354
0.87805188 -0.18795165 0.44274911
-0.28563684 -1.00860655 0.80608737
0.60573494 0.99883950 -0.52028859
0.13959092 -1.00115812 -0.12461524
-0.97490120 0.83927339 0.23521222
-0.30605444 -1.00988305 -0.23798528
-0.87078559 1.00207996 -0.00450575
-0.40109387 -0.92564410 0.89534891
-0.27849388 0.91622388 0.94693005
-0.89844847 0.72074801 0.44998491
-0.95752811 0.95013338 -0.17411591
-0.97839952 0.83465868 0.25091150
-0.19224833 0.02999204 -0.97644675
0.75196683 -0.99467057 0.23941295
-1.00562930 -0.57502490 -0.14918363
0.75080204 -0.85293639 -0.67227507
-0.95633984 0.03635609 -0.30437565
-0.59989941 -0.01327831 0.79537082
0.65241706 0.78359437 -0.76170278
0.29158923 0.11262932 0.96459234
0.96741748 0.32740098 -0.24445437
1.00684595 -0.21876873 0.04052555
-0.27349806 -1.03926396 -0.33512926
0.23124073 -0.99316823 0.04921785
-0.13562091 -0.69494319 -0.97993934
-0.88257086 0.97853076 0.43435845
-0.79478228 1.03296256 -0.53910220
-0.41380817 0.79288119 -0.89145541
0.13115209 -0.04608264 0.97784126
0.99900985 0.86661315 0.08394602
0.25187343 -0.99719316 0.87016523
0.79259944 -0.97837496 0.06062175
0.87901807 0.40911478 0.49753693
-0.82740331 -0.52420145 0.56640387
-0.22965306 0.05154965 -0.95361531
-0.76730919 0.85525203 -0.65977788
0.16953017 -0.99939209 0.72726965
0.14257291 1.00480831 0.70754445
-0.97862411 -0.84502304 -0.21653089
0.48164311 0.45910069 -0.86230290
0.94863403 0.21975605 0.24963377
-0.99168432 0.16830724 0.00336780
0.50924397 0.95858657 0.30574325
0.18708311 0.99712348 0.71464729
0.87201560 -0.45652893 -0.46467602
-0.60682321 0.54307616 -0.80730093
-0.30379382 0.75125933 0.92791593
0.81328833 0.90954661 -0.58306110
0.17443803 1.00018585 -0.70031440
0.90691078 0.12094529 -0.34194013
0.61606705 -0.44932547 0.74685514
-0.86947060 -0.75302333 -0.47496024
0.83467698 -0.66416919 0.54121566
-0.55919635 -1.00161803 -0.64234042
0.26640525 -0.51808488 -0.95949507
-0.61497951 -0.95515782 -0.76088810
-0.02856343 0.48564333 0.98725796
0.38158762 0.98057520 -0.55616796
0.95337462 0.52600825 -0.32442659
0.30967245 -0.92169106 0.95593643
0.06453940 -0.33523706 -0.98813462
0.02627337 -0.50708187 1.03723860
-0.23043332 -0.99009162 -0.08245956
-0.29244250 0.99299109 0.20593491
-0.94219542 -0.37721267 -0.34142268
1.02518022 0.59526390 -0.02047522
0.23288822 -0.88168889 -0.98405838
-0.10582063 0.99686068 0.48848900
-0.91444314 0.02444367 0.40018913
0.10238215 0.49371356 -0.99756229
-0.52763116 0.63151693 0.82880867
-0.96366107 0.53631943 0.25491673
0.03497908 0.61782581 0.98609567
0.09614929 -0.04145031 1.00724328
-0.83674145 0.09608670 -0.57118678
-0.02326462 -0.92714560 1.01313257
0.28593391 -0.86358929 -0.99636066
-0.97167933 -0.88820118 0.36465192
-0.56639457 0.08314402 -0.80233896
0.09131385 0.98797458 -0.40663421
-0.78290975 -0.95614910 -0.61699986
-0.93622458 -0.63589042 0.36339581
1.01164889 -0.44023222 0.19437513
0.09078716 -0.40085021 0.97399700
-0.96499074 0.24039537 0.26683295
0.98490131 0.15684274 -0.25232479
-0.87927186 0.78901768 -0.50276220
-0.56061959 -0.06441186 0.82164609
0.02960668 1.00035810 -0.45506638
1.03408790 0.27180704 0.00179419
-0.98424661 -0.37260738 -0.08132835
0.82340372 1.02494884 -0.17558520
-0.89237964 -0.05038274 0.45246986
-0.49006444 -1.00360620 0.37164932
-0.56097925 1.01364517 0.80592430
0.69334805 -1.00378096 -0.57895529
0.65362966 0.91338295 -0.73983467
-0.53909731 0.70827442 0.87044203
-0.87377882 0.97066259 -0.48510993
-0.93011248 -0.96101052 0.31597745
-0.86375153 0.46833250 -0.47265685
-0.93495810 0.02265921 -0.33505511
-0.96910775 -0.80467534 0.24994364
-0.97603023 -0.93291056 -0.23758300
0.19425990 -0.90121883 0.96278369
-0.76727927 0.38696489 0.63518953
-0.04782737 -0.77744365 0.99715114
-0.98596668 0.37198922 0.13864370
-0.06232766 0.78540796 1.00943875
0.27580833 1.02248788 -0.95588779
-0.00744291 -1.00991023 0.38633603
-0.92643178 0.95497423 0.37473571
-0.87356842 0.30887690 0.47407648
0.12998526 -0.87024713 0.98949850
0.46337253 -1.01464689 0.13794677
0.38031700 0.99642253 -0.85839427
-0.63196540 0.37403721 -0.78810203
-0.63624716 -0.14294006 0.75542974
0.69120944 0.99886197 0.52930105
0.58149195 0.16835865 -0.76978028
-0.17866001 -1.00239444 -0.92558420
1.00196218 -0.35557026 0.01704604
-0.57289958 -0.71548986 0.81256104
-0.62254977 0.05142150 0.76408064
0.98603284 -0.86210853 -0.05448741
-0.40460387 1.00187409 0.47864845
0.27417257 -0.65203530 0.96753252
0.46344191 1.01419389 0.81772137
0.47434840 -0.28678513 -0.86857665
-0.66920018 0.63164771 -0.76847613
-0.87398303 0.05991576 -0.50476050
0.91227162 -0.18174514 -0.40193072
0.27928245 -0.99549866 0.88457084
-0.55786121 0.52457625 0.85148656
0.31462401 -0.14005573 -0.95364094
0.82156336 0.63674015 0.59218860
0.48808920 0.11637475 0.84944308
-0.97084749 0.81995964 0.16405287
-0.13072692 -1.00607574 -0.54038751
-0.93854153 -0.78601766 0.33970928
-0.67824876 0.97562218 0.70336401
0.18528283 -0.77562219 0.98423779
-0.09261489 -0.98390406 -0.05003235
-0.60899317 0.43198696 0.81645763
-0.15438102 1.00434911 0.61314690
-1.00951254 -0.17979054 0.08930040
-0.52789378 0.72982186 -0.82852876
-0.77857554 0.96734881 0.62583971
-0.95590365 0.78349560 0.26685956
-0.17468558 1.01425970 0.69476032
-0.90148473 0.12838088 -0.42179942
-0.14208513 -0.99178982 -0.73810971
-0.99550605 -0.31969443 -0.18169534
0.47047764 -0.49174756 -0.88677716
0.94575858 0.52520174 -0.37162444
-0.04320757 -0.99789476 -0.99813020
-0.67230415 -0.37359780 0.74334049
-0.01551275 0.98805511 0.27663735
-0.58302987 -0.20565583 0.78807163
-0.89429128 0.31674457 -0.42950052
0.64339900 -0.81278580 0.77262902
0.93476403 -0.52881324 0.38015214
1.01905835 -0.76147425 0.05585765
0.79361153 0.36201015 0.62984908
-0.23836567 -0.99545336 -0.62240076
-0.15229592 -0.96676856 -0.97690368
-0.87945259 -0.34680957 0.50018752
-0.82570505 -0.64918923 0.57243764
0.63951266 0.99000996 -0.29198694
-0.59139121 0.78111416 0.77557409
-0.83411157 -0.01144485 -0.51893175
-1.00059211 0.37536728 0.12627615
0.98030448 -0.87034607 0.00198710
0.32714501 -0.67931229 0.94621563
-0.78157520 0.77906460 -0.62313676
-0.33017018 0.28661975 -0.93832469
0.97155082 -0.21498255 -0.00728542
0.70749092 -0.97937232 0.06812733
0.92720878 -0.97781533 -0.37128216
0.95786273 0.82464570 -0.12698710
-0.77752662 1.02771699 0.00622274
-0.93043888 0.75048041 -0.44745353
-0.67396820 0.10875431 -0.70984674
0.32461202 1.01215637 0.87633038
0.31466016 -0.31642413 -0.96470475
0.78656161 -0.23321277 -0.58786213
0.54574418 0.54273403 -0.84165907
0.95520425 0.55972272 -0.30882072
-0.21765096 1.00025260 -0.56349337
-0.15371236 -1.01548779 -0.86907434
0.29933384 -0.97197169 -0.76263702
-0.41861200 0.99364841 -0.77765334
-0.61562622 -1.00142062 -0.45899650
0.64589345 0.63917333 0.75735211
-0.48009357 1.00806677 -0.27460235
0.89107132 -0.13683264 -0.48715940
-0.84151793 -0.98592013 -0.16060734
0.80123353 0.77711272 -0.60405529
-0.52973247 -0.98441595 0.79466915
-0.10913300 -0.57719713 -1.02310669
-0.94471622 0.51695091 -0.31508490
-0.01505117 -0.97881502 0.63338876
-0.79376400 -0.87036818 0.64843011
-1.00417054 -0.59423715 -0.06091709
-1.00099492 -0.29847735 0.02039144
0.50373244 -0.70213181 0.84437644
0.38796157 0.89399034 0.94119310
0.24494451 -0.99366295 0.90385914
-0.86336029 -0.37723321 -0.53016663
-0.72502744 0.74410522 -0.70316887
0.43776479 0.99153483 -0.30388248
0.80356097 0.98370403 0.09690114
0.09941044 0.33639064 -0.98945713
-0.87337923 -1.02638745 -0.22140858
-0.62890637 0.09957206 -0.80212402
0.87982571 0.54218858 -0.46176389
0.05440342 0.99438274 0.10211363
-0.85962665 -0.99407166 0.37165979
-0.43139032 -0.03539567 -0.86152983
0.23994248 -0.99991560 -0.16907790
0.91562879 0.27568731 0.35827503
0.95981979 -0.20853037 0.25537398
0.83574486 -0.98048484 -0.10961072
0.49099305 0.47673047 0.89830184
-0.01127311 0.01303862 -1.00760758
0.45976105 -0.67782634 -0.89027703
-0.04789665 0.74168658 0.99813938
-0.31212860 1.02007604 0.82894039
-0.92745578 -0.67546576 0.31349984
-0.96015143 0.56885970 0.31341374
0.45227376 0.12687638 0.88820529
0.77768302 -0.98998958 0.32290864
0.93234420 -0.65916181 -0.37331247
0.40342522 -0.34240267 -0.92377043
0.56204784 1.00599515 0.69559264
0.30187434 0.99897105 -0.61828268
0.43146539 -0.24380560 -0.92130077
-0.74564302 0.31854156 -0.68321717
-0.54393017 -0.55130547 -0.85558093
-0.89218462 -0.14376992 0.44560379
0.73092318 -0.31708357 0.69465113
0.77944672 0.98055583 -0.21853191
0.92838395 0.86218625 -0.42284459
0.24155480 -0.21840136 0.96846151
-0.66642809 1.01757288 -0.71765685
0.68616116 -0.71181190 -0.70711708
-0.93028486 -1.00641501 0.32434794
-0.38882619 1.00613010 -0.35254470
0.88877153 0.66050714 0.46097258
0.90878546 0.25443295 -0.42421857
0.44573861 0.00073085 -0.86017251
0.63926363 -1.02132177 -0.45008409
0.88973773 -1.00612497 -0.46290383
0.94912314 -0.86638343 0.29422057
0.16425604 0.01620042 -0.98309827
0.50507581 0.01404067 0.87162769
0.24088292 -0.82368803 0.94902349
1.00797844 -0.37261605 0.13291763
