0.07961096 0.13792473 -0.00920191
0.00569775 0.11728480 -0.00217147
-0.06675605 0.12118027 -0.02035812
-0.05154300 0.12774621 0.00155079
0.02252128 0.06626531 0.00417105
-0.06138540 0.07486048 -0.03320230
0.02671037 0.05562820 0.01972951
0.02514946 0.05760416 0.01566387
-0.08538287 0.08579782 -0.00215138
0.00384305 0.09533118 -0.00814907
0.05934460 0.08401539 0.00062847
-0.05948309 0.11344982 -0.02241614
0.03140743 0.12896025 -0.02926023
0.06907251 0.10156532 -0.00495293
0.06510598 0.08802334 0.01307205
-0.03615338 0.09311768 0.00076485
-0.03824124 0.19248898 -0.02226435
-0.03801326 0.15660153 -0.00182019
0.01303847 0.05862172 0.02639295
0.02450566 0.06728835 -0.04309604
-0.04536391 0.10767265 -0.01847444
-0.07042202 0.05634688 0.00321554
0.07489925 0.08243283 -0.00254044
-0.07071826 0.05599460 -0.01303892
-0.05493357 0.09467216 -0.02216963
-0.05092085 0.15157919 -0.02919634
-0.08708502 0.06229545 -0.03606836
0.04691096 0.10315704 -0.03209573
-0.06762683 0.07361402 0.01876333
0.04540415 0.11843974 -0.03609613
-0.03282846 0.13197301 -0.00180384
-0.05031561 0.07757567 -0.03426116
-0.01116302 0.06756666 0.00619872
-0.08683158 0.14120866 -0.00465936
0.08903112 0.14209767 -0.00951594
-0.03324985 0.05580170 -0.02845341
0.07980933 0.08584280 0.01925934
0.02327581 0.05250434 -0.01403540
-0.08422442 0.07751449 0.00553840
-0.02430874 0.05725775 -0.03587176
0.03566339 0.09740366 0.01642297
0.02936409 0.07711458 -0.03563800
0.00455075 0.10705859 0.00059047
-0.04216691 0.06819798 -0.03773841
-0.06654108 0.11745442 -0.02102256
0.02575919 0.05275332 -0.00419361
-0.03628119 0.05704712 0.01154584
0.05901638 0.11477676 -0.02772330
-0.06741469 0.11936250 0.00722815
-0.04845614 0.17606670 -0.00000316
-0.01388627 0.05650495 0.01610342
-0.07229707 0.15843207 -0.02015312
-0.07736539 0.11426611 0.00548360
-0.07453615 0.09123133 -0.02371342
0.03800493 0.06699881 -0.03963388
0.04199133 0.05429818 -0.01044656
-0.09470902 0.17212541 -0.00665541
0.06691826 0.12757599 -0.01837124
0.04548558 0.06734063 -0.03710441
-0.08657984 0.05961590 -0.02145432
-0.03236027 0.07079957 0.02234052
-0.09393164 0.15368180 0.00120176
-0.03471047 0.07170483 -0.03527636
-0.05372759 0.06409109 0.03592366
-0.02681827 0.16456920 -0.01615002
-0.06507261 0.05186308 0.00068164
-0.08916044 0.16521712 -0.01619882
0.04493228 0.12224901 0.00046476
-0.09400065 0.14143027 0.00262491
-0.00531255 0.07121080 -0.00940848
-0.08345855 0.05747463 -0.02959031
-0.04803682 0.10517513 -0.01802519
-0.06956295 0.11119301 0.00921874
-0.06539445 0.11908006 0.00551513
0.01193441 0.15733077 -0.02115418
-0.09527382 0.18077588 -0.00138579
-0.08049352 0.05686173 -0.03333938
0.08179390 0.10065712 0.00050346
-0.04300373 0.16017216 0.00153964
-0.05571133 0.12542537 -0.02195210
-0.06194461 0.16037472 0.01038986
-0.04458519 0.17747553 -0.00209816
-0.08885178 0.14630389 0.01704556
0.03485583 0.10777089 0.01210927
-0.07369218 0.06208912 -0.01400376
0.05065096 0.06668165 -0.03193467
0.03400436 0.05400303 0.00952988
0.05006746 0.14721480 -0.01037607
0.01871120 0.08165845 0.00753949
0.05386752 0.07271919 0.02265966
-0.01497194 0.09116296 -0.03233116
-0.04880271 0.05973952 0.02118959
0.02156077 0.09848604 -0.02564671
0.02650439 0.06015324 0.02357198
0.02285287 0.12667300 -0.02809194
-0.05545464 0.05948229 -0.02052351
-0.07743597 0.17551656 -0.00049011
-0.05038400 0.08611336 -0.02719187
-0.06878551 0.17693463 -0.01167575
-0.05555983 0.13318525 -0.01967401
0.02478768 0.10309319 -0.01192777
0.00194113 0.09721480 -0.02626804
-0.06158306 0.16531283 -0.02919909
-0.03305589 0.09592375 -0.02129018
-0.05842103 0.14600039 0.00606945
0.02576501 0.10317623 -0.00772425
-0.01255511 0.06831768 -0.02530595
0.04655265 0.07856132 -0.03079593
0.02296359 0.07365026 0.01422448
-0.08145840 0.16643982 0.01213460
-0.07741566 0.11329519 -0.00097829
-0.09876610 0.14055322 -0.00548825
-0.04014446 0.14287665 -0.03192721
-0.07007352 0.17639089 -0.02086553
-0.04949636 0.09930873 -0.01638041
0.01971482 0.12625147 -0.03191261
-0.00671018 0.08360253 0.00032618
0.01450569 0.09461174 -0.01525746
0.05941639 0.05581163 -0.02494299
0.07104978 0.06046584 0.01278006
0.02685724 0.08234451 -0.03425544
-0.08320808 0.09352177 0.00811038
-0.07184444 0.10206271 -0.02318926
-0.02121718 0.09583481 0.00171833
-0.07261036 0.17282969 -0.01761811
-0.02464290 0.05442075 0.01467508
0.05485315 0.12220134 -0.03027407
0.01104106 0.15664685 -0.02327266
-0.05796364 0.13503358 -0.01486024
-0.02100435 0.14415817 -0.02319071
-0.04398803 0.09225018 -0.01747829
-0.08148466 0.16748092 0.00831600
0.03039898 0.13788681 -0.00264716
-0.06423917 0.14491864 -0.01195638
0.03303904 0.13571969 -0.03361936
-0.08259468 0.16803575 -0.01135302
-0.05450555 0.12307061 0.00497091
0.04487427 0.08969893 -0.02646774
0.03303667 0.05645794 0.00057167
-0.00935309 0.06706881 0.01055883
-0.03485576 0.18330096 -0.00673351
0.01291137 0.12504198 -0.03493224
0.04046607 0.07897204 0.00373431
0.00083653 0.08568465 0.00217148
-0.01252362 0.05487980 0.01380246
-0.04719398 0.06420735 0.03296584
0.04793248 0.09255117 0.02417704
-0.03465240 0.06643148 -0.03674891
0.07429226 0.06301929 -0.00140940
-0.05113181 0.06161997 0.03536503
-0.08142263 0.07513554 0.00905550
0.03080726 0.10585661 -0.00829010
0.01496398 0.11282999 -0.02366968
-0.02777303 0.14942023 -0.04090672
-0.00668152 0.13419643 -0.02957243
0.05807667 0.06094482 -0.02505152
-0.03466344 0.19399059 -0.02225106
0.02704591 0.08493567 -0.00328096
-0.06978884 0.06035368 -0.02302316
0.05308144 0.07804486 -0.00403058
-0.02405943 0.16717798 -0.02154973
-0.04427766 0.06739095 0.01588234
-0.08152568 0.14718623 -0.00446412
0.02307646 0.07551830 -0.03878075
0.03275651 0.05518703 -0.01330933
0.05037436 0.07417990 -0.01239719
-0.08303183 0.16588014 0.01367245
-0.03125202 0.05860849 0.01243590
-0.02686699 0.12857120 -0.02263891
-0.07358805 0.08692175 0.01387081
0.01416745 0.06793798 -0.02011777
-0.05055045 0.06085967 0.01707994
0.01907990 0.12041395 -0.01243266
-0.03786595 0.05953325 -0.04187269
0.01972305 0.09651619 -0.00993584
0.01632909 0.09515588 -0.01731331
0.05106028 0.13669664 -0.00489272
0.02211951 0.12423839 -0.01391101
0.06697427 0.10912906 -0.00513963
-0.01667321 0.11699216 -0.02497637
0.06709855 0.08290296 0.00268863
0.05377568 0.09561460 -0.01255734
-0.01280216 0.06740622 0.00502989
-0.09317566 0.18078600 0.01282312
0.04521259 0.13295157 -0.00195394
-0.02530462 0.11775089 -0.01465337
-0.08458209 0.07496028 -0.00825036
-0.04281485 0.11308249 -0.00454743
-0.06897664 0.06934570 -0.03021201
-0.08617345 0.16677372 -0.00323853
0.06862870 0.12115259 -0.01920035
-0.07245176 0.14184475 -0.00314274
0.00469286 0.14778693 -0.00791075
0.06003927 0.13128027 -0.01380362
0.06641247 0.11774643 -0.01612085
0.04938988 0.05556200 -0.01943303
-0.09832634 0.14931372 -0.00355058
0.01142835 0.08423340 -0.01997905
-0.06587499 0.17715803 -0.01699194
0.01345770 0.07539802 -0.00959980
-0.08006860 0.07711031 0.01142444
0.05271889 0.05277202 0.01972673
-0.03326294 0.18641675 -0.01865103
-0.07553281 0.06423744 0.01052635
-0.05543902 0.16274573 -0.00631053
-0.05987819 0.10197506 0.00959266
-0.08663485 0.09266976 -0.01021666
0.04581563 0.09728001 0.01531783
0.07675620 0.12168629 -0.01162393
0.04815482 0.07961699 -0.00327955
0.00210932 0.10292369 -0.00304052
-0.04620987 0.11630092 -0.02463948
-0.03014115 0.15530419 -0.03381648
0.06603355 0.12211152 -0.01317037
0.04451955 0.14735468 -0.02978977
-0.07513160 0.06943075 -0.02466535
0.03958710 0.06012823 -0.00536646
0.04923261 0.07834989 -0.02707404
0.06939774 0.11244013 -0.01426336
0.03069096 0.06275460 -0.04795618
-0.07467756 0.17414415 -0.01017488
-0.04964936 0.16631655 -0.03286594
0.07149904 0.06570259 -0.00376555
-0.03470637 0.05609731 -0.04212333
0.02332082 0.05840828 -0.02294506
-0.03549442 0.06119175 -0.04113401
-0.05382654 0.07729567 0.02302180
0.06113535 0.10627277 -0.01157250
0.04003423 0.08643235 0.03083568
-0.06245870 0.12511596 -0.02245200
-0.06288883 0.05288956 -0.00540201
-0.02580049 0.05905255 -0.02801772
0.03325916 0.07808468 -0.03319331
-0.06309406 0.12430594 -0.02249012
-0.04334283 0.06428532 0.02532532
-0.01911728 0.18014145 -0.02549313
0.05503304 0.05642236 -0.02527197
0.01652205 0.07955209 -0.00675262
-0.01992629 0.07617666 -0.03559434
-0.07109644 0.05966515 0.00991525
0.06258276 0.11941805 -0.02040939
0.00230703 0.08625231 -0.02142792
-0.04004825 0.18280190 -0.03717571
-0.05812575 0.16764690 0.00841152
0.05985399 0.11997718 -0.01042110
0.07860811 0.11320828 -0.01412663
-0.07301744 0.17352906 -0.01425057
-0.06390837 0.14300230 -0.02254907
-0.04639320 0.14591986 -0.00247994
-0.08547903 0.16121455 -0.01671703
-0.01659629 0.13080138 -0.01855000
0.01423064 0.06625181 0.01185233
0.01481585 0.07362537 0.00186101
-0.06373379 0.16975656 0.00602872
-0.04522558 0.13212088 -0.02754183
-0.01601923 0.05723590 -0.00963504
-0.04039232 0.09246530 0.00539025
-0.03300018 0.17203078 -0.00001841
0.03744080 0.07513353 0.01068997
-0.06231797 0.15609610 -0.01003320
-0.01680177 0.07662304 -0.03179129
-0.01309385 0.06218208 -0.00633200
0.08295570 0.13094303 -0.01610120
0.01760852 0.12885855 -0.00751276
-0.00552038 0.12243317 0.00018541
0.06053253 0.13849336 -0.02190801
-0.05815409 0.13427164 -0.01238639
0.04443528 0.07648973 0.00563625
-0.01941238 0.08714332 -0.03337683
0.04288564 0.07297397 0.01312069
-0.01293229 0.07449943 -0.02942447
-0.09769510 0.14401731 0.00576680
-0.08235283 0.06843001 -0.00085887
-0.00929993 0.16207674 -0.01080717
-0.07195371 0.08936240 -0.02741621
0.01448819 0.07467969 0.00213794
0.06689733 0.07487483 0.02486106
0.02631398 0.15325680 -0.03125279
-0.07898000 0.10936254 -0.01752273
0.08358481 0.09596519 0.00158604
0.04972105 0.05853018 -0.02550874
-0.01865657 0.11401307 -0.00459170
0.00998774 0.14699617 -0.03065328
-0.00385343 0.09014156 -0.03201275
0.04027038 0.09304220 -0.00580185
-0.07632702 0.14159279 -0.01013908
0.00797636 0.06199076 0.00755114
-0.07938276 0.14062859 0.00137076
-0.07892535 0.09700656 -0.02054236
-0.02610501 0.05790871 -0.03263755
0.05033891 0.05419099 -0.01314547
0.05329647 0.05681427 -0.02616147
0.04331460 0.09294748 -0.03062947
0.00580908 0.06248631 0.01668761
0.05053763 0.05671021 -0.00984101
0.03604317 0.15783812 -0.01669829
-0.03906237 0.15502581 -0.03848275
0.08167992 0.13500541 -0.01935453
-0.05055748 0.17749991 -0.03278887
-0.08529554 0.16862379 0.00530405
0.06633766 0.13329400 -0.02010889
0.02616988 0.06372410 0.02125608
-0.08199404 0.16844054 0.01488153
0.02774233 0.08985339 0.01518098
0.01475827 0.11439987 -0.02628363
-0.00560982 0.19008742 -0.03156837
-0.04722163 0.05192328 0.00685218
0.00437238 0.09022164 -0.01816934
0.03869334 0.10306134 -0.00328581
0.04498871 0.08616500 -0.02098039
-0.04591814 0.17822644 -0.00818069
-0.05737979 0.14454195 -0.02883067
0.05650667 0.14491916 -0.01368780
0.06620724 0.08169729 0.02496883
0.03943976 0.11090866 0.01642980
-0.00400856 0.07633179 -0.02264978
-0.01538223 0.08323216 0.01454140
0.06653269 0.12940076 -0.01826437
-0.02234803 0.18565024 -0.02071807
0.05248455 0.13661030 -0.00362460
-0.06638311 0.17201726 -0.02492422
-0.08158860 0.08228552 0.00993579
-0.05353434 0.15793559 0.00210189
-0.05113890 0.05792869 0.01733490
-0.02028701 0.06722869 -0.03169111
-0.07824912 0.11156063 -0.00556730
0.04408500 0.08809789 -0.00930634
-0.01439525 0.07700430 0.01310994
0.03893766 0.07746872 0.00990172
0.05641353 0.09872639 -0.01095611
0.03305755 0.05467675 -0.01267762
0.02134956 0.08877470 -0.00638935
0.06428528 0.13672778 -0.01484580
0.05188907 0.07888605 -0.00616583
0.03013184 0.08524598 0.01887532
-0.06584060 0.16132694 -0.00068192
0.06296661 0.08523381 0.02011834
-0.06812428 0.06019290 0.01114568
0.07175133 0.08635339 0.02378800
0.04930897 0.08534141 -0.00955980
-0.02874910 0.17896366 -0.02116709
-0.04555801 0.16418786 0.00386442
-0.02272576 0.10898255 -0.02390593
0.08332417 0.12550145 -0.01452748
-0.04094728 0.15657234 -0.03577001
-0.03713234 0.09270819 0.00573245
-0.04862728 0.11407326 -0.02302758
0.00863888 0.13361067 -0.00251579
-0.02788437 0.16660480 -0.01731190
0.03399555 0.05185799 -0.02020490
0.02756570 0.11359362 -0.01783867
-0.07220676 0.07009418 -0.02045993
-0.08485420 0.16159719 -0.01042601
0.04051237 0.05810224 0.01605369
0.06474425 0.05365343 -0.00564323
-0.01777687 0.12857585 -0.01996472
-0.00109885 0.11974305 0.00055131
0.07719240 0.11916901 -0.01540899
0.02557188 0.10472565 -0.01644693
0.03602201 0.08699783 -0.00243827
0.07475496 0.07048064 0.02447442
-0.00716235 0.14569162 -0.02253561
-0.03309164 0.08654060 -0.02737406
-0.07988926 0.11237898 0.00338956
0.06679092 0.09109955 -0.00137073
-0.02506137 0.09657565 0.00252013
0.02414795 0.05872244 0.00758125
-0.08802048 0.16997741 -0.00784149
-0.08775101 0.15274933 0.01386076
-0.02479905 0.05071066 0.01388724
-0.00201345 0.07376905 -0.01019315
-0.06196917 0.05991489 0.01503585
-0.02838506 0.18620595 -0.00434411
-0.03795779 0.14421476 0.00189851
-0.07138066 0.14327033 0.01487971
-0.04491986 0.17221342 -0.03325137
-0.07919074 0.05779622 -0.03404838
0.04797484 0.08691996 -0.00851052
-0.09152471 0.15387870 0.01129737
-0.04405688 0.07796663 0.02143642
-0.04955650 0.05430403 0.00981517
0.04263939 0.06445993 -0.04473506
0.07763349 0.06762831 0.01336960
-0.01143402 0.07329571 0.00622625
-0.00022917 0.15215975 -0.01747295
-0.05233829 0.08250995 0.02098155
0.03637401 0.14151332 -0.03425959
0.01950896 0.08671637 -0.00645733
-0.01506304 0.16987893 -0.01127481
-0.03407668 0.17524293 -0.02309982
0.05640411 0.13478144 -0.00994522
0.01423323 0.15576862 -0.01425220
0.02680477 0.10201737 -0.00831472
0.07214567 0.06528877 0.02211103
0.01499441 0.06402607 -0.01907527
-0.02230248 0.06791756 -0.03494536
-0.05162326 0.13211474 -0.00118472
0.03169078 0.13450746 -0.03346362
-0.03201366 0.13498633 -0.02733349
-0.04268846 0.12818162 -0.02599713
0.06025217 0.13165069 -0.01448867
0.06108361 0.08285777 0.01572223
-0.05912157 0.14438488 -0.02394265
-0.01789974 0.06092183 0.02219247
-0.08425499 0.09492414 0.00443453
-0.03497469 0.07168835 -0.02826260
0.04995373 0.05296542 -0.00826576
-0.02335358 0.14170532 -0.01334220
0.04329256 0.13832857 -0.03341026
0.04498328 0.05844670 -0.02072499
-0.06825110 0.10305168 -0.02205317
0.03623294 0.09765792 0.02704321
0.04740788 0.08747208 -0.01878203
-0.08513102 0.10264168 0.00121584
-0.00210246 0.11779605 -0.03397386
0.06932396 0.14187258 -0.00809944
0.03683240 0.08346514 -0.00191350
0.04885811 0.05493701 0.00848033
0.06326014 0.12589587 -0.01180900
0.00963259 0.13613811 -0.03371306
-0.04956951 0.09039990 -0.01949509
-0.07330188 0.11904310 0.00186820
0.03068761 0.15831091 -0.02562001
0.04141565 0.06668997 -0.00259417
0.05516787 0.12830228 -0.00376044
0.06046429 0.06704960 -0.00667258
0.03594049 0.13782145 -0.00167297
-0.05151173 0.18112516 -0.01009189
-0.05461175 0.13601001 -0.01718816
-0.09064928 0.14371008 0.01374127
-0.02965921 0.08124231 0.01043559
0.02304232 0.13001952 -0.00755311
0.01620308 0.06789568 -0.00769084
-0.02012369 0.05361021 -0.00169684
0.02747201 0.08708958 -0.03560172
-0.02461987 0.14744425 -0.01412883
0.07894696 0.11055407 0.00229739
0.04643472 0.10993017 -0.00157861
0.04613613 0.08341350 -0.02522203
0.05899052 0.11271709 -0.02776329
0.04482834 0.05349112 0.00669211
0.04323611 0.11527635 -0.00130527
-0.04678935 0.06384996 0.03446572
-0.02658112 0.17891073 -0.02235999
-0.06802665 0.14417824 0.00467211
0.02313025 0.05751262 0.00134502
0.03396965 0.07349807 -0.03888039
-0.04019978 0.07314046 -0.02777592
0.02562647 0.10511716 -0.01296807
-0.02747088 0.13445520 -0.01899160
0.03286472 0.07859235 0.01896492
-0.08209970 0.13901554 0.02096663
-0.06344151 0.14313734 -0.01770473
-0.05688708 0.11957391 -0.02397619
-0.02018877 0.05235027 0.01117438
-0.09353908 0.15112308 -0.00681444
0.01504911 0.06303582 0.01028696
0.05899730 0.10012291 -0.01332114
-0.05231116 0.05499177 0.02106542
0.04034428 0.07516807 0.01524882
-0.00524384 0.11989494 -0.00209784
-0.04659696 0.09855250 0.00437417
-0.05652293 0.18056752 -0.01511198
0.05657196 0.05211494 0.01439826
-0.05465702 0.18140164 -0.01462468
0.01136118 0.05740579 0.02637197
-0.06004652 0.12265963 0.00500644
0.00825285 0.14378269 -0.00558403
0.07214433 0.14624012 -0.01258594
0.07057562 0.14427447 -0.01346682
0.05948475 0.13605161 -0.02171819
-0.09809962 0.15022001 0.01560126
-0.04259907 0.07329388 -0.02928366
-0.03749064 0.05376927 -0.01123557
-0.00089573 0.10424752 0.00054354
0.03105375 0.10364327 -0.00441003
-0.05707810 0.06374031 0.03948434
-0.09051283 0.06195736 -0.02822372
-0.03024347 0.05730507 0.01458173
0.06736650 0.06462213 -0.00884427
-0.00126159 0.14354692 -0.00684577
-0.02929193 0.14467512 -0.00660231
-0.05935154 0.16392496 0.00853846
-0.06298447 0.14435688 -0.00369361
-0.03590238 0.11234751 -0.01592923
0.03804773 0.11269194 0.00744871
0.04058013 0.11708984 -0.03222471
-0.07339094 0.11256388 0.00781418
0.03690575 0.10903378 0.01167939
-0.06451093 0.16905740 0.01148219
0.04141666 0.14180741 -0.00286682
-0.08425801 0.06057301 -0.01983665
-0.04338732 0.05646518 -0.00810342
0.00575414 0.15037894 -0.02722417
-0.04467530 0.11576024 0.00082265
-0.03522800 0.13781469 -0.03026863
-0.05594691 0.10070860 0.01125222
-0.02711024 0.05334375 0.01286334
-0.02572286 0.13916884 -0.01330761
-0.00011120 0.14867468 -0.02343945
-0.04933312 0.11014555 -0.02364432
-0.05166889 0.14371750 0.00689986
0.09062459 0.14888594 -0.00753601
-0.03064205 0.05675913 -0.04214199
-0.08878973 0.17258745 0.01025292
0.07039306 0.11254283 -0.00135980
0.06795571 0.13558671 -0.01172156
-0.05669070 0.14673460 -0.01740342
0.02418034 0.06691700 0.02012559
0.04486427 0.10366170 0.01364340
-0.08036327 0.06902029 0.01162297
0.01149738 0.13070123 -0.00204901
0.04542111 0.08378565 -0.00723272
0.07965413 0.13815932 -0.00706550
0.02912656 0.05439027 0.01282129
-0.02137616 0.05623499 0.00833203
-0.04173862 0.11648399 -0.02286502
0.02371064 0.12284044 -0.01581844
0.03292084 0.05737346 0.01133542
-0.01201405 0.12074015 -0.02784250
-0.06493054 0.05392119 0.02948654
0.05472167 0.14658406 -0.02110545
0.02714200 0.11249338 -0.01784173
0.03765878 0.05706199 -0.04776072
-0.07626543 0.06834207 -0.02808523
-0.01867421 0.08166265 0.01363865
0.00415412 0.15484369 -0.01908498
-0.05260660 0.14225554 -0.01503785
-0.05042658 0.08151108 -0.03504017
-0.09138750 0.14252979 0.00037442
0.05975570 0.11443242 -0.00979058
0.04619740 0.06999995 0.02150441
-0.01388168 0.10014716 0.00252830
-0.02291444 0.14410636 -0.01770567
0.04172934 0.16014236 -0.02063832
0.03590040 0.07024171 0.01838375
0.01701277 0.09104770 -0.02452873
-0.02291616 0.09978294 -0.02799772
0.01023290 0.11885738 -0.00719576
0.02985590 0.06115450 -0.04323111
-0.07619818 0.16584441 -0.00309031
0.05459321 0.07596916 0.02185426
-0.06281023 0.10244589 -0.02204682
0.02348659 0.09415951 -0.03148453
0.04483811 0.10463682 0.01576674
0.01903939 0.06166441 0.00531162
-0.08073528 0.05946010 -0.02069504
-0.06310319 0.06088223 -0.02238827
-0.01175391 0.11920512 -0.00289286
0.00102419 0.11882170 0.00096886
0.03951903 0.13821402 -0.03118834
-0.04257027 0.14985566 -0.03554677
0.05966190 0.05488384 -0.01528093
-0.06119695 0.17433453 0.00205564
-0.03565267 0.16589585 0.00051173
-0.01626494 0.12359909 -0.00681617
-0.02926468 0.09299339 -0.02851855
-0.00103392 0.12782197 -0.03360715
-0.00448459 0.11236132 -0.03434082
0.00713445 0.11137406 -0.00496421
-0.02768125 0.10643649 -0.01738577
0.07809300 0.11678521 -0.00856388
-0.09590436 0.15708980 0.01180965
0.02346920 0.05165395 -0.00373854
0.02038700 0.08456738 0.00897934
-0.08503792 0.06207888 -0.02081746
-0.08573791 0.07438993 -0.00341912
-0.04679509 0.05735634 -0.01051445
0.04361160 0.13926031 -0.00252114
-0.07977615 0.16262011 -0.01778093
0.03528575 0.09930289 -0.03429817
0.05484329 0.13520896 -0.02937802
0.02827048 0.06239375 0.02087464
-0.08089619 0.10587819 0.00086506
-0.02532952 0.16330571 -0.04247338
0.06638572 0.06782679 -0.01021578
-0.07502921 0.15860841 -0.01436484
0.01884332 0.13378574 -0.00178842
0.01980234 0.09916263 -0.01951293
0.01557457 0.06859967 -0.02578112
-0.05783097 0.11373588 0.00766857
-0.06279048 0.12564482 -0.00482513
-0.02620007 0.16307344 -0.01384039
-0.00453263 0.14234421 -0.01599959
0.05552684 0.06168537 0.02582888
-0.01600057 0.12620278 -0.02079110
-0.06846409 0.06567931 0.02908103
0.05066792 0.15115140 -0.01260953
0.06711040 0.08798860 0.00219978
0.04448987 0.08572645 -0.03071966
0.07660138 0.11006806 0.00596383
-0.10530088 0.15889856 0.00932378
-0.08646171 0.15204644 -0.00768333
-0.01685507 0.05701875 -0.00247616
-0.09124660 0.14496842 -0.00749900
-0.07085379 0.10664807 -0.02120744
0.04729040 0.13757429 -0.00218620
-0.05859038 0.16896851 0.00592199
-0.03118858 0.13172628 -0.02527608
0.05620778 0.06478871 0.02495627
0.01934846 0.14983162 -0.03292741
-0.05847203 0.16095804 -0.00426643
-0.02992022 0.05422170 0.01731322
-0.00408821 0.14556769 -0.01683826
0.02774135 0.12738429 -0.02551751
0.00592869 0.10675538 -0.02958275
0.08363983 0.14134260 -0.01513800
-0.06666972 0.06725113 0.01386652
-0.05862773 0.06039350 0.03515577
-0.05670026 0.05360010 0.02498504
-0.07440404 0.16034530 -0.01932725
-0.04468598 0.17362921 0.00166941
0.03013144 0.05952096 0.02441729
-0.00798056 0.16251516 -0.00861368
0.07636624 0.08459556 -0.00172599
0.00546318 0.06035475 0.01417105
0.03019028 0.05743722 -0.04923934
-0.05839219 0.11356100 -0.02413715
-0.09103366 0.16255036 -0.01082878
-0.02355904 0.07861437 -0.03730572
0.06849112 0.11095183 -0.01060528
0.00099827 0.08702061 -0.01009138
0.04732595 0.09264219 0.01839297
0.08076932 0.11238410 -0.00726585
0.01542908 0.07974997 -0.00249200
-0.08881016 0.14081888 0.00529819
0.03755694 0.12400410 -0.03241556
0.02356598 0.15958919 -0.02287020
0.01707935 0.12430923 -0.02822257
-0.05971378 0.14362843 -0.00773844
-0.05588983 0.18226177 -0.01850066
-0.08115941 0.06407009 -0.00628927
-0.01530901 0.12207311 -0.02816254
-0.07633050 0.11343157 -0.00176495
-0.02444645 0.15836912 -0.01256677
-0.02421089 0.11408032 -0.01377405
0.01615749 0.07021545 -0.02670216
0.07150642 0.05749865 0.00135648
-0.03299171 0.05517440 0.01520226
-0.01265413 0.11548783 -0.03240948
0.00173173 0.08319895 -0.01474038
0.03876925 0.06057581 0.01788971
0.03893018 0.11217523 0.01025234
0.00585386 0.15479390 -0.02224494
-0.04532189 0.16897677 0.00263304
-0.00195531 0.08687170 -0.02763454
0.00615632 0.06034467 0.02204584
0.06026530 0.12837704 -0.02516545
-0.00340579 0.13008517 -0.02978894
-0.00114512 0.14205322 -0.00717460
0.03870042 0.08841993 0.01311169
0.02575440 0.16039369 -0.01927230
-0.01961331 0.09689768 -0.03042427
-0.08218183 0.10620200 -0.01170152
0.02492292 0.05419711 -0.01942648
0.08300468 0.10758082 -0.00178745
-0.02033308 0.08273594 -0.03380304
0.08450008 0.09167579 0.00745393
0.01314260 0.15263762 -0.01126323
-0.05996856 0.06425468 0.03796434
-0.01441043 0.18105796 -0.02670350
0.01326250 0.07351994 0.00107773
-0.05725128 0.15818466 -0.01218699
-0.04267066 0.09635060 -0.01379868
0.03312577 0.08761569 0.01051886
0.05311007 0.07921050 0.01143980
0.05164986 0.07770111 -0.00332914
0.07325954 0.09162170 0.01783997
-0.05899014 0.06449723 0.03634591
-0.03485885 0.18931378 -0.02175198
0.02008723 0.06493410 0.01518628
-0.03655086 0.16068596 -0.04087382
0.03509107 0.10406431 0.01322433
0.02958714 0.14675680 -0.03302572
-0.03453595 0.11963402 -0.01741982
0.06672434 0.07884908 0.02293653
0.04683049 0.07795586 -0.03265619
-0.02660457 0.12367012 -0.01950848
-0.00325192 0.11341757 0.00242320
0.00677064 0.05804399 0.01053629
0.07044670 0.09788364 -0.00714423
-0.06876924 0.17566448 -0.00105315
0.04283649 0.05523405 -0.00943556
-0.02527507 0.10785906 -0.00866877
-0.04466580 0.06515747 0.03238608
0.07193355 0.12312382 -0.00586239
0.04308286 0.09770522 0.01533479
0.06241874 0.08636082 0.01009834
-0.04438536 0.06870703 0.02552108
-0.00996741 0.13998225 -0.01723246
0.01257315 0.05778744 0.01541576
0.02085874 0.06618804 -0.02889865
-0.06642216 0.16273181 -0.00814542
-0.06592897 0.12328625 -0.01695976
-0.07949921 0.17544362 0.00072619
-0.04522976 0.07438757 0.02930947
-0.02560989 0.14729504 -0.00501398
0.07963884 0.13151659 -0.00931313
0.04090706 0.11407647 -0.00247537
-0.03233992 0.09522089 -0.00749401
0.04184620 0.06381796 0.00981685
-0.00046019 0.11561336 -0.03387720
0.03180834 0.15857157 -0.01362123
-0.00295827 0.13691324 -0.00773617
-0.06243241 0.15638644 -0.02292897
-0.02546729 0.13339578 -0.01631545
0.05030673 0.10393430 -0.00576298
-0.00325881 0.12884320 -0.03241581
-0.04445953 0.16275801 0.00492593
0.03241822 0.05709985 -0.00066546
-0.02737801 0.10417525 -0.01129735
0.07666124 0.07575771 0.00004079
0.01330955 0.06710902 -0.01000364
-0.06691014 0.05774412 0.02887616
-0.06280772 0.07377502 0.02665785
-0.08798333 0.17184460 0.00470728
0.05248006 0.10426319 -0.00933006
0.08126643 0.08393426 0.00019849
-0.01316117 0.06633303 0.00143730
-0.03940792 0.18041393 -0.01282897
-0.04810125 0.07596530 0.03402060
-0.07214717 0.07327900 -0.02115029
0.08645776 0.12955730 -0.01349926
-0.02615405 0.05672626 0.02563933
-0.07592098 0.10535692 -0.02067871
0.02962604 0.12573835 -0.01031570
0.00286400 0.14943805 -0.01407782
0.06010350 0.08419397 0.01399480
0.04085946 0.07663593 0.01155320
-0.06719265 0.12363826 0.00094655
-0.05323491 0.09053454 -0.02260678
0.00969830 0.13670839 -0.00236764
-0.06608973 0.14998911 -0.01571179
-0.09865751 0.14580721 0.01654830
-0.07337127 0.14255944 0.00625311
-0.04420879 0.05562474 0.00227128
-0.01912568 0.16163245 -0.01201395
0.05169037 0.07489141 -0.00942793
0.04986779 0.08042251 -0.02364909
-0.07037760 0.16245748 -0.01046416
-0.06915525 0.11231589 -0.01722736
-0.06944704 0.16197227 -0.00776963
-0.03905169 0.17063077 -0.03689849
-0.00149982 0.08102819 -0.02278591
-0.03030067 0.06871899 -0.03885709
-0.00859316 0.06373199 -0.00973805
-0.02203770 0.13361646 -0.02147066
0.03260755 0.06103426 -0.03914835
0.04074347 0.09220487 -0.03312390
-0.08453788 0.17079221 -0.00980069
-0.09414500 0.14645155 -0.00301152
-0.07921007 0.14639071 -0.01096301
-0.03123212 0.09117396 0.00673219
0.08306435 0.10137241 -0.00471072
0.07045848 0.07250857 0.02493890
0.06833986 0.05859558 0.01135194
0.03377778 0.07941397 0.00635995
-0.05187506 0.07496554 0.03410252
-0.05668790 0.14681646 0.00209492
0.02566239 0.06756189 -0.03947117
0.03819299 0.15476857 -0.02718962
-0.05309391 0.14329273 -0.01730948
-0.08540487 0.09727678 -0.00002167
-0.07758210 0.14174041 0.01220006
0.04926266 0.15174037 -0.02188992
0.00703807 0.11195663 -0.02996786
0.01337955 0.06543130 -0.01560856
0.04152213 0.15282895 -0.00929852
-0.02430030 0.10278194 -0.02378630
-0.04473092 0.05436756 -0.03023344
0.04545479 0.10164674 0.02403415
-0.03830615 0.05748063 -0.01088435
-0.01631700 0.08466145 -0.03280442
-0.09080248 0.18199717 0.00481480
-0.00602843 0.14315769 -0.01270445
-0.06841788 0.08691442 -0.03051827
-0.04776409 0.08000086 0.02549683
-0.05449348 0.13996293 -0.00823550
-0.02312309 0.18062690 -0.02164299
0.02905680 0.16253117 -0.02477259
0.01484658 0.07537301 -0.00058918
-0.09645814 0.17780976 -0.00040179
-0.07286169 0.06851982 -0.03270737
-0.05730640 0.07456197 0.03115348
-0.05475847 0.17484935 -0.03128237
-0.01061039 0.10057144 -0.03314994
-0.02395728 0.05462848 -0.01746754
-0.05271261 0.08248886 -0.03320916
-0.00302084 0.13331102 -0.03292262
-0.07283071 0.06102050 -0.03135867
-0.02232362 0.15302159 -0.02443179
-0.04956400 0.14278486 -0.00148922
0.05086342 0.05720361 0.00781803
0.05879905 0.05371621 0.01046480
-0.03636722 0.18032865 -0.00568726
0.05206851 0.13688037 -0.00508892
-0.05792258 0.12168571 0.00342357
-0.01601531 0.07143979 0.02089687
0.00218310 0.15075049 -0.02448384
0.07706962 0.12078158 -0.00768465
-0.05174217 0.05413347 -0.01821001
0.00298472 0.08498469 -0.01732488
0.01207511 0.07766607 -0.02612980
0.04764982 0.13168707 -0.03186893
-0.09514815 0.17946324 0.00360720
-0.07404201 0.14164273 -0.01552593
0.05062772 0.05533674 -0.02651828
-0.05384664 0.14188005 0.00852262
-0.07604201 0.06679447 -0.02654845
-0.05214083 0.16099259 0.00305018
-0.03920832 0.14114669 -0.00393121
-0.01854528 0.06836601 -0.03075002
0.06642256 0.12661627 -0.01407607
-0.02735109 0.17964861 -0.02296849
-0.09648675 0.17593157 -0.00553781
0.01714345 0.06670088 -0.02412787
-0.05530842 0.06536627 -0.03371425
0.03569588 0.05946098 -0.00209541
0.01711024 0.07487376 0.00172355
0.03505005 0.13472115 -0.00243943
-0.03971827 0.14779796 -0.03410114
0.03767988 0.05277196 0.01372256
-0.02791904 0.16533810 -0.03226929
-0.07167983 0.06047496 -0.02711839
0.04511665 0.08544533 -0.02361860
-0.03958495 0.07876776 -0.02778095
-0.05518867 0.17898449 -0.01111867
-0.09166113 0.17626254 0.00964789
-0.06905542 0.05603504 0.02451378
-0.03506186 0.13518403 -0.02956158
0.02333528 0.10268126 -0.01585522
0.05305880 0.09360366 -0.01003018
0.01603448 0.08303650 -0.02503579
-0.04674511 0.17924060 -0.03383773
-0.04963744 0.17267677 0.00138674
-0.00726057 0.10614899 -0.03505980
-0.02771167 0.09949562 -0.00777102
-0.06748688 0.14295803 -0.01601832
0.04275953 0.10386391 0.00907662
-0.06849392 0.06032307 -0.02268484
0.00323861 0.15662602 -0.01727724
-0.03205864 0.10015564 -0.01247328
0.05567329 0.05566896 0.00290347
0.00351172 0.13093740 -0.00134843
0.07373580 0.12717542 -0.02022713
-0.10032509 0.14001073 -0.00229637
-0.07357343 0.17251095 0.00036292
0.02744846 0.05496695 -0.01918291
0.02047272 0.08853255 -0.00838573
-0.04861406 0.14193794 -0.03046895
-0.01308353 0.12625505 -0.00894365
0.06576470 0.07510280 0.00049698
-0.08105449 0.13957256 0.00286497
-0.03338288 0.14380392 -0.00018241
-0.05082336 0.10154474 0.00778782
-0.08352078 0.07402995 -0.01016666
-0.05927762 0.09740892 -0.02488843
-0.06928042 0.10637219 -0.02273352
-0.07186995 0.17146933 -0.02197212
-0.04834927 0.11727007 -0.02567737
0.01854522 0.08004883 -0.03200217
-0.04933740 0.15927488 -0.03136153
0.03452987 0.16025098 -0.02267254
-0.06917047 0.14331266 -0.00335970
0.04131692 0.08304209 -0.00467471
0.04116686 0.05518759 -0.00199444
0.07326975 0.09995041 0.01582339
-0.01369439 0.09515327 0.00479443
-0.02730506 0.15898147 -0.03694585
0.03162733 0.11771024 -0.02409408
-0.06850664 0.07218076 -0.02242075
-0.09261976 0.14088836 -0.00416309
-0.01091517 0.08172874 0.00710498
-0.02537721 0.13629560 -0.01708496
-0.07257947 0.09417329 -0.02218645
-0.01747956 0.11880681 -0.02236189
-0.02350633 0.10938053 -0.01891297
-0.01746830 0.06077596 0.00396106
0.05527961 0.11798992 -0.00384520
0.04609364 0.06576780 0.02046560
-0.03041467 0.15136757 -0.03106338
0.01172739 0.07247394 -0.01460157
-0.00905991 0.12621203 -0.02959688
0.03924137 0.06058602 -0.02342724
-0.02744058 0.05311260 0.01511720
0.07987691 0.07607176 0.00341774
-0.03083336 0.17230093 -0.03446753
-0.09046362 0.14147018 -0.00778489
-0.03725421 0.09264022 -0.01849907
-0.06252345 0.09798750 -0.02040127
-0.08416469 0.10029832 -0.00794403
-0.09864010 0.15317984 0.00329727
-0.03220399 0.07624120 0.02112808
0.01261447 0.05808532 0.00510317
-0.09706870 0.15306796 0.00459516
-0.01321204 0.17634815 -0.01151166
0.03688527 0.14375433 -0.00318992
0.05788104 0.05303380 0.01365292
-0.04067158 0.18008722 -0.01192694
0.06965092 0.07099752 -0.00296859
0.01625690 0.06042580 -0.01541698
-0.07871993 0.16576792 0.00428632
0.00416028 0.11546616 -0.00165504
-0.03187956 0.15032263 -0.03570401
-0.00784374 0.08300134 0.00398361
0.02803751 0.13818106 -0.03464101
0.07690447 0.11792522 -0.00860086
0.00862939 0.10473461 -0.00720372
-0.06711932 0.17781669 -0.00590524
0.07589249 0.07032280 0.00150371
-0.02913439 0.06562511 -0.03645518
-0.02323130 0.07977723 0.01076776
0.07597146 0.14254259 -0.00878150
-0.05920830 0.15676421 -0.02334804
-0.07560680 0.14005452 -0.00717759
-0.04676541 0.10221829 -0.01644274
0.04995617 0.07638571 -0.00797478
-0.02820875 0.13658062 -0.00740565
0.03510667 0.07215200 0.02494346
0.04464611 0.06131051 0.02214249
-0.08252963 0.07245380 0.00567335
-0.08195885 0.16827731 0.00830456
-0.04639253 0.05626396 -0.00010473
0.06668431 0.06334227 0.02638700
-0.05700032 0.15929456 -0.01194459
0.08255938 0.12229332 -0.01232201
-0.06728193 0.15462738 0.00137546
-0.02987593 0.07779767 0.01872554
0.03861065 0.06619836 0.01674543
-0.03693131 0.11997797 -0.02151432
-0.04405425 0.14537844 -0.00006626
-0.05516699 0.17854413 -0.00146238
-0.06880743 0.05393679 -0.00457374
-0.02552972 0.15835521 -0.01736601
-0.08454191 0.15036023 0.01333252
-0.09716003 0.15207843 0.01585575
-0.07693348 0.08482494 -0.02481778
-0.00012803 0.08700324 -0.02559156
-0.01594075 0.05983396 -0.01170346
-0.03147564 0.07104914 -0.03168458
-0.04105241 0.05824172 -0.03895891
-0.08888746 0.09731068 -0.00493108
0.00327241 0.14751934 -0.00831543
0.03025736 0.05460781 -0.05102956
-0.01130383 0.12789156 -0.02903246
-0.00886642 0.06772876 -0.00610726
-0.04739009 0.10425959 0.00100558
-0.03826044 0.12351687 -0.02306767
-0.02440329 0.15298714 -0.02024819
0.07995170 0.08559683 0.01911353
0.07502422 0.14160562 -0.00741016
-0.04329178 0.07125272 0.02855021
-0.06993537 0.11997271 -0.00386577
-0.03404920 0.06242004 -0.04205713
0.03088986 0.08291599 0.00255723
-0.04820576 0.05567363 0.02198244
-0.08034642 0.10558742 -0.01703667
0.02867315 0.05584887 0.02232345
-0.02063020 0.05396231 -0.01447842
0.04435777 0.10585684 0.01384545
-0.06984399 0.05841067 0.01006432
0.07703666 0.11409871 -0.01329115
-0.07856315 0.16677555 0.01564510
0.03674699 0.10199443 0.02273116
-0.08236375 0.16806659 -0.00129655
0.03656729 0.07220982 0.01516551
-0.03036210 0.05814208 0.02421346
0.03331416 0.11753368 -0.00509582
-0.03971661 0.17858712 -0.03784641
-0.06071002 0.16210820 -0.00537420
0.02385515 0.10059487 -0.03028157
-0.00335171 0.10188617 0.00329844
0.04836981 0.10218841 0.02023077
-0.02426328 0.18372238 -0.02776681
-0.00795662 0.10954413 0.00097573
-0.07714781 0.05777355 -0.02351977
0.08301581 0.09533975 0.00440972
0.01992865 0.08005428 -0.03215837
-0.05832367 0.15447259 -0.01372433
0.00531559 0.10235240 -0.02843378
-0.00794679 0.06883950 -0.01402881
-0.04073429 0.10846954 -0.01030005
-0.07764700 0.14213081 -0.00942086
-0.04942215 0.09394783 0.01650172
-0.08298077 0.08986825 -0.01749827
-0.05837833 0.15743311 -0.00711995
-0.01998761 0.17063460 -0.00590129
0.01340939 0.07978515 0.00144245
0.00900721 0.14712533 -0.03263578
-0.02106227 0.10269676 -0.00253942
-0.00677667 0.14495623 -0.01662034
-0.06429042 0.08415858 -0.03477595
-0.07467930 0.08654739 -0.02293003
-0.05905672 0.16392510 0.00185113
-0.01419670 0.05445521 0.01332401
-0.01273924 0.08456518 0.00631978
-0.05550897 0.07863097 0.02564513
0.07733398 0.09844127 0.01563121
-0.02817487 0.17059457 -0.01062207
0.07625819 0.14545235 -0.01615259
0.05813663 0.13132170 -0.02673742
-0.07870407 0.10551609 0.00572614
0.02505917 0.05981537 0.02097608
-0.08976756 0.15242675 0.01075064
-0.06892520 0.15209846 0.00485806
0.06997631 0.13752446 -0.01963915
-0.04003039 0.15889293 -0.03785296
0.03575254 0.06337741 -0.03406961
0.04461838 0.06029982 0.02165459
0.05202692 0.07817373 0.00830502
-0.03749765 0.05671744 -0.00904632
-0.05780551 0.14069903 -0.02561318
-0.03570810 0.17661586 -0.02456737
-0.07804529 0.07764629 -0.01735719
0.00476867 0.09573023 -0.00681352
0.05577807 0.07332866 0.02434558
0.04985250 0.09793717 -0.02380768
-0.02006213 0.10551385 -0.02776699
-0.06938684 0.14984578 -0.01154475
-0.05570236 0.09785761 -0.02041189
-0.08045471 0.09435841 0.01264235
-0.03242026 0.08196276 0.01533575
-0.04437065 0.10349340 -0.01442202
0.06530610 0.10952130 -0.00714742
-0.00516341 0.12873025 -0.00412012
-0.07720040 0.13978598 -0.01205752
-0.00468997 0.14244194 -0.01625781
-0.04879672 0.15316340 -0.02909384
0.03062475 0.11089844 -0.02573819
0.03097837 0.05961125 -0.05079176
-0.03840353 0.05819365 0.01048800
-0.08308047 0.17454740 -0.00805519
-0.03006244 0.12804858 -0.01449976
-0.05708984 0.12690577 0.00150714
-0.07659280 0.16598134 -0.01140488
0.00259912 0.13063197 -0.00310867
0.00507069 0.12677827 -0.00160658
-0.04116556 0.17766862 0.00122005
-0.02410153 0.16389841 -0.04338986
-0.03113079 0.16228798 -0.03918785
0.02481529 0.06566645 -0.04456247
0.07817735 0.06922646 0.01285242
0.05358998 0.13645467 -0.00418734
-0.01661111 0.08756098 0.01339938
0.06995734 0.05301208 -0.00913669
0.02077965 0.05397452 -0.01749064
0.06397680 0.08532616 0.01849089
0.05371813 0.07424944 -0.00330610
-0.02536798 0.07917791 0.01094183
-0.07298009 0.10813497 -0.02216522
0.02712539 0.13255300 -0.03078527
0.02082008 0.12381801 -0.01581249
-0.03806067 0.08782194 -0.02368877
-0.01391355 0.16550054 -0.00830759
0.06700761 0.08065661 0.02475851
-0.00551091 0.07970282 -0.00068035
0.01364305 0.08055770 -0.02414038
0.03290196 0.08557993 0.02339546
-0.07170517 0.15005258 0.00920349
0.07537562 0.13276371 -0.00891083
-0.02746079 0.14993271 -0.04000021
-0.08586449 0.16261542 -0.00627858
0.01281521 0.08222030 -0.01690571
-0.05756804 0.06073888 -0.03650314
0.07916810 0.08622022 0.01991755
-0.08543795 0.15931134 -0.01223927
-0.08764064 0.14823681 -0.00392794
0.05943025 0.13206452 -0.02649674
-0.00486055 0.08911889 0.00151161
0.02458579 0.08436658 0.00289497
0.01470821 0.11741954 -0.02507139
-0.08339251 0.06602932 -0.00614895
0.08238708 0.14735687 -0.00912996
0.02674115 0.05390590 -0.00305406
-0.05155510 0.10509273 -0.02072662
0.07263890 0.14881222 -0.01071462
-0.03151822 0.13515700 -0.02829049
0.08292931 0.12501381 -0.01453321
0.03609217 0.12229725 0.00804044
-0.08591563 0.15125899 -0.00406361
0.05173262 0.05497622 -0.01668677
-0.02751950 0.17876640 -0.02633289
-0.03962559 0.11879778 -0.02263726
-0.05303710 0.05458330 -0.00768709
-0.04710633 0.15163086 0.00299591
0.00560336 0.11374424 -0.03134198
0.06118301 0.05314869 0.00045529
-0.07782781 0.07068059 -0.01786364
-0.03161328 0.14695260 -0.00138635
-0.04965660 0.05260909 -0.01912050
-0.02757100 0.10253835 -0.00778774
0.01948634 0.07258613 0.00522863
0.06838243 0.10960895 0.00297837
-0.07360181 0.17257731 0.00999379
-0.06278460 0.05430598 -0.00105233
0.06717923 0.05316071 -0.01861949
0.03987401 0.10483593 -0.03591290
-0.05353899 0.14429544 -0.01634092
-0.02975229 0.05582676 0.02147036
0.01915510 0.06100603 0.00403807
-0.06869249 0.05355811 0.00354388
0.06379332 0.14205675 -0.01511853
-0.06273240 0.13152923 -0.00195415
-0.06967135 0.14821561 0.00690406
-0.07733082 0.17135324 -0.00556397
0.05673410 0.11043550 -0.00431408
0.03446802 0.15329871 -0.00851860
0.03620694 0.05976036 -0.04873531
-0.05667010 0.11189822 -0.02417456
-0.07305477 0.05620750 0.00340306
0.02338861 0.05503333 0.02175903
0.05961397 0.05284642 0.00218594
0.04664085 0.09104106 0.02795867
0.07304867 0.07851065 0.02461256
0.01733222 0.07303464 0.00965816
-0.02706241 0.15825343 -0.03082529
-0.01782123 0.05804738 -0.00089339
-0.04360190 0.12368282 0.00334401
-0.02179200 0.05428157 -0.00380323
-0.03856481 0.14384921 0.00227784
0.00902384 0.10663009 -0.02625493
-0.04415844 0.07267554 0.02902380
-0.04248821 0.05716681 0.01005170
0.05477982 0.10038377 -0.00958329
-0.08280611 0.10613324 -0.01256836
0.07886919 0.07378976 0.00082273
-0.04030924 0.06259063 -0.03749549
0.04607231 0.05534571 0.01659019
-0.00197196 0.08205017 -0.00464787
-0.05276938 0.15146263 -0.02878786
0.07589539 0.08786435 -0.00283990
0.00165564 0.11244504 -0.03246011
-0.04297938 0.08533829 -0.02185137
-0.04439282 0.05471325 -0.02928155
0.05356126 0.14986949 -0.01947625
0.05805545 0.08191673 0.01006710
-0.05926296 0.06116997 -0.02212601
-0.06454420 0.07297669 0.02245537
-0.05292637 0.07792549 0.02511247
-0.05203532 0.14651537 0.00326932
-0.08617099 0.17279360 -0.00681464
-0.02749253 0.16831857 -0.02441628
0.04888776 0.10807778 -0.03494133
0.02612554 0.16146019 -0.02175225
-0.04863575 0.10845539 0.00424810
-0.04872135 0.05207201 -0.02067314
0.03058279 0.06318493 -0.03828340
-0.08056667 0.08732314 0.00660469
-0.08075984 0.10580747 0.00304234
0.03579885 0.08131126 0.03033083
0.05877460 0.12927040 -0.01007378
0.03505234 0.11144971 -0.03305033
0.04293200 0.10167679 0.02527967
-0.01866638 0.11262878 -0.00530953
-0.04141510 0.05989945 0.01433049
-0.05224549 0.10985440 -0.02209203
-0.02205131 0.06485766 -0.02874957
0.06989415 0.05498491 -0.01508837
0.04587346 0.14218353 -0.03166627
0.09115468 0.13764536 -0.01223132
-0.07911060 0.17307310 0.00762636
-0.07848115 0.14028825 -0.00387739
0.04746998 0.06750586 0.02208611
0.06468073 0.11909735 -0.01026413
0.04867373 0.14203162 -0.03313942
-0.02906864 0.05770813 0.01081907
-0.07766552 0.15990226 -0.01513972
-0.00221967 0.11343388 -0.03602070
0.01523334 0.08285269 -0.02565963
-0.00779561 0.14239982 -0.01522461
-0.05238341 0.07761145 0.02771602
0.03184140 0.11990334 -0.02561511
-0.03245035 0.14858875 -0.03121967
-0.00999514 0.11168569 -0.03298878
0.07274810 0.14243139 -0.01499359
-0.00188551 0.11126290 0.00080056
-0.01766036 0.15454136 -0.00943444
0.04748339 0.05608674 -0.00107687
-0.04767211 0.06992288 -0.03705281
0.03420348 0.06362365 -0.04933662
-0.03366462 0.16882983 0.00244096
0.06794757 0.05616082 -0.01708218
-0.01818971 0.16823624 -0.00607442
-0.06595582 0.06435733 0.01865658
-0.07728405 0.06067261 -0.02503257
0.01541442 0.05744483 0.02358909
0.07413895 0.11143778 -0.01305723
0.08068156 0.11079824 -0.00261550
-0.06802167 0.10287318 0.01096800
-0.01627739 0.06348009 0.02285848
0.03929606 0.06455867 -0.03462592
0.07817588 0.07431762 0.01885749
-0.07248080 0.06107771 -0.02143569
-0.08853853 0.06154252 -0.02975968
-0.04094782 0.05769115 -0.03957703
-0.09725235 0.14793602 -0.00366818
0.06008233 0.12369007 -0.02819037
0.04973623 0.14403471 -0.00763085
-0.04951571 0.07931192 -0.03384678
-0.01136990 0.06270742 -0.01660182
-0.07719593 0.06784023 -0.03205116
-0.08154029 0.16761418 0.01507888
0.04103946 0.06032433 0.00530433
-0.04368429 0.10974022 -0.00164315
-0.08672886 0.08905640 -0.01285092
-0.07542782 0.15310216 0.01208611
0.05184902 0.11671551 -0.00157481
-0.07121820 0.14761253 -0.01126643
0.07811923 0.07995465 -0.00209838
-0.06938027 0.17110100 0.01193695
-0.02210757 0.14781304 -0.02158629
-0.03112228 0.17354237 -0.00346828
-0.06206904 0.14244641 0.01234212
-0.04495747 0.11278398 -0.00137559
-0.05611279 0.14394343 -0.01051984
-0.04746249 0.10556893 -0.00314550
0.02799848 0.06855418 0.01583808
-0.08621985 0.16667628 0.01141642
0.02771406 0.16290902 -0.02167876
-0.03629828 0.15981621 0.00017533
0.07378476 0.10331398 -0.00764732
-0.00468564 0.10097218 -0.03320849
-0.03974398 0.13998118 -0.02884285
-0.08447399 0.09797738 -0.01236675
0.05240804 0.14347333 -0.00648196
-0.03890126 0.18782312 -0.02386433
0.03473818 0.06586097 0.01676137
-0.01518091 0.14822191 -0.00944941
-0.04192969 0.07642798 0.02205556
-0.01068757 0.06697083 0.00463990
0.06367495 0.06214447 0.02352210
-0.03264873 0.17746368 -0.00717005
-0.04282024 0.05868420 0.02916210
-0.03718444 0.05260129 -0.03513759
0.07079498 0.13487615 -0.01788224
0.03197193 0.08497326 0.00526784
0.02372179 0.05543834 -0.01918294
0.01999690 0.05682442 -0.00609975
-0.04631647 0.15856844 -0.00006976
0.05460214 0.05330101 -0.00203458
-0.05929141 0.14471672 0.00944879
0.01885410 0.08486642 0.00217452
-0.04090377 0.18495089 -0.01158818
0.01907648 0.06113701 0.00090601
-0.00135191 0.10571928 -0.03428663
-0.08932617 0.08770859 -0.00083242
0.05478367 0.08280428 0.00879604
-0.02784699 0.14150742 -0.00926482
-0.08445392 0.05877112 -0.03674614
0.05160490 0.10541011 -0.00507147
0.02806417 0.08700596 0.00703195
-0.06437629 0.15523131 -0.00944566
-0.04254170 0.06581005 0.02201929
0.07597839 0.12681860 -0.02167291
-0.05554263 0.17769796 -0.02314212
-0.08844437 0.09511698 -0.00250376
0.03890077 0.05785324 -0.02094811
0.06223832 0.12652917 -0.02420969
-0.04709886 0.12114797 -0.02495380
-0.04432228 0.09339848 -0.01354123
-0.02521022 0.16803832 -0.02002560
0.00802186 0.13936171 -0.03389584
-0.08864103 0.09190208 -0.00111394
0.04791039 0.09839469 0.01535272
0.01414661 0.08824894 -0.01637014
0.06182633 0.05360733 -0.00923927
-0.00745486 0.09338663 -0.03315391
-0.03103544 0.12934580 -0.02199110
-0.06923867 0.11490894 0.00582216
0.02729550 0.09643077 -0.00375519
-0.01453692 0.06777152 0.01882366
-0.02380221 0.14649574 -0.01557248
-0.04806620 0.10764489 -0.02163929
-0.06838731 0.17613743 -0.02017818
0.01359426 0.07853569 -0.00888212
-0.00132344 0.07922938 -0.00223561
-0.07754612 0.17377740 -0.00404508
0.03378130 0.08276810 0.00576131
-0.05305531 0.05587590 0.01841861
0.08103903 0.08321546 0.00643351
0.05322783 0.05801268 -0.02418032
0.07261356 0.07824198 -0.00095427
-0.09174965 0.15539286 0.01212112
-0.03289869 0.13720253 -0.02730457
-0.03324909 0.06755580 -0.03836654
0.07772207 0.10731678 -0.01096910
-0.08010038 0.15425853 -0.00050004
-0.08480928 0.06972598 -0.00055789
-0.01309074 0.06893001 0.00427189
-0.07791790 0.16515356 0.01630400
-0.01286910 0.05967223 -0.00422575
-0.03812467 0.17435895 0.00062125
-0.07484162 0.17112215 0.01643880
0.03604020 0.06270003 -0.04951446
0.04208159 0.10342120 -0.03455997
0.07729937 0.06865248 0.01161546
0.00834050 0.12435403 -0.03650267
0.01658070 0.15336759 -0.01212951
0.06430931 0.05369173 -0.01112843
-0.02948839 0.17760959 -0.01834970
-0.08380279 0.14354357 0.01424314
0.03275391 0.11277161 -0.02835595
0.03177390 0.05586645 -0.00485679
-0.10127550 0.15076850 -0.00076030
0.08490216 0.09521814 0.00929997
0.04976029 0.05365321 0.00423114
-0.03318331 0.05557336 -0.01384573
0.06162361 0.07122071 -0.00367445
-0.04555233 0.08042624 0.02876372
-0.00803404 0.08766493 0.00569835
-0.08281118 0.07210403 0.00546634
0.03536905 0.05562895 -0.01874109
-0.05482657 0.13373500 -0.00209234
0.03250427 0.15414076 -0.03071534
0.09115037 0.14592862 -0.00776021
0.04372344 0.10994856 -0.00039473
0.07914542 0.10389652 -0.00666494
0.04802822 0.07791901 -0.00542460
-0.07045247 0.15954036 -0.02389817
-0.06886006 0.15390554 -0.00154048
0.05838980 0.12188660 -0.00562732
0.04345353 0.11250257 0.00935221
-0.06164111 0.13124157 -0.01018800
0.08243173 0.07862745 0.00555235
0.01590201 0.06688336 -0.02036272
-0.02578142 0.07748944 0.01276027
-0.07830020 0.05677035 -0.02118630
-0.05736679 0.15431392 -0.01960346
-0.05716735 0.17868829 -0.01037202
-0.06163048 0.16133240 -0.01494658
0.02345820 0.10484928 -0.01930319
-0.08719812 0.06293635 -0.02999778
0.04106297 0.07656849 0.01883482
-0.07778870 0.11078722 0.00400780
-0.06229363 0.07701311 -0.03258284
-0.06348363 0.12886415 -0.00994207
-0.10011822 0.17108969 -0.00651656
0.02768802 0.05092413 -0.00328113
-0.03320516 0.07280558 -0.03589656
-0.06132491 0.10632636 -0.02317752
-0.02430710 0.16645391 -0.02085743
0.02785657 0.06815061 -0.03606378
-0.06597666 0.06116112 -0.02288743
-0.03726285 0.19116798 -0.02105423
-0.06254441 0.18163924 -0.01006808
-0.04190789 0.08218192 0.02112808
-0.06201003 0.17878212 -0.01860190
-0.07533905 0.06895562 0.01400561
-0.00506532 0.14226377 -0.01536009
0.03734146 0.05904418 -0.02576104
-0.04158795 0.15573962 -0.00023684
-0.01989982 0.05816577 0.02570250
0.08238874 0.08684993 0.00206644
0.02629082 0.10865952 -0.01660164
0.01306847 0.12427435 -0.00646292
-0.06182595 0.15645070 -0.02291715
-0.02147802 0.06344773 0.02525560
-0.04733306 0.06801245 -0.03493299
-0.03504126 0.14955670 -0.00027331
0.06419727 0.05477867 0.01552271
-0.08873672 0.14861228 -0.00368037
-0.02909101 0.15170462 -0.02793590
0.01126349 0.15630788 -0.02257468
-0.04713467 0.13994652 -0.00157362
0.01401181 0.15581712 -0.01353631
0.06215864 0.08784746 0.01518545
-0.09111930 0.15101077 0.00247049
0.07025247 0.09684300 0.01660031
0.05232348 0.05559942 0.01412570
0.02834403 0.14345734 -0.03525058
0.05466043 0.05423535 0.00503985
0.05866957 0.13465248 -0.01298174
-0.05686447 0.13417421 -0.00728409
0.03474021 0.09091084 -0.03417904
-0.07843976 0.08436979 -0.02150255
0.08016519 0.08947702 -0.00267359
-0.06222837 0.14571145 -0.01236338
-0.09847085 0.13932356 -0.00678898
0.02551014 0.14482833 -0.00218556
-0.04742736 0.09040903 -0.01862048
0.02609301 0.08540283 0.00096861
-0.01281624 0.05529445 0.02494183
-0.01888809 0.18625018 -0.02194810
-0.02370921 0.15208423 -0.02688591
0.09416242 0.13679622 -0.00790507
0.03371226 0.08770369 -0.03347256
-0.05993714 0.17281854 -0.02514153
0.01192968 0.14380771 -0.03379296
-0.06921325 0.09269844 0.01327369
0.04806105 0.07595915 0.00848558
0.06978860 0.05153368 -0.01557998
0.03381972 0.08949167 0.02665694
-0.02682541 0.14387554 -0.01139132
-0.00961944 0.11361261 -0.03161264
0.05756234 0.08144349 0.01369752
-0.05849094 0.14609529 -0.00316374
-0.04320016 0.07944863 0.02249572
-0.01883955 0.05251940 -0.00556258
0.05332741 0.11143512 -0.00452295
-0.05554808 0.08842729 -0.02526167
0.07609524 0.09643968 -0.00592430
