0.90314412 0.35769859 41.67835236
2.02594614 2.36301184 39.07775879
0.59963590 -2.19692421 40.44477081
1.60546172 -0.14561185 39.35083008
0.92179179 1.93831062 40.63792419
0.44809675 0.43124375 39.01253128
1.39872289 1.68276513 39.10278320
1.98715568 1.70672536 41.58350372
1.92145610 1.23107517 39.14155197
2.10340095 1.77467895 39.18061829
1.72654641 1.76610553 41.59091949
1.85403585 -0.49879181 40.88260651
-0.31791413 0.48781067 40.72803497
0.38941175 -0.79429311 40.93278503
2.22928953 1.70712519 41.66361237
1.94184780 -0.15590779 39.96615601
0.32171404 -0.35607880 39.87432480
1.05721617 -1.54259229 41.09342575
0.57801753 1.61873579 41.69648743
1.25246263 -0.98365265 41.27068329
1.45945549 1.11435235 41.77993393
2.21306252 1.33510792 41.20739746
-0.37571645 1.74667251 40.92968369
0.69982445 0.63601846 41.67028046
-0.32113755 0.73321003 41.34872818
0.49653852 2.06326485 39.80754852
2.36446714 0.54786623 41.28965378
0.62262243 1.73587263 41.59768677
2.24569178 -0.20234452 41.18846130
1.03650641 -2.22163773 40.42793274
1.95423341 -0.00655698 39.29235458
0.35127145 -0.68086576 40.87797546
0.87404001 -0.08116389 39.68003845
1.67917800 -0.94876301 40.30301285
0.28882873 0.19715185 41.03465271
0.65591913 -1.62094653 40.32781982
-0.26260304 1.55446291 40.39476395
-0.01603472 0.56272972 38.73041153
2.32011890 1.99444401 41.15624237
-0.09514070 1.76905656 40.28803635
-0.18187773 0.32048017 40.95522308
2.35300994 2.08196449 39.83735275
0.60185164 2.09070921 39.35338593
1.24232244 1.23673439 41.76608658
1.26182115 -0.33884662 38.82722473
0.24662560 0.06830679 41.07839203
1.58323836 -1.08577526 40.28383636
1.86021733 0.20506749 39.80173874
1.18691206 -2.00978303 40.14576721
1.63383329 2.37230015 39.10390472
2.51556635 0.15887761 40.60413361
2.39234519 1.56222129 39.30516815
2.42793894 1.69802785 41.75272369
1.90432835 0.57684869 38.98092270
2.65306091 1.65980589 39.50306320
-0.17911398 1.92124856 40.90304947
2.39817262 1.90645897 38.99017715
1.77929211 0.60091627 39.31157303
0.28483808 -0.34256685 39.92274857
1.61795676 -1.50969493 40.42422104
2.05388069 0.81557280 41.96870041
2.19106913 -0.17978011 41.08256531
1.49609137 -1.01595676 41.23747253
0.25340933 0.66861451 38.65016556
0.49281007 1.16489720 41.71186447
1.15122032 -2.08964872 40.31961060
1.04973340 -0.10015026 39.76486206
1.75286794 0.02749462 39.60457993
1.58236837 1.95316029 40.49841690
1.47122812 -0.62717593 39.99446106
2.58171034 1.02981353 39.57001495
0.00748348 0.13950503 40.93927765
1.94091797 0.03120505 38.65005112
-0.01505327 0.09241666 38.96472549
2.29383993 0.48188102 40.84904861
0.54310602 -0.21089639 39.73727798
-0.06539404 0.57229841 40.99721146
2.65313244 2.23377419 39.76956177
1.25928998 -1.38899386 39.81842804
2.22448730 0.41029438 38.75423050
2.58455563 0.83650929 40.38769150
1.67607975 -0.40704420 39.57835007
0.57714474 0.01449768 41.53025818
0.64769715 -1.51993561 40.24422455
2.22330236 0.22477508 40.33214951
1.47019958 -2.06958675 40.61394501
0.92251861 -2.14825630 40.04767990
0.42903221 2.05750179 39.00342178
1.54144478 0.32646704 41.52551270
1.39314294 0.35345408 39.15109253
2.66762543 1.58903396 39.82887268
1.00739992 1.21345723 41.76906967
0.62217903 -2.33289623 40.30303192
1.11411071 -2.01736116 39.60352707
0.21896875 -0.21366350 40.12517548
0.49263942 0.31243333 38.95986557
2.07347465 0.00957587 41.05765915
2.50291204 0.69658971 41.68864441
0.28213811 -0.17613545 38.83396149
0.22317761 1.97720039 40.21208191
0.20457423 2.01537895 39.20465469
-0.10229468 1.37063789 41.20982361
0.84561849 0.20706342 38.74641800
0.15716457 0.50378722 41.17256927
2.36387730 1.91990006 40.58614349
0.30548483 0.58012384 39.72689819
0.21673268 -0.20216055 39.92309189
1.04422843 -2.03569317 40.28646851
1.81955135 2.25467825 39.21880341
0.25215733 0.72473872 41.64122772
-0.11971772 0.67888343 40.87047195
1.40895271 -0.26293147 38.94214630
2.68583441 1.75834179 41.49689484
2.01060057 -0.20710865 39.30638885
0.16910279 -0.38088933 40.39690399
0.29737675 0.57016057 41.24487305
2.22904348 -0.00897654 41.06425858
2.06920934 -0.28278375 40.43917847
1.57762492 1.75001609 39.06595230
0.64570647 2.22872257 38.95818329
2.42590618 0.54456735 39.03911209
-0.13273525 0.11080557 40.96287918
0.74238658 -0.89435083 41.23256683
1.99345088 1.67833841 39.13237762
1.68798685 -0.37796009 39.26021576
2.37709236 1.81939650 41.20878601
0.33726621 0.50135922 41.27241135
2.56700253 0.56906420 40.40100098
0.70993471 -1.45216250 39.91463470
2.57702041 1.66162610 39.18787766
1.63852310 0.27698144 39.25723648
2.00805140 1.41920710 41.85376358
0.37299860 0.06492977 39.41566849
0.69439054 2.04930019 39.68519974
2.32027531 0.06056400 39.26010895
2.46573973 0.39179757 40.90069962
2.29628706 1.85991025 40.82505417
2.39078641 -0.08429485 40.67130280
0.21832937 0.82491928 41.79562378
0.23444921 -0.33019111 40.35871887
-0.09143102 0.13687333 40.42434692
-0.33539677 0.76814353 41.37438202
-0.13955939 0.73448420 39.28992844
2.54439521 1.60314131 41.54531097
-0.32830048 1.20698595 41.56710434
2.60362339 1.29841661 39.35333633
2.74417114 1.84933317 40.45992661
2.61027193 0.83177787 40.29385376
1.41895461 -0.50819373 41.35301590
0.83455324 -2.34280539 40.32901764
2.03675556 -0.72445720 40.72378540
2.17647505 0.48792106 41.71577072
0.76518297 1.99466026 38.92283249
1.42792499 -1.21291077 41.17101669
0.72881746 1.94443929 40.75111008
1.21161711 -2.26132107 40.61927414
2.79607821 1.96664751 39.50535202
0.14379072 0.57971793 40.00036621
-0.27913332 1.09072936 40.15555191
1.09053540 -1.28571975 39.74069214
0.91147804 0.10012504 38.75411987
0.91000950 -0.31610540 38.81718445
-0.02596688 1.98007834 39.34215927
2.21065378 0.54830641 39.78880310
1.68399334 2.26651812 39.27605820
2.51746631 0.98489571 41.11204529
2.09057808 -0.25151455 40.71421814
1.95351458 -0.34571990 39.97231293
0.21434540 0.69293356 38.70240402
2.42635393 1.96298730 41.50645447
0.23101693 -0.79139471 40.83917236
0.93503749 1.95297873 40.08346176
2.68009520 1.90816867 39.14781570
1.39703679 -0.92842996 40.10273361
0.98131543 -1.31720209 41.18524933
0.55826139 -1.77694476 40.63348770
-0.28459895 0.79339284 41.01956558
1.32112193 -1.14006984 41.21005249
2.42721272 1.26259744 41.31005478
1.72145951 -0.95868760 40.32933044
2.28398895 0.51039892 40.93136597
2.58907557 1.15623724 40.31683731
2.40685225 2.24722481 38.98006058
2.42000055 1.10443521 40.99004745
0.05219197 1.19840491 41.80578613
1.44421995 -2.10346413 39.91458511
2.60028267 1.00903666 39.58860016
0.17415810 1.05638015 41.85429382
0.40686327 2.07063961 39.12176895
1.69365501 1.71013570 39.19611359
0.46751630 0.71574497 39.14770126
-0.01617563 2.12192488 39.56513977
1.45016205 -1.51231921 40.36613464
0.51254076 -1.62005091 40.44911194
2.18340826 0.07414651 41.04787445
-0.11472893 0.42779386 38.76635361
2.32653260 1.81282163 40.97412872
2.25013018 0.88584799 41.94030380
0.54793566 -1.97423255 40.39070892
0.45661324 1.78607571 39.15824890
1.07733667 2.18500519 39.24645233
2.20412612 2.27957916 39.27718735
1.68277907 0.13099618 41.54851913
1.89387751 2.11197138 38.92816925
-0.25971735 1.00526690 39.55866241
2.38718939 0.65403765 38.79070663
1.45916116 2.39161015 38.93061447
-0.09683812 0.34290701 40.17578506
1.19165742 0.10523602 41.63504791
0.32419831 1.81106019 41.61483383
2.21096468 1.80845010 41.17570877
2.40758634 0.40794960 38.82266998
-0.30922902 0.71637136 40.50115967
2.53143644 2.25222635 39.65048981
1.60882771 -0.51052034 40.10474396
2.06437349 2.04277849 40.01049423
0.01003397 0.44585428 40.84450531
2.51820469 1.17253387 40.77484131
2.17272425 1.97595417 39.76912308
2.46003819 0.16648275 40.82971954
2.37060308 0.52756429 38.77980423
0.23949265 1.88104987 41.03978729
-0.26245415 0.66353869 40.36281204
0.10599828 2.11192608 39.57946396
1.15560985 -1.21352077 41.25426483
1.30601013 -2.06062889 39.68926620
2.64946127 1.81313515 40.87985611
1.40194285 -2.02983570 40.61019135
1.42567587 -1.06318939 41.24559784
0.31519955 -0.19491380 38.92718506
0.60206854 1.99098527 40.18659973
0.41611928 0.28409851 39.31842041
1.67380178 1.21651196 39.16277695
1.86881042 0.42758369 41.23597336
1.18816257 -0.99872106 40.08702469
-0.29287744 1.39414680 40.49158859
1.02454448 -1.68374872 41.02422333
1.85615277 -0.20395258 39.48558044
2.27262425 -0.23454067 41.15607834
2.62557173 1.66626823 39.92438507
0.77699852 -1.32881427 41.16781235
2.62305880 0.92705250 39.66190338
2.30157256 0.02601741 41.13902283
-0.22564924 1.21273637 41.06335831
1.92023230 0.40720657 39.99463654
1.90557361 -0.18999310 41.04004669
2.25212193 0.37094763 39.63883209
2.21062088 -0.36105227 40.92394257
0.54837698 0.61433226 38.99841690
2.57504463 1.40620446 41.71022797
2.52366543 1.00192320 41.72697067
1.42551768 0.08569095 38.78792953
1.65025735 -0.31303528 38.88013458
-0.29373956 1.21091318 41.08283997
0.81152809 -1.63988674 40.95090866
0.69717157 1.95831251 40.48729706
-0.34944761 0.76866353 40.36814117
2.62901497 1.72809374 40.31731796
2.07354426 1.86796689 38.93726349
-0.05271304 0.82618129 41.67311478
2.36401820 -0.02863152 38.95526123
1.92154813 -0.17575680 39.26329803
1.72143722 -0.28894359 41.12799835
0.43333012 -1.61261570 40.55443192
1.67731285 1.13940609 39.18455887
1.84335279 -1.25554526 40.55622101
2.19597220 2.22531366 38.89940262
-0.19657183 2.03347111 39.55282593
-0.31126022 1.44469059 39.95020294
1.62006128 2.33747482 39.23618698
2.34249973 2.07087755 39.38226318
1.94610333 2.17988920 38.90467834
0.30593520 -0.39216208 39.67234421
1.27018738 -2.31267691 40.61089325
1.21577549 -0.19249794 38.84502792
2.06276512 0.42733514 39.86182022
1.45250475 -1.78240919 39.81044006
0.48989391 0.92380470 39.22672272
1.79914200 0.30968502 39.36588669
0.97306764 1.04207718 41.73990250
-0.08666658 0.30526373 41.05393600
1.02712560 -0.03069780 38.94065475
1.69786763 -0.77262384 40.26443863
2.00809431 0.27863410 39.45362473
1.92914701 -0.25283146 38.70154572
-0.24767923 0.47332084 40.86301041
2.51425862 0.33128947 40.22478485
2.26013994 1.93635762 40.32212830
0.91649497 0.57156348 41.68785095
1.65596867 1.66495728 39.32068253
0.78751242 -0.61006647 40.07393265
2.27702045 -0.39632806 40.93103027
1.80095434 -0.79808992 40.26033783
2.63847065 1.18705261 39.46576691
0.10477865 -0.25087804 39.10704803
-0.03511024 0.87207508 39.00743866
2.69473267 1.42465806 40.13607407
2.16737652 -0.28916806 38.95511627
2.56979895 0.52728391 40.76550293
1.13053739 -1.03821170 39.99732590
1.22432339 1.45444369 39.07532501
1.78213191 0.64504987 39.23146439
2.62303042 1.95126474 41.47350693
1.05158460 -2.04234791 39.60318375
2.50123787 0.46457666 40.19002151
1.74315333 -0.47639439 40.95353317
-0.05462956 0.54024160 39.97016144
1.26491880 -2.00946832 40.31823349
2.49337578 0.68645978 40.92720413
-0.19885576 0.96426415 40.83681870
1.11523211 1.92320848 40.68661499
-0.27949023 1.04577005 40.42902756
0.11931467 0.39891729 39.46439743
2.40035820 1.57428741 40.53535843
2.06691027 2.03811359 39.43730164
2.68190670 1.40559602 39.68153763
1.04507792 2.10409498 39.61170197
1.55337834 2.10358906 39.32929993
2.19537067 0.19005145 38.63328171
2.67556787 1.96309435 40.49689484
2.08167887 0.03600348 40.30552673
2.53815055 0.55393410 40.70001221
1.27152884 -1.50721490 41.10593033
1.62770259 -0.63760519 40.19522476
0.11152220 0.51239908 39.62536240
1.68883157 1.96366680 38.91123962
-0.32162011 1.86368227 39.91335297
-0.06041968 1.98227918 39.49863815
1.30499256 -1.79320371 39.70552444
0.03358972 0.68666852 39.82287216
1.06240749 2.30350828 39.03147888
0.18706161 0.21040288 40.38810730
1.71454811 -0.29516238 40.89113998
0.29338932 -0.02418197 38.69277191
1.50287271 -1.54325306 40.20372772
0.88504368 -0.06993347 38.97521591
1.44781423 -1.61146283 40.23344803
2.39122534 2.30428600 39.03771973
1.66886079 1.40934646 41.76502228
2.36062431 0.25938970 39.37516785
2.43791199 2.14637280 40.03542328
2.43441343 1.62262762 40.31678772
2.16858125 -0.17699607 41.12639236
0.19444770 0.21467170 38.60818481
-0.26689732 2.03055763 40.06801224
0.84325099 -0.69700283 40.05023575
0.22395945 0.56087589 38.68006897
0.85480714 1.12259972 39.16081619
2.21974874 0.26993111 40.10847473
1.09400392 1.81585276 41.40900421
-0.00712621 0.37819514 39.37052536
1.07450116 1.06950402 39.14457703
0.40420198 2.09385300 39.30884552
1.71279156 -1.59469700 40.45754623
-0.25508690 0.57498336 40.82074738
2.71274281 2.07885075 40.43692398
1.87898266 -1.22592795 40.90441895
1.74742413 1.96524489 40.12538910
1.49261570 1.52321780 41.79835129
2.18612289 -0.18680942 38.58082962
0.25478894 2.07956743 39.64397812
2.50463247 1.20413864 41.31392670
0.95361269 -0.12486032 38.65618134
0.27643806 1.04288363 38.88286209
-0.30004597 1.36866331 39.62321854
1.70798826 -1.53169358 40.73269272
1.50816751 1.73967505 39.00689697
-0.26695275 0.56683522 40.50042725
-0.11852050 0.78470558 39.01740265
2.08108664 0.42503247 40.88043213
1.30868685 2.32953453 38.91273499
1.18723106 1.88151073 40.43645859
2.34854341 0.55445987 40.82624817
2.50263596 1.61620963 41.16945267
2.73525286 2.05486870 39.70756912
0.87171948 -1.49926031 39.69153214
1.72410059 1.68304360 39.38082886
2.34629297 1.88713467 41.15327835
0.19424915 -0.19699061 40.66700745
1.60726690 -0.36233941 39.12420273
0.73824048 -2.37041378 40.20917892
1.48261237 0.37431085 39.22843552
2.14923000 -0.40538722 38.76113510
2.14821219 0.51478022 39.67935944
2.66289091 1.69870973 40.17309952
1.68159854 -0.38574558 41.14731216
-0.37559068 1.25878179 41.58115005
-0.14247513 1.09743774 41.80496979
1.79755068 -1.38304377 40.90890884
1.94517875 -1.07599938 40.73783875
1.67352164 0.47947896 39.26602936
2.61795092 1.22876072 39.74121475
2.10259867 0.82788014 41.94103622
-0.17014146 0.73271132 40.70148849
2.27476335 0.69435179 41.87453842
0.87507391 1.13394487 41.74245834
1.92888141 -0.34574109 38.79567337
2.72839928 1.77914560 40.70064545
0.10294688 1.62959146 39.06896973
2.00997019 2.30207014 39.23040009
0.27665991 1.20566475 41.84524536
2.55035663 1.67227876 40.37235260
0.30440664 1.88325083 40.65882492
2.71466041 1.84251249 39.14968109
0.37566602 -1.21660423 40.38465118
0.99605161 -0.41041964 40.08976746
1.53728187 -0.31193620 39.90136719
1.04933715 0.52024800 39.24341583
-0.02005744 -0.06920238 40.96528625
1.16428971 -2.12044621 40.06253433
1.94381595 2.04097605 39.77951813
0.47502267 2.06406832 40.04249954
-0.26432300 1.30428696 40.39697647
1.52053499 0.40298238 39.25613785
2.49616432 0.25314409 40.61453629
0.06331849 1.43960941 38.98152924
1.80660713 0.22084746 39.31521225
0.23853129 -0.48703682 40.38748932
1.12417650 -0.04918020 38.93587494
1.96695900 -0.40715879 40.83185577
2.44542694 0.91199452 41.02142334
0.38168490 -0.19644737 40.91826630
-0.28148794 0.71385938 41.46048355
-0.01903892 0.91541481 38.84274673
2.50867796 1.48004186 40.96673203
2.69331646 1.23318350 40.08290863
2.54536772 2.09437895 40.72961426
1.24551141 1.77102566 41.52825165
1.99761558 2.04889631 39.61299515
1.97510695 -0.98764342 40.86218262
2.35320330 1.99763000 39.83329391
-0.40240526 0.96855295 41.38894653
0.92466527 -0.51630437 40.06155777
2.71003795 2.08107376 40.20057297
2.71168637 1.36459482 40.03260040
1.03847849 -0.10111701 38.89283371
-0.37756276 1.19190633 41.54970169
2.26422405 0.66536134 41.96760559
1.46640396 -1.11650026 40.19198608
-0.21201098 1.41402960 41.30021286
1.50043285 -1.53421926 40.30732727
0.34473616 0.13531619 39.75901794
-0.13149285 0.33265635 40.57804489
0.03768837 0.34204331 39.37135696
-0.20871592 1.64149487 39.63951874
0.45409071 -0.72387463 40.96603012
1.26129150 1.79082310 41.00605011
1.12341690 -0.29474300 38.72409821
0.79338473 -1.99011600 40.76478958
2.37064958 2.07788754 39.92026138
1.83008671 0.39270395 38.88787079
1.73625016 1.72734475 39.06368637
2.57484865 1.51269174 41.00611115
-0.03701854 1.79706836 41.53389359
1.52292132 -0.31006604 39.84846115
1.78515983 0.88170385 41.87201691
1.73923123 -0.83146745 41.09135437
2.17645669 1.85818529 40.96496582
0.26422054 1.06766617 38.77185059
0.40282482 0.52850348 39.60931015
0.71474546 1.97824967 40.29878998
0.87554163 -0.78471810 41.20058060
2.48143578 0.63657206 39.55350494
1.90943015 -0.18985170 39.71175766
-0.43253267 0.98089588 41.42964935
0.37193835 -1.36356652 40.75180817
2.20377994 -0.14275619 41.16303635
0.58001620 1.87994933 41.16590118
1.10950983 0.01788216 39.27318192
0.13533473 -0.29843870 40.62607956
1.80165434 -1.31214964 40.91667938
1.14452684 -0.15095621 38.85739517
1.00236022 1.60865521 39.09310532
0.48586667 0.71373695 39.15087891
2.66984797 0.93762589 41.46497345
-0.24849474 1.28981650 40.32133865
0.93703401 1.79254329 41.46247864
2.67426777 1.17612243 39.88020325
1.69870496 2.14688778 38.90540314
1.25678921 -0.34103152 38.84426880
1.52968264 -0.33810309 38.86227798
1.55357909 0.56851584 39.25473785
2.02462149 1.90836143 38.84158325
2.35112047 0.80655825 39.08682632
0.88645518 1.93711054 40.42242432
0.67450631 -2.19746017 40.57926178
2.55245829 1.53186977 39.54903030
0.72018075 -0.23366249 38.68300629
0.29960591 -1.03054953 40.42576599
2.24536228 0.00523445 39.29617310
0.76782978 1.18305910 39.16471863
0.22354901 1.78918076 39.05173111
2.73316550 1.67536318 40.98275375
0.66007853 2.18912935 39.16079330
2.23417568 0.84863597 41.90596771
0.29192013 0.10316165 38.62124252
0.81732637 -0.09274270 39.05229950
0.87413955 -0.17742288 38.90817642
1.84162474 -0.26400802 40.97365570
2.75805140 1.86687601 39.92369080
0.10321438 0.25239751 38.62741470
0.14986050 1.97966182 40.38377380
2.57322550 0.82107091 40.51058197
2.67376518 1.70290077 40.34408951
1.73937726 0.30419025 38.94062042
1.48050284 -2.24124050 40.15987778
1.84806347 2.24901867 38.92266846
1.57360470 -1.83255494 40.53816223
1.78976047 0.22823212 39.40614319
2.17189217 0.48388422 41.71389008
2.11107397 -0.19388209 39.25038910
2.63953829 1.72044551 40.08206177
2.35193849 2.07068920 40.71255493
2.40318251 2.22983980 39.68744659
-0.12999547 2.06038523 39.48818588
-0.24235618 0.80684274 40.84724426
0.63885343 -1.73539209 40.92112732
1.56408095 -1.77370250 40.70430756
2.54169726 1.13657331 41.26232147
1.08549285 0.12956901 38.89096069
0.35455191 0.54339588 39.56879807
0.35299957 0.47833186 41.05518341
1.31953216 -1.76676846 39.73334885
0.85632122 -0.01746635 39.11954498
2.50324225 0.22159374 40.72140503
-0.25445187 1.36849427 40.03332901
2.44805813 2.24098682 39.49134064
1.59133947 0.34215876 39.14402771
2.11065936 2.31415749 39.30222321
0.73201579 2.09515905 39.38919449
2.44647646 1.76199472 39.16899872
2.55692339 1.51909208 40.99268723
1.81093645 -0.48450044 39.69857788
-0.00082707 -0.20574620 40.88428116
1.82890940 -0.48322845 39.40675354
-0.19083416 1.74092793 40.32541275
0.81175077 0.01811372 39.47978973
0.66069794 -1.52569461 39.89108276
0.27350271 0.20363508 40.16138840
2.65855217 2.04259443 41.10321808
1.49976957 2.03769302 39.87500381
2.47196054 0.68499714 39.66133118
0.40499002 -1.45869100 40.71224594
0.79758978 0.71933532 39.18124771
2.78574657 2.06806803 39.04207230
0.03722954 0.19750631 40.39902496
0.37331754 0.04907971 39.38249588
1.20186830 -1.92191184 40.85166550
2.26033330 0.35030383 38.69694901
2.35729218 -0.24528851 40.93318939
2.12102365 0.42914197 41.30789948
1.32046652 1.89803851 40.66859818
-0.11703241 1.15871668 41.89109039
0.71184337 -1.70351934 39.76171112
0.99316263 -0.74277800 41.29619598
0.02772558 0.46607459 41.31537247
2.41911793 0.45388862 39.92476654
1.32531774 -0.91465718 40.07581711
-0.33769798 1.29867589 41.39672089
0.18315232 0.81361496 41.75813293
0.68773973 -1.46119750 40.99514389
2.58050799 0.70986319 40.06127930
0.56117111 -2.03132033 40.25626373
0.68133891 0.38005215 41.49723434
2.40401220 2.05944538 41.07769775
-0.37271369 1.35225201 41.43972015
1.34441376 -0.29584348 40.00307465
0.46427619 -0.30785114 39.01657867
1.61518598 -1.93001604 40.46219254
2.76202106 1.99770010 39.54386520
1.69604325 -0.47411671 39.18296814
0.95853138 2.17866278 38.79012299
0.32782584 1.12053573 41.87120819
2.04666710 0.04338124 40.48662186
0.42845166 -0.13491666 41.41803741
2.42570472 0.51199239 38.97827530
0.31701928 0.18536508 39.31471252
0.98715925 1.76110637 41.68617630
1.35671377 -2.01976967 39.75837708
2.47464800 1.09608018 41.20462036
2.47368479 0.44329125 40.13041306
-0.01613593 2.17991066 39.59094620
-0.29027796 1.67414606 40.01461411
2.68443179 1.31658924 40.11462402
1.76810706 -1.39445353 40.65275955
2.10257721 1.84735239 40.66100693
-0.23087955 0.62439835 40.09227753
2.20679951 2.08519840 39.69799423
0.19985551 0.06434335 40.14517975
2.23182726 -0.37043238 40.81657410
1.57675076 1.76721382 41.68016434
1.03706479 1.68111312 39.18910599
2.51541758 0.74992388 39.59123611
0.03377759 -0.18641032 40.93941498
2.67121363 1.05357111 39.68708801
1.94538391 -0.90422076 40.48926163
1.83992147 0.36434725 39.44609451
1.35907388 -2.01340389 40.68769073
2.02738261 0.08658393 38.61793137
-0.20482290 1.65322590 39.65083313
2.21802616 0.29322848 40.24179077
0.95206809 1.79771340 41.22670364
0.17187524 0.04263289 40.44765472
0.44093585 -0.43760973 40.05091476
1.52315271 0.32090479 38.96428299
2.49076271 2.21395731 38.92440033
2.08629346 -0.25358880 40.32761383
1.61124945 1.57759893 41.84368896
2.68735361 2.12023020 39.83705521
0.29343671 0.25900957 39.81479263
1.85243702 0.21661621 39.28598785
0.86801660 1.88277829 38.93793488
0.76367128 -1.55611444 39.81558609
-0.25288594 2.06723452 39.82777023
0.44460648 -0.21145016 39.53229141
1.35089159 -2.40131664 39.99798965
0.46163464 0.70556176 39.04238129
2.12106085 1.35544670 41.79698944
-0.36298585 1.76512122 40.93308640
1.69557297 -1.59696996 40.65287018
2.32903242 -0.03576867 39.04534912
0.98369473 -1.16964555 39.92995453
0.55027884 -1.90438199 40.05779266
1.73891389 0.22813186 39.33481598
-0.39557755 1.14417696 41.16443634
0.63292307 -0.20426381 41.41872025
2.60399485 1.02550089 40.36264801
0.43443787 0.76388967 38.99042511
-0.24649739 1.22420526 40.98996735
1.43220174 2.41016722 39.14910507
-0.19026291 1.50580895 40.70427704
1.19998610 -0.92870331 41.29859543
2.29082966 0.48266083 38.74235916
1.08792913 2.15374804 38.81285858
-0.13836992 0.48371243 39.31769562
1.44313002 -0.81351286 41.32296753
2.14825320 0.29803166 40.09138107
1.82145655 -0.25115681 39.93976974
1.53855693 -1.23134685 40.31443405
-0.24149561 1.49169922 40.07290649
1.70957851 -1.32399368 41.00988770
1.28424180 -0.29036257 41.53818512
-0.27570522 1.27090669 40.21089554
2.48329258 1.20275092 41.37562561
2.61105299 1.25929499 39.61968231
1.37452483 -1.08635557 41.21783066
1.13051391 1.38084030 39.08298111
0.56959277 -1.27648425 40.40541077
0.03472793 0.65392160 39.59897614
1.12819481 1.91184890 40.74682617
2.17394114 -0.00475986 41.00966644
2.44911623 0.20028533 39.23505020
0.61544412 -0.94042295 41.15496826
2.03284788 1.83372128 41.03250885
0.58948100 -1.30835962 41.04452896
0.38616753 0.44261113 38.72964478
1.47121525 2.29990816 38.97377777
2.08341455 -0.00864163 41.09711075
2.57017684 2.05279446 40.95979691
1.51680171 -0.22467862 38.77119827
2.56541777 1.30851018 39.31114197
1.19078708 -0.45010900 40.06880188
1.21093583 0.80689955 41.75468063
2.28651905 2.21067333 38.95216751
0.83073592 -0.90936095 41.27977371
-0.30703485 1.97085965 40.74552917
2.47809029 2.21663046 39.36282349
2.42755842 0.74766266 39.30245972
1.89882553 1.80011868 41.47466660
-0.16207147 1.32788575 40.99953461
0.14113271 0.46740657 40.19743347
-0.24636734 1.10401821 40.87463379
0.59166747 -1.05683672 41.14631653
0.01464140 0.26418510 39.27566147
1.15665710 -0.93668568 41.32325363
2.36926293 0.03744245 39.17662811
0.31472868 -0.17148571 38.90750885
-0.12046885 2.08528614 40.24561310
0.39747357 1.38038146 41.74918365
1.41895831 1.33559728 39.09467316
0.92483544 -2.26927948 39.75825500
0.51443541 1.21801460 39.12880325
-0.24394882 0.45394278 40.40000534
0.59842849 1.79912531 41.05782318
0.37448907 1.80210865 41.49083710
0.24722338 0.36889863 39.44453049
0.67311704 1.52954209 41.73244476
0.24164659 0.27163300 39.34712982
0.05457687 0.53855866 39.58836746
1.72092438 1.60358644 39.35855484
0.94943380 -0.69072956 40.04339218
0.60865301 -1.63914585 40.13367081
0.36066878 0.35699514 41.06591034
-0.30840480 1.89140904 40.87411118
1.37012815 0.13679430 38.76132584
2.53173280 0.69608909 41.52726364
1.74918246 0.23464748 41.41680908
1.96736276 -0.18218461 38.80709076
1.97181439 0.42953315 41.11038589
0.61658162 0.84674853 41.68077087
-0.20933783 1.10087168 40.00809097
2.28832150 1.36121416 41.13820267
-0.10241365 2.11068821 39.75643921
-0.26920211 1.61672843 40.01172638
2.13532877 0.46314287 41.45395279
2.34758353 1.93407559 41.58019257
1.53751636 0.13671774 38.78920364
1.10926318 1.89645493 40.49057770
0.59038150 2.06028461 40.09586334
1.52855289 -0.73681056 40.09349060
2.34813881 1.82839251 39.07921600
1.94735610 2.03403425 39.91090775
1.58017957 0.73407674 41.76899719
0.23797995 -0.63765389 40.35326767
1.60690355 -0.38760898 39.11367035
1.40235949 -1.57734287 41.01432419
2.68894291 1.32675326 40.09017944
0.24928421 2.00463486 40.19971848
1.35107791 2.14166737 38.84184265
2.46282864 2.19275284 39.83656311
1.39636540 0.47930330 41.76332474
0.03493285 0.58378744 38.72681808
1.54930472 -1.79951441 40.67490387
2.04481435 0.85213041 41.95636749
1.68763900 1.01045310 41.82031250
-0.29096580 1.68622565 40.04038620
2.67197680 1.74268508 41.30776596
2.07210970 2.30071497 39.27978134
2.51243877 0.79684085 41.22261429
2.11101985 1.74506283 41.61494827
2.28973222 1.59041762 41.84809494
1.66673839 -0.35151836 39.29382706
0.95879650 -0.19613038 38.89309311
-0.27184391 1.42717695 39.54615784
2.67239070 1.81210911 39.46236420
-0.30128765 2.04306602 40.41413498
2.08694983 0.44357657 41.36106491
0.53637904 -1.90751910 40.52581406
-0.29180467 1.11139381 39.78289032
2.12928009 -0.43010128 40.54816437
2.64499068 1.90361118 40.49605942
2.33856416 0.46958661 39.82678223
1.89060664 -0.41605386 39.60578156
-0.09069669 0.74930829 39.62148666
2.50328398 0.71431488 39.36822510
1.35799539 -0.12863478 39.74426270
0.29438019 -0.33366570 40.06921005
1.61997008 2.36887646 39.00143433
0.68632257 -1.47841215 40.12481308
1.79587579 2.26242733 38.92097855
-0.29742134 0.98117423 40.65003586
-0.11329508 0.87730473 41.76135254
2.01373196 0.17316681 40.21643829
2.65477657 1.93460321 41.31972122
-0.06377697 1.71411800 40.52977753
-0.20677590 2.01304150 39.68476868
1.39184248 -0.07084614 39.52648163
1.94316578 1.85474956 40.96688461
2.46314406 2.17959404 40.00640488
0.53114378 0.08062636 38.85086441
0.17691791 -0.55840433 40.76112747
2.62192774 2.18714094 40.02292252
2.19755363 0.16494446 39.47821045
1.71549928 1.26605940 41.84463501
2.32110071 1.39902687 41.06945419
-0.23081434 0.38875651 40.35324860
0.80012500 -1.62282801 40.98585510
2.02096462 0.30700487 40.08294678
2.02582383 1.33982635 39.09460831
0.70219982 0.19608581 41.58198166
1.39829540 0.29254431 41.67404556
0.15205252 1.35199571 41.77467346
0.44702399 -0.46630567 41.07662964
1.60243630 0.03084091 41.58239746
-0.31026506 1.72456646 40.05968094
0.79523516 -1.39453948 39.84448242
0.34792650 -1.00938821 40.38892746
0.93608981 -2.27204895 40.64092636
0.41698420 0.15203805 39.46759033
2.81762815 1.86547828 39.42002487
1.99071908 0.30154762 39.53378296
0.32712036 0.43674991 39.95889282
1.85112894 -1.30238152 40.89974213
1.91947448 -0.33559406 39.06634521
-0.11498702 1.82347608 40.26636505
0.96552992 -2.21771622 39.97545624
-0.30827498 1.57402325 39.84851456
1.88054037 0.86566836 39.16008759
1.29229832 -1.65979862 39.71079254
0.58905137 0.18226643 38.79850388
0.81459564 -1.34322393 39.82823181
2.56792045 1.50008237 39.44803619
1.10534680 -2.32341719 39.83885574
2.55779457 1.59480739 39.40640640
0.46689725 1.32490897 39.04701996
2.66674232 1.18841434 40.03241348
0.56490457 -1.67648757 40.68053818
1.76985312 1.37229359 41.83941269
2.08815455 0.29595736 41.32436371
1.41458702 2.28516102 38.92050552
0.21696317 0.54603750 41.32349777
2.61507368 0.74882406 40.40323257
1.50482154 -1.60000777 39.97600555
1.54168904 2.34442425 39.10299301
-0.30510092 0.56374031 40.45297241
1.02125287 -0.61779362 41.34956360
0.64040947 1.55622530 39.21271515
0.87756586 -1.12904477 41.21572495
0.98030061 1.47916520 39.11552048
2.00169516 0.85239035 39.06458664
1.17216969 -2.36231041 39.95799255
0.98305982 -0.11377885 38.95142746
0.67144763 1.92790580 40.80113602
1.70544958 -0.21539733 41.40091705
2.30893326 1.92637563 41.61463165
1.56804585 1.79003203 41.47638702
1.00043714 -0.28973949 38.88199234
2.39962149 2.29195499 39.27112961
-0.22941554 0.35253713 40.41139221
0.14330888 0.42480549 40.95687866
-0.20780575 0.20447885 40.86835480
0.71153647 -2.26404190 40.64168167
-0.31157541 0.79795480 40.98033524
1.22797918 -1.90964937 40.89071274
2.05078220 1.23511076 39.06066513
0.90041506 1.84944177 39.02429962
1.40681052 -2.25270987 40.46503067
1.45690775 -1.72526574 39.98519516
0.24879497 0.24448499 41.17578125
0.89533401 -0.08098404 38.70478058
1.51420760 0.72282857 41.71976089
0.40243739 1.87061405 40.71438980
1.50574291 2.05639219 39.47009277
0.71833092 1.43880415 41.71370316
2.44255471 -0.05684017 40.62943268
1.15247726 -1.47877693 41.10481262
0.88620484 2.17827606 38.81346893
2.07819033 2.06125593 39.58585358
2.07605553 -0.43383175 40.57478333
2.08142948 2.06324196 39.48507690
2.09402776 -0.20167726 40.31335068
-0.01774311 1.84936988 41.23575211
1.65164900 -0.49132735 40.18880081
1.81965625 -0.14717960 41.24596024
0.46948087 -0.42238319 39.75208282
-0.28046191 1.29739654 41.74405670
2.60505652 1.68993831 40.46894073
1.77869010 -0.41670218 40.86771774
2.10773349 0.54492283 41.89878082
0.47680408 0.17439678 39.23110962
1.90871465 1.62204075 41.81350708
1.20350409 2.25573063 38.93627167
0.48237807 2.10390759 39.02396774
1.47764587 -1.52068579 39.78045654
0.22306985 1.96931756 39.16106033
-0.09338415 0.09475335 40.49448395
2.40321207 1.37814891 40.81037521
2.44828701 0.78761917 41.15517807
1.59248877 2.04699373 39.89968872
2.44218087 1.68298316 40.55938339
1.43577266 1.44466698 41.80932999
2.45650005 1.03597939 41.83186722
2.41553402 -0.02943076 40.78196335
2.53553534 1.30007279 39.38560104
1.87443721 -1.12203038 40.60196304
-0.05062783 1.55791819 41.01152420
1.29715323 0.94238192 41.73904419
1.27487254 0.28584275 39.08208084
-0.29727006 1.62886882 41.11403275
1.80447733 -1.35533929 40.97499084
2.06830168 -0.14834292 41.11154938
1.16478097 1.84762061 39.16032028
0.64458203 -0.51346648 40.08814240
0.55933565 0.39835891 41.46446609
1.76104212 -0.14949201 41.33983612
0.67859805 -0.30597696 41.33663940
0.49881995 -0.62558657 41.11503983
0.87567633 1.17098725 39.13146210
0.46749055 -1.35230625 40.97116470
1.67451739 -0.86454612 41.13366699
1.84896445 -0.04222162 39.94057846
0.38770169 0.96023059 39.04552841
2.00168562 -0.34785768 39.00994492
1.34792316 0.64795822 39.17378235
2.59373665 1.40643799 39.72543335
1.15235114 1.98162878 38.95135880
1.80013204 -0.28895620 40.97152710
1.68466604 0.97639787 41.80983734
-0.16420913 0.65973997 41.03061676
2.11705780 1.90345240 39.04894257
0.04067826 0.53720236 38.71446609
0.85106480 -0.17122321 41.43675613
-0.30438507 1.09919298 41.13676834
0.82489979 1.86840427 38.98894119
2.43156528 0.78945017 40.88779831
1.33125484 -2.18739080 39.79387283
0.93895018 -1.36028898 39.81053925
1.88144541 0.90029776 41.94418335
1.66194367 -0.21678716 38.83988190
2.39836884 2.13833094 39.56520462
0.70639014 -0.04949687 39.17534637
1.89208508 0.39454263 39.51448441
2.28266740 1.73992109 41.67306900
-0.17840266 0.79473621 39.27679443
-0.23630607 1.43113649 40.18318558
0.06682372 0.58748364 40.90179825
2.70729542 2.01065540 39.65203094
2.35745001 1.39469802 40.90995407
1.50352728 0.74121845 39.19731522
1.90890586 -0.50124919 40.44882965
1.88670075 -0.44239250 40.90482712
1.01107395 1.60301709 41.78876114
2.50449133 1.45736217 41.63706207
2.46984482 1.23527050 41.37702942
0.78018451 -1.81796372 39.78266525
-0.03666651 0.71452659 41.59003830
0.86575150 1.27865624 41.71104431
1.07344818 2.33924484 38.92459869
1.30374265 0.64546740 41.72201157
1.76130533 0.47704560 41.37757111
-0.31846416 0.94600314 41.57725906
0.36379373 -0.10370486 38.81901169
2.06822824 1.75090039 41.36125946
1.79118204 -0.17469382 39.92766953
2.42937803 0.62270910 41.50625229
2.00028300 -0.61720866 40.82657242
1.26311684 1.02903879 39.13967514
2.44436717 1.24455798 40.96229935
-0.00994146 1.12676048 39.11282730
0.30322546 0.62751013 38.72455597
1.29072261 0.37155953 41.65716934
2.00647783 1.72012234 39.26086426
1.86795270 0.01469056 39.72605896
1.37765110 -0.74072719 40.00769424
0.98278725 0.06586791 41.54954529
0.27641028 1.51860261 39.04644775
1.51554513 0.65935171 39.24484253
2.21487689 1.51082551 39.12578583
0.26414591 1.58078873 38.93329620
0.67735875 -0.42790368 39.96094894
1.44410455 -2.12857151 39.85963058
0.20121533 2.02069807 39.97960281
0.52588993 1.89555168 40.86698914
2.10397387 -0.39762032 40.54609680
-0.17383957 0.83845651 41.69296646
1.22672510 -1.34049690 41.17618942
0.16667461 1.68891382 39.03626633
0.10981894 1.20578432 41.78277969
0.42878187 0.89989251 39.01996613
0.35875219 0.56654906 39.78989792
-0.18887818 0.81640559 39.06858063
0.45127732 -0.74784905 40.19634628
1.61233103 1.44602787 39.08471298
0.27469826 0.20349632 39.70803070
2.37665009 -0.27619004 41.07898331
1.22548795 -0.67599308 39.97719955
1.65649223 1.92474735 40.52289963
0.80860984 1.74918091 41.63967514
0.51414329 1.00756943 39.15616608
0.02869642 1.90267432 40.79233551
1.77496088 -1.19739354 40.59473801
1.45484734 -2.04291821 40.16999817
0.48983598 1.85315251 40.87404251
0.04204130 0.62753707 40.01022339
2.65868521 2.21229887 38.97572327
2.21024489 2.03667784 39.58319473
2.31248450 0.54294419 41.07820892
1.90380144 0.31901744 38.69713211
2.67015433 1.24581659 39.48187256
1.58030427 -0.30591148 41.41650772
1.72916985 1.07562613 41.80955124
-0.11378074 0.32176584 38.88629150
1.13330781 0.78234565 41.69160461
0.80234849 -0.26577991 41.44661331
0.78087914 0.33004993 39.21699905
-0.01885414 0.52733040 41.53392029
0.22297966 -1.02663398 40.57177734
1.25038683 0.88423610 39.17681122
2.77637434 1.95370674 39.91832352
-0.32660329 0.97916007 41.55536270
-0.12473345 1.71714127 41.57980728
0.28838193 -0.93082410 40.92195892
-0.21114480 0.62709576 39.97966003
-0.31799781 1.04454470 40.26382065
1.13231528 1.60805249 39.26910400
0.94288933 0.80688554 41.74009705
1.34272742 0.03735868 38.75757980
0.73998576 0.44627815 39.26883316
1.35440147 1.73062623 39.10909653
1.85573697 -0.45050049 40.11532593
1.77765465 1.40859783 39.18768311
1.23647869 1.53007686 39.14704514
1.97739601 -0.94230694 40.92618942
0.50055403 -0.89288676 41.11363220
0.51697850 0.15968987 38.83446121
-0.06895292 -0.11927448 40.92691422
-0.29371023 1.54869473 41.68438339
1.85340071 -0.60065812 40.90879059
1.33953166 -0.15697467 38.72967148
2.70121193 1.66471493 40.87311554
1.92231095 0.42500368 39.80920792
1.68929815 0.90634030 41.80526733
2.44862318 1.29094195 41.28553391
0.68039471 0.94956285 41.66012955
-0.24344730 1.43044889 39.53633881
1.88856781 -0.08303298 39.44272614
1.44588304 0.25553969 41.61072922
-0.16257036 0.02438477 40.71973801
2.32823181 0.57008177 38.89195633
1.89360356 0.55911547 39.13754272
1.73413444 0.71930528 41.79726028
2.61428165 1.13945782 41.54533386
1.29829693 -1.26116049 41.15865707
0.79840171 0.25977549 38.78164673
0.24813306 -0.08339719 38.61071014
0.75768113 -0.15594020 39.86811447
1.94405985 0.73953116 38.86935043
0.86646175 0.02927292 39.14346313
2.40133810 2.01386595 40.81081009
2.15306044 1.29082680 41.79642868
0.25377458 -1.06497180 40.83745575
1.52680779 1.13736629 41.73024750
0.19648945 1.51982772 38.96855927
-0.31694877 2.02048779 39.88989639
0.43321592 0.08600183 41.42987442
2.26637840 1.74146545 41.67193222
1.72221112 0.42610106 41.49131775
1.70574141 -0.50915504 41.12682343
0.06798172 0.46494424 38.67558289
0.43045551 -0.35421628 40.13090515
1.47940469 -2.14989996 40.58495331
2.11252952 1.92915070 40.36709595
1.78747940 0.18983062 39.22101593
2.08280230 2.01088285 40.02805328
0.29046661 0.47743714 38.69826508
2.11642098 -0.14558147 39.15365601
0.89547133 -1.12334299 40.09357834
2.35131764 2.28641844 39.08594894
0.78035653 1.41865242 39.11420441
0.59676385 1.95055294 40.69379044
1.44785011 -0.08985914 41.58164978
1.55747676 -1.46714675 40.46293259
1.00542247 1.05117738 39.13326263
1.29308200 2.35084295 39.15157318
2.52952123 2.26477242 39.01295853
1.98300469 -0.08774181 39.17580795
0.23504466 1.75393581 41.58214951
1.14752996 -1.70265150 41.00003433
2.35273218 0.40003899 40.88869476
0.41826087 1.57287002 41.74061966
1.12211275 1.85489213 41.10927200
1.26110196 -0.83831769 41.29600143
-0.09374177 0.72678918 38.86394882
2.43343878 2.08132935 41.04882812
0.68336433 -1.47256839 40.14681244
-0.10198367 1.68242431 41.73892212
2.39905596 1.22071254 41.00037766
2.03453016 1.69102490 39.37549973
0.14209795 2.01475096 39.94648743
0.53380281 -0.99582314 41.09829330
-0.25044715 1.16967309 41.76283646
2.36189938 0.02589782 39.17541885
-0.31308353 1.48771989 39.85414505
1.07834625 -0.13766605 38.84010696
2.58086729 0.87149811 41.18706131
0.28049892 0.53317571 40.92258453
1.77143908 0.02845614 38.88024521
0.12420332 -0.11974493 40.33346558
2.33780909 0.19532587 38.79113770
0.51911980 0.58459795 39.09346390
2.38708591 1.59382284 40.61995697
1.62509573 1.45295870 39.08133316
0.92072940 -2.06934929 39.67982864
1.65440524 2.10327196 39.28842545
0.96107036 -0.23616271 38.64944839
1.47775424 -2.12301493 39.96929550
1.37758982 -0.05989039 39.69655991
1.40935993 1.57595646 41.78942871
0.79286170 -0.15587674 39.88512802
1.81278396 0.49655819 41.52901840
1.46126711 -2.08903027 40.51100922
2.77330017 1.87850475 39.95032120
2.54582548 0.56163543 40.32215118
1.98778224 2.37069368 39.04658890
-0.32310092 1.00951648 39.87590027
0.86394876 0.89727008 41.66220474
0.66047090 1.84137690 41.11841202
1.01215816 1.56584203 41.80176544
2.33198953 0.64994192 39.03860092
0.11024451 2.06508636 39.49729156
0.52122849 -2.06369781 40.57993698
2.49235773 0.77735656 41.38365936
0.55034578 2.05975962 39.69411850
0.82480872 1.06762969 41.80055618
2.49299812 0.72459751 39.33486938
0.39499331 0.36085454 41.37640381
0.64367074 0.97536790 39.25687027
2.65702629 2.16182613 40.20069504
2.39940286 2.03832006 40.88671112
1.44256091 1.40339983 39.09270096
0.71571565 -0.25087962 38.95510864
1.66938555 1.16517663 39.15425873
1.38708794 1.99460638 39.88855743
1.59549582 2.36332512 39.01037216
1.63388705 -1.93173909 40.27041245
0.02521098 1.81695366 41.28690338
0.64963001 0.28994048 39.13380432
2.35148716 2.11492205 39.36280060
2.26003504 -0.30658305 41.13097382
1.38268006 1.93634176 40.15084076
0.51901466 2.09033251 39.75122452
1.91438591 1.00607848 41.93291092
1.90324080 -0.11669385 41.18447876
0.21589744 -0.75601232 40.54455185
2.46702886 1.59105372 40.29416656
2.71676826 1.95095909 39.04297638
0.44128251 -0.96440935 40.96168518
0.99868906 -2.45321035 40.57909012
0.53617436 -1.07327867 40.29013824
1.80422592 -1.17623973 41.01868057
1.08228219 -1.80432284 40.88198471
0.64278269 -0.21666974 41.46045303
1.16772223 1.87927246 41.02193451
0.20741248 1.40998304 38.99968719
1.75143993 -0.50230908 40.17633438
1.73844767 0.06654980 38.89551544
2.52849674 1.64284146 41.15782547
0.84644783 0.99979055 41.76360321
1.80881643 1.52654552 41.86655426
1.31250238 2.00771809 40.01049042
1.30489361 -1.27332926 41.17783737
0.37496567 0.69443363 41.66769791
1.63133240 -1.07473969 41.11626434
-0.19271553 1.45900714 40.80102921
0.39053202 0.18016297 38.76107407
0.70963800 1.36252129 41.67460632
2.55334806 1.64479780 39.16308975
2.11822176 -0.47325954 40.68402100
-0.03837776 0.74170715 41.63924408
2.32911873 1.73523259 39.35859299
0.78565311 1.12359822 41.69635773
1.22940207 0.12864490 38.83678436
-0.34527647 1.94039774 40.65565491
2.24049425 -0.03348396 39.22265625
0.53426898 -0.38311934 40.11486053
0.87483591 -0.97113353 40.05092621
-0.06354153 0.14203158 39.08269882
1.96691024 1.58868849 41.88320923
1.99184990 -0.85448319 40.92158508
0.58320254 -1.81194592 40.69108963
0.41245347 1.00054967 41.76725006
0.31130147 -0.72976077 40.34262466
2.44865394 0.40598822 38.96069717
-0.12390566 1.74840927 40.34319687
1.22310793 -1.68892658 39.64796829
1.93205905 -0.34268305 40.00807953
-0.40868747 1.23610711 41.42442322
2.33885717 2.05279493 40.08980179
1.62664199 1.33286607 39.10150146
-0.01498163 2.03011274 40.24010468
0.16401267 0.97625816 38.72578049
1.09124053 -0.11302810 38.61508179
2.31288481 2.14732027 39.43095779
2.70304322 2.05073881 40.24835587
2.14725447 2.30083561 39.00247574
1.54854560 0.67821252 39.21892166
2.54348469 1.20576394 41.29697800
0.98221940 -1.85650873 40.92005920
1.52146900 1.19260859 39.12767029
-0.33932853 1.28856909 40.72010422
1.25923550 -2.40851259 40.06672668
2.55997896 2.25657082 39.71201324
0.31774455 -1.36559355 40.50242615
2.47007751 2.19648695 38.99704361
1.91064143 0.34090844 41.31367493
2.71250892 1.71070290 40.94747925
0.42074490 0.29149380 38.77219772
1.04207575 -1.98458195 40.85151291
1.36023664 -2.25519657 40.56140518
1.11056840 -1.88343632 39.59383392
2.74562883 1.81068552 40.68941116
2.54298759 0.39474812 40.70355606
1.13580167 -0.00336282 41.49658966
1.15895712 -0.04956697 39.70768356
1.78020930 -0.30822453 38.90691376
2.14119792 2.15110922 38.93405533
-0.27300525 0.98019361 39.61756516
1.45065701 1.19052279 39.10919571
0.22032267 -0.15166458 40.06080627
1.01103604 -2.36349058 39.84246445
0.03154147 2.06461477 39.74758148
0.10489571 0.57885504 41.52710342
-0.26638150 1.71298265 41.55127716
1.44219661 -1.46800578 41.04128265
0.41479594 1.85696721 40.74183273
2.54355240 0.89950669 41.20218277
1.73128200 -1.35923421 40.49377060
-0.12664425 1.47469354 40.78356552
1.03375244 -1.60887897 40.95476151
0.85011470 -2.15880775 40.19124603
0.21417487 -0.29318911 38.83886719
2.27655172 -0.11431415 39.09024811
0.35989791 0.45099479 41.21604538
1.65907073 1.64834368 41.85269165
1.17832994 1.51218474 41.81810379
1.03247178 0.17342927 38.89379120
-0.25941968 1.99282444 40.85272217
1.53232908 1.40299129 39.16730881
0.15488029 0.91378915 41.87744904
0.71083790 -0.67570716 41.28123093
0.42577571 -0.44526675 39.62488174
0.47559381 0.67423987 39.03776550
1.66598272 -0.25352865 41.39704132
-0.13439476 0.63197243 39.11253357
2.28819466 0.01757533 39.26361084
0.40742880 -0.88609642 40.24961090
1.58541298 1.26232803 39.10449982
1.52684307 -2.08239746 40.19068146
2.27470231 0.94631338 38.97159576
1.21746385 -0.02957740 39.44110107
0.01417959 2.04667854 39.29962540
1.66806722 1.04380798 41.74357224
1.73437190 0.31634340 39.60616684
0.31467575 0.90046078 41.85202408
1.45639598 -0.10127985 39.45175552
1.58342695 1.15009511 39.16068268
0.83557791 -1.93592775 40.88576508
1.26788521 -0.70297647 39.97956848
2.75882435 2.13551331 39.01159286
0.18193543 0.57277989 39.67809677
0.45855254 2.01192522 40.14186478
-0.18954372 1.52994394 41.77070236
0.34606791 -0.03995143 38.74269104
2.52686524 2.04112911 40.79229355
1.28679812 2.00941086 40.11679840
1.50838983 -1.63261688 40.76249313
2.42207837 1.07679868 39.17860413
1.50536656 -0.36475354 38.70420837
1.36839521 -1.45192695 39.85611725
2.29395866 0.07865483 38.69250870
0.41883010 0.32065549 41.32512283
1.40384173 0.39324397 41.63585663
0.94105017 0.67841405 39.21122742
0.65136451 -0.15398443 39.83795547
0.42148471 1.04118752 39.07571793
0.55220735 -1.82947350 40.07098389
2.79914236 2.11635733 39.27289581
-0.10106444 0.34168097 39.15842056
1.91486192 -0.28490928 39.96686554
0.07129848 0.68952966 39.66634369
2.02414894 -1.01663244 40.76714706
1.94055498 1.93807030 40.65314484
2.15910912 0.56113905 39.77724457
-0.10078931 1.78581965 40.47783661
0.41344714 0.24934763 41.42503738
2.24195170 1.68256748 39.30570602
0.19085252 -0.25303781 39.03818893
1.22374427 -0.08588214 41.58295822
-0.14742887 0.52204686 38.96920013
1.43908024 0.99576986 41.79410553
1.07870150 -2.10675764 40.08018112
1.02784824 0.76274347 41.75127029
0.07413018 -0.18159749 40.75165176
-0.16866386 1.34013069 40.90731049
0.46182054 -1.80717421 40.35868073
1.45364392 -0.30453408 39.99474335
1.91911197 1.69232786 39.03774643
0.36738902 -1.35744011 40.57878876
1.46034837 1.02688074 41.74343491
-0.28587341 1.64497733 39.58236313
-0.24013221 0.95450926 40.99909973
2.44850683 0.13366099 40.55808640
1.55977476 2.02789402 39.86463165
1.82268381 0.48963177 39.66030502
0.60679698 0.22570178 38.80206299
1.12891495 2.06450176 39.46028137
2.12798643 0.31690007 39.88055420
1.07667327 -0.55951494 41.45094681
1.69761574 1.64523721 39.32803726
0.55601180 -0.29095697 39.05792236
1.36317492 -0.37847519 38.87803268
1.11412311 1.72211814 41.73714066
0.97835779 0.36231089 41.61970901
0.88839608 2.20964813 39.16653061
1.97648680 0.47221106 41.77900696
1.32522225 2.09478903 38.83912277
2.33764410 0.73009574 41.91281891
0.45253509 0.57667595 38.87054062
0.60251343 2.10077763 39.48149872
2.24163389 2.03341150 39.52216339
1.96404660 -0.07177025 39.21144485
2.12452340 2.29581928 38.97840500
0.63924825 0.31727636 39.08650970
2.01224136 0.44623759 41.57380295
2.51089668 2.23383188 39.41093445
1.43068671 0.82958442 39.15733337
0.52575159 1.63728952 41.71974945
0.55761099 -0.12817700 39.24856186
1.35980213 2.32253361 39.10146332
0.89243621 1.67698407 41.77394485
2.57529020 1.01036620 41.37543106
0.24464309 -0.30167729 39.61405182
0.40424359 -0.64614171 40.88346863
1.89924204 -1.18688810 40.64343262
2.53607798 0.76933628 41.55246735
-0.08180332 1.52707326 41.83907318
2.04369783 1.90063977 38.89034271
-0.20418823 1.42249501 40.81280518
1.40707946 0.73456413 39.17271042
2.42962909 0.35597402 39.07567596
2.48693109 1.11300242 41.14400482
2.46428394 1.12089992 39.09417343
0.60315239 -1.29762244 41.04489517
1.21984828 1.78861773 41.18484879
-0.02371514 0.40920883 38.81230545
1.79379916 0.42780414 39.19174957
1.87419641 1.02317071 41.96493912
0.97368515 -1.92530644 40.84827805
2.03298903 -0.42226341 38.74724579
2.65801525 1.13005507 39.83963776
2.46729326 0.94979179 40.91211700
2.20427012 0.32846555 40.84331512
0.19919705 -1.03969860 40.75908279
0.86198533 1.23688602 41.73346710
1.27857602 0.10930040 41.64408493
-0.17704320 0.75827146 40.74683380
-0.22253966 1.09898865 39.65733719
0.73108566 -0.33469108 38.84075165
2.16677022 1.73661220 41.64369583
2.34074545 2.04226303 40.79733658
0.98876560 0.72400731 39.16119003
2.51621509 0.55642718 40.53629303
0.19405282 2.05002022 39.62849808
2.50776148 2.14277077 38.93103027
1.70632756 -0.48538241 39.56369781
0.76337361 1.72993326 41.71904373
0.49171132 -0.45113322 40.02716064
-0.14997530 1.74873316 39.38336563
2.21191597 1.47738087 41.84513474
1.49953115 -0.90610319 40.19491959
1.01263416 -1.15728021 39.89821243
0.45997757 -0.56551206 41.03702164
0.94625992 0.32310051 41.56887817
2.66548872 1.74801385 39.46048737
0.27952790 -0.25152403 39.63139725
2.21741104 0.49338502 41.20422363
2.68818808 2.25125217 39.89890289
0.19106930 0.82390362 38.73379898
1.23232353 -2.16885805 40.63652420
1.85358787 -0.33403155 39.49236298
0.95163125 -0.62021708 40.05083466
0.40003735 -1.08277476 40.91843414
0.11340439 1.90650761 39.22627258
1.95991457 -0.42274085 39.70415497
1.92249072 1.86295819 38.94307327
1.29886734 0.93759429 41.72636795
0.92903161 -1.24258482 41.16970062
0.58038920 0.85451400 41.66986847
-0.00842285 1.62247419 41.73806381
1.28816462 -1.07384467 40.07622528
2.29781699 -0.28631133 41.13462448
2.57865739 1.24685669 41.66209412
0.44439471 0.34475666 39.41592407
1.12061179 1.80018210 41.50150681
1.64645076 2.04845476 39.88878632
2.64113522 2.14798975 40.15982056
0.06271505 1.81817198 41.65177917
0.24246353 -0.22000349 38.72117996
1.06687069 1.64134479 39.19845581
0.41284680 -0.25507024 41.18955612
0.21650952 -0.61836594 40.83165741
-0.30808139 1.24206853 40.66147614
0.51269776 2.01822138 38.96615219
1.56927729 -0.08564723 39.31548691
-0.26000893 1.80739021 40.14092255
2.46943569 0.64563322 40.98229218
1.00481856 -1.99057424 39.62666321
1.63911092 -0.80068731 40.22964096
0.44832236 0.37570438 41.34845352
-0.32485926 0.79643929 40.31827164
0.53409994 -2.02273369 40.38677597
1.02287281 2.09063148 39.34473038
2.00778842 2.33454895 38.92941284
2.61140060 0.64861488 40.35379028
0.31738311 0.63726133 41.62636566
1.69182706 -0.24213022 41.41127014
0.95306152 -0.21223027 41.48601532
0.92866117 1.50058174 41.73225021
0.27885699 -0.31681490 39.02541733
0.96250576 -0.12057312 38.88185120
1.64528918 1.40832376 41.75448990
1.94637012 0.45547861 41.30491638
2.77688837 1.94764447 39.47573471
