-0.01553104 0.18145846 0.00012999
0.01430264 0.20675310 -0.02745984
-0.00371064 0.13376005 0.01182439
-0.04292072 0.07156869 -0.01210783
-0.00696341 0.10893793 -0.03288523
-0.00051055 0.20309801 0.01264555
0.03231284 0.21497521 -0.01792661
0.02880095 0.16581193 -0.02828589
0.01133107 0.20073994 -0.03312045
-0.03040986 0.13614129 -0.01434897
-0.00767404 0.06126846 -0.01451493
0.02249472 0.10347033 -0.02368025
-0.02712606 0.05812833 -0.03784121
-0.03877643 0.05239222 0.00744131
0.00568847 0.17625079 0.00815259
-0.02326366 0.17090592 -0.02917675
-0.03182311 0.11090647 -0.02618525
-0.02404746 0.07587087 0.02468639
-0.01063682 0.06019083 0.03297037
-0.02630225 0.08647080 -0.03110724
0.01569842 0.24782743 -0.02230823
-0.00135871 0.23492733 -0.02205271
-0.01426035 0.05163596 -0.03494667
0.00203337 0.23031041 -0.01530328
0.02747726 0.05288352 0.01410778
-0.02873778 0.15450674 -0.00430376
0.00502832 0.11037059 0.00867034
0.01336488 0.14403221 -0.03277577
0.00953482 0.20600006 0.01265242
0.03340487 0.22473460 -0.02244528
-0.02786198 0.14019348 -0.00416507
0.02305609 0.16572526 0.00585272
-0.03492094 0.08898063 -0.00761815
-0.01820891 0.11972702 -0.00151021
-0.03214870 0.10047057 -0.01255166
-0.00097701 0.10335495 0.00763417
-0.00573412 0.08817880 -0.02542214
-0.02972155 0.16786233 -0.02316858
0.02743404 0.16081730 0.00100316
0.00971293 0.18954629 0.00343997
-0.03988672 0.06695455 -0.02643254
0.01057784 0.13930577 0.01561875
-0.02034851 0.18725960 -0.00869972
-0.00705955 0.06068984 -0.00848488
0.03192568 0.10778317 -0.01301675
-0.02177424 0.13787223 0.00237145
0.03016816 0.13479908 -0.00846964
-0.02721752 0.09766343 -0.02210591
-0.02558942 0.24278565 -0.01670812
-0.03982779 0.07766970 -0.00613683
0.00878015 0.13781178 0.01753578
0.00222778 0.09107798 -0.03137920
0.02249484 0.06272367 0.02192049
-0.04504143 0.06339860 -0.00161791
-0.02361702 0.07987615 -0.02344811
-0.03198399 0.13749896 -0.02021429
0.00367396 0.05324904 -0.04302662
-0.01474339 0.19179069 -0.03032790
0.00547409 0.06173646 -0.00352741
-0.01290276 0.20639735 0.00124373
0.00181025 0.11716212 0.00505794
-0.02682810 0.13002989 0.00384847
0.00196393 0.11699623 0.00332002
0.00855193 0.05983682 0.02665161
-0.04261964 0.05796652 0.00212021
0.00969363 0.07641246 -0.04250728
-0.03501470 0.10486323 -0.00973405
-0.02578939 0.22641708 -0.02658384
-0.00909225 0.24499618 -0.01466782
-0.02423594 0.15405197 -0.02356262
-0.01965544 0.19702253 -0.00617069
-0.02492781 0.18268305 -0.02769144
-0.02377971 0.11580893 0.00028115
0.03054405 0.06152575 -0.02597092
-0.00820582 0.08892138 -0.02030543
0.02668996 0.15421531 -0.02405155
-0.01995753 0.06842343 -0.04247653
0.03020273 0.07934664 -0.01492288
-0.01251731 0.08513221 -0.01161930
-0.02081983 0.12578565 -0.02615401
0.01715038 0.09300090 -0.02801162
0.00932968 0.12248956 0.00198402
0.02661342 0.06994989 0.01966989
-0.01581759 0.11227280 -0.03223595
-0.00491423 0.14291118 -0.03556061
-0.00132846 0.23722515 -0.02379542
0.03067047 0.16369255 -0.00117728
-0.03164346 0.06119917 -0.01685511
0.00379825 0.14011233 0.01814617
-0.00292222 0.08813912 -0.03045911
-0.02167413 0.23205385 -0.02614283
0.01039341 0.24724677 -0.02664757
0.02305430 0.11945827 -0.01197103
0.02104577 0.05614335 -0.00057276
-0.01569833 0.04988199 -0.04295896
0.01846567 0.15840104 0.01461692
0.01910187 0.24302794 -0.01882342
-0.02343447 0.14826591 -0.03013157
-0.02126532 0.08238560 0.00896263
-0.00332626 0.10926843 -0.03267776
-0.01940104 0.07865895 -0.02302581
-0.01010193 0.17091350 0.01398234
-0.02751393 0.09463701 -0.02599528
0.01565797 0.06071492 -0.04130638
-0.02216741 0.07029801 -0.04238049
-0.00910451 0.10688585 0.00619289
-0.00259161 0.09337455 -0.00393873
-0.02983951 0.14705317 -0.01890169
0.01019723 0.13215430 0.00802044
0.02020785 0.07470616 0.01854248
0.01472355 0.06001215 0.00413259
-0.04284291 0.07650330 -0.00777678
-0.01289958 0.17185165 0.01118727
0.00327425 0.22376868 -0.01479086
-0.02823720 0.05984467 0.02240071
0.01013538 0.22181676 0.00532674
0.01538214 0.19873770 -0.00469256
0.01437453 0.09775248 -0.01561890
-0.01382200 0.17813200 -0.02467444
-0.02938049 0.07139899 -0.03455633
-0.01041232 0.13849996 0.01213763
0.03258196 0.07720482 -0.00051279
0.01511433 0.08039964 -0.03083967
0.03451275 0.07231807 -0.00532172
0.03461614 0.18156449 -0.01045035
0.03639185 0.06777903 -0.00513925
-0.02398118 0.11310951 0.00222746
0.03337906 0.19937937 -0.02347254
0.01282306 0.06118027 0.00526662
0.01685320 0.11964469 -0.00658128
-0.00545811 0.06271478 0.01629668
0.03390138 0.23980761 -0.01774743
0.01384417 0.08909713 -0.00799247
-0.00487323 0.13418865 0.01280264
0.02875611 0.16571462 -0.02713688
-0.02071428 0.15327403 0.00706658
-0.03862114 0.07492518 -0.01974105
0.03094668 0.10299507 -0.01560628
-0.01413933 0.07887779 -0.03774702
-0.02059449 0.05634721 0.02575096
0.02988857 0.13247915 -0.00702356
0.01420633 0.08166859 0.01937922
-0.01671174 0.21863660 -0.03206373
0.01721555 0.18417433 -0.00111645
-0.00836588 0.07999478 -0.02840281
-0.02442408 0.24505344 -0.01696953
0.03217233 0.19023293 -0.02803076
-0.04197472 0.06361960 -0.02411420
-0.03790198 0.05494536 0.01755826
-0.01955487 0.16067733 0.00682047
-0.00316475 0.23604655 -0.01920433
0.02378399 0.07947426 0.01700301
-0.00822544 0.07927202 -0.00307867
0.01611738 0.10356392 -0.02729374
-0.00618825 0.06011779 -0.00981614
-0.00907205 0.12080131 -0.03338546
0.00861041 0.07976437 -0.03341224
-0.03097783 0.13412210 -0.01303373
0.00757704 0.08826145 -0.03133963
0.00809183 0.09601653 -0.03084784
0.03416768 0.18752384 -0.00549997
0.00824538 0.06008811 -0.01863887
0.02813228 0.04970363 0.01002435
-0.00945404 0.18162249 -0.02842685
0.01476813 0.13256380 -0.03117238
0.02613360 0.10417317 -0.01663012
0.02320931 0.15043253 -0.02904163
0.02682673 0.17819270 -0.00868179
0.01293502 0.06140599 -0.01069243
-0.00618763 0.18925312 -0.02934104
0.02126589 0.10325438 -0.02278379
-0.02963919 0.14052537 -0.00718946
-0.00991336 0.18024333 -0.02964575
-0.01656839 0.11106884 0.00296702
0.02096906 0.05870646 -0.02946902
0.01391685 0.15658773 -0.03050288
0.02898701 0.22172628 -0.02671772
-0.00113398 0.17108399 0.02039038
-0.02373553 0.11132614 0.00297101
-0.00912085 0.07992202 -0.00356855
-0.01528122 0.08160538 -0.01645293
-0.01957022 0.18910375 -0.02578329
-0.01795456 0.05896771 -0.03360786
-0.02135007 0.11659281 -0.02681080
0.01520946 0.10849260 -0.00482819
0.00708656 0.18795761 0.00406493
0.03400952 0.18707080 -0.01606900
0.01887678 0.19633530 -0.00547609
0.00217073 0.07915578 0.01650907
0.01794950 0.08026474 -0.03548373
-0.01488256 0.15079781 -0.03104112
-0.01897473 0.16685674 0.00592536
0.00457806 0.09344117 -0.01180392
-0.00532972 0.20678353 -0.02928719
-0.00280124 0.07098410 0.03532935
-0.01429289 0.08134365 -0.00804428
-0.04329138 0.07023495 -0.01605077
-0.02235151 0.08828838 0.00621491
-0.01172233 0.07854018 0.00320290
-0.01131701 0.06041682 -0.04422612
-0.02739714 0.14826971 -0.01052223
-0.00498487 0.24155307 -0.02336686
-0.01082598 0.06339355 0.03382935
0.00617219 0.19101055 0.00596621
0.00050281 0.18166296 0.00726184
0.00702082 0.22214788 -0.00999352
-0.02069549 0.19335395 -0.00695499
-0.01900187 0.15196122 -0.03075359
-0.01732582 0.04928230 -0.04343997
0.01414418 0.06358646 0.02802917
-0.00768131 0.17294481 -0.03048366
-0.02507219 0.13285750 -0.02181104
-0.02409038 0.21857068 -0.01308507
0.01010135 0.09137832 -0.02040870
-0.01669990 0.11014755 0.00236668
-0.03339708 0.05563693 -0.00023121
-0.00660174 0.08068023 -0.01030746
0.01381309 0.20714666 0.00372449
0.01423769 0.16732249 -0.02781717
-0.02650787 0.13147096 -0.00443492
-0.03081008 0.11105993 -0.02529090
0.03227166 0.05248990 -0.00418219
0.02245649 0.17369674 -0.01564695
-0.02446631 0.12138410 -0.02041771
-0.02913629 0.23505145 -0.03143081
0.02592986 0.17716299 -0.01440708
0.02168102 0.11468080 -0.01523265
-0.02615605 0.21081713 -0.02720980
0.03566505 0.20074223 -0.00947926
0.01228899 0.13858001 -0.03405492
-0.02832656 0.13315079 -0.01977298
0.02839130 0.06548197 -0.02515254
-0.02543915 0.12234636 0.00187308
-0.03721739 0.08787642 -0.00925088
0.02337186 0.20900008 -0.03201530
-0.00542764 0.18768428 0.00744223
-0.00916507 0.06537972 0.03289926
-0.03535022 0.11203764 -0.00661533
-0.01576773 0.10749725 0.01141610
-0.00741231 0.20586744 -0.02985894
-0.00872859 0.06149510 0.03112871
-0.00180471 0.22219485 -0.00134825
0.01349595 0.06703604 -0.04231483
0.00671943 0.09160639 -0.02500083
0.03184321 0.19533685 -0.02032103
0.02463331 0.05959603 -0.03165378
-0.01999043 0.18199961 -0.02727257
0.00133282 0.08009765 0.02810658
-0.01706490 0.15795372 -0.02746533
-0.00164375 0.16954426 -0.03143531
-0.00373981 0.20577787 -0.03197152
0.00959877 0.17841555 0.00934439
-0.00985073 0.24478811 -0.01147628
-0.00762222 0.19438125 -0.03155076
-0.00476722 0.13467693 0.01177697
0.00672963 0.24049070 -0.02492398
-0.00721692 0.17960714 0.00624477
-0.00077958 0.18545108 0.00192764
-0.02287591 0.08069927 -0.02851121
0.02359431 0.16459662 -0.00023607
0.01988289 0.15436050 -0.02873590
-0.01650445 0.16939242 -0.00250494
-0.01204753 0.11228304 0.00675809
0.00987617 0.16932860 0.01405334
0.02539260 0.20696181 -0.03303396
0.01459393 0.09438778 -0.03128854
0.00727737 0.18589026 0.00060173
0.02765860 0.22263944 -0.02651469
-0.00179782 0.24371067 -0.01849485
0.00404346 0.05790106 0.02565529
0.01989862 0.11758813 -0.02644975
0.02265664 0.07785833 -0.01394967
-0.02892421 0.08798119 -0.01972127
0.02281533 0.16686073 -0.00122277
-0.01268831 0.11782089 -0.03378715
-0.03128697 0.05271056 0.01834914
0.01215262 0.19792400 -0.03048618
0.00197585 0.19048929 -0.03221456
-0.02023761 0.10427298 -0.00069359
0.00192253 0.06001370 -0.01185017
-0.01422640 0.15043972 -0.03133722
0.01145861 0.09580237 -0.01444595
0.01855881 0.11676428 -0.02726759
0.02520804 0.04989841 0.01018387
-0.00031288 0.21815670 0.00872857
0.02135100 0.16945900 -0.02048617
0.03055359 0.18444107 -0.01715979
0.02519080 0.11888944 -0.01531195
-0.00561566 0.16656396 -0.02905201
-0.01887593 0.18070704 -0.00163797
-0.02565679 0.19024003 -0.02941458
-0.01716949 0.05500531 -0.04296673
-0.02447782 0.11034375 -0.03026890
-0.02162111 0.22523192 -0.01781699
0.00719942 0.11844210 0.00304400
0.00736540 0.09829964 -0.03070985
-0.02389630 0.21405900 -0.03137878
-0.02506513 0.11946838 0.00230244
-0.03431297 0.05311959 0.01765231
-0.02091940 0.19053029 -0.00720905
0.03262237 0.20106976 -0.02199773
-0.00117345 0.16422264 -0.03317239
-0.01619133 0.14693326 0.00911787
-0.02242507 0.20349644 -0.02933323
-0.02420351 0.21669024 -0.03030342
-0.02417579 0.20873818 -0.03015319
-0.01674998 0.08934069 -0.02334179
0.00276234 0.06464407 0.03331390
0.01982790 0.08321930 -0.01550344
-0.00724393 0.18133658 0.00260550
0.01100688 0.12015073 0.01119767
0.02836827 0.15497267 -0.01482968
-0.02987383 0.21104908 -0.02413905
-0.01093845 0.14199923 -0.03143617
0.00900767 0.09333132 -0.02840713
-0.02965455 0.07434152 -0.03138196
0.02118367 0.11354584 -0.02024877
0.00994164 0.12414578 0.00424050
-0.00397296 0.06056491 0.01131428
0.00214366 0.07851925 0.00781235
-0.00602041 0.18923745 -0.00333594
-0.00825371 0.05987214 -0.02472099
0.01123001 0.21901330 -0.01521061
-0.01348444 0.07825007 -0.00014670
-0.01858831 0.06359185 0.03145230
-0.03530955 0.05078624 0.01919764
-0.01991199 0.21472302 -0.03014453
0.02776515 0.12911725 -0.00762229
-0.02502532 0.13142553 0.00067522
0.01850216 0.14280528 0.01008826
-0.03132304 0.09960720 -0.00261781
0.00528990 0.14496030 -0.03735172
-0.02513663 0.21713597 -0.03040804
0.02682599 0.15629146 -0.02431288
-0.00098230 0.06368785 0.02188842
-0.02858795 0.12275206 -0.00388874
-0.04353388 0.07027188 -0.02388305
0.02484820 0.16318367 -0.01723286
0.01111780 0.06225012 0.01319943
-0.03607035 0.06474784 -0.03188422
0.03237541 0.07995056 0.00073081
0.03057913 0.06959655 0.01572928
-0.01645314 0.09310529 -0.03266146
-0.02482279 0.11518005 -0.00030898
0.00406769 0.07828211 -0.00680493
-0.02713344 0.17458999 -0.02256218
0.02534275 0.20292684 -0.03348753
0.00927748 0.23955590 -0.01872835
-0.03240918 0.14514111 -0.02052965
0.01945921 0.21697313 -0.02700499
0.00545292 0.21021754 0.00932240
0.00440281 0.12092470 0.00685174
-0.01914371 0.19270328 -0.00654910
0.02211248 0.07898631 -0.01341710
0.00070053 0.06176034 -0.01720541
0.00417233 0.23538387 -0.02138096
-0.00245148 0.21885759 -0.00686331
-0.00410368 0.12232039 -0.03519700
0.00634763 0.07901837 0.02830554
0.02502167 0.14506745 0.00266069
-0.00309776 0.11416231 0.00507160
-0.01611549 0.08731202 0.00152269
-0.00747813 0.16672851 -0.03107469
0.03226969 0.20097612 -0.02911889
0.02188752 0.10258682 -0.02680808
0.02356878 0.23920605 -0.02207479
-0.02105751 0.22134660 -0.02856192
0.02557506 0.16361274 -0.01259284
-0.00621252 0.08815241 -0.03124093
-0.02026149 0.07122870 -0.04069366
-0.03407731 0.06642372 0.02371051
0.00902694 0.17659940 0.01277087
0.03358756 0.15972534 -0.00376740
-0.02750717 0.20828444 -0.02697023
-0.02248870 0.23883909 -0.01545963
0.01976406 0.22079697 -0.02572777
-0.01925239 0.13939928 0.00875180
0.02500061 0.20638660 -0.00898557
-0.02127440 0.09771205 -0.02998781
-0.03166544 0.07702366 -0.03164750
-0.02926739 0.11958207 -0.02068757
0.01974919 0.07524896 0.02017694
-0.00230618 0.17007619 -0.03217071
0.00400984 0.20304245 -0.03055153
0.01218940 0.14958805 0.01757642
0.02349445 0.16029246 -0.02707682
0.02213075 0.15712385 0.01164993
0.01308222 0.13252057 0.00556821
0.03277419 0.06955434 0.00242793
0.03002445 0.16291298 -0.02762717
-0.02591039 0.15462066 -0.01412605
-0.00598129 0.09075749 -0.01601928
0.02151215 0.12759840 -0.00912448
0.02150624 0.06117095 0.00311426
-0.01439918 0.20680949 -0.00978433
0.01807246 0.14647347 0.01292101
0.01746172 0.05681202 -0.02683765
-0.02269763 0.16575418 -0.02290995
-0.00209416 0.06058869 -0.01490681
-0.03089467 0.14965127 -0.01378749
-0.01538660 0.16237183 -0.02777305
-0.01844356 0.16748494 -0.00863560
0.02908670 0.17956108 -0.00967617
0.01088189 0.20476407 -0.02999752
-0.02631225 0.13877712 -0.00162513
0.02117617 0.18317501 -0.02731615
0.01331745 0.18020386 -0.02765377
-0.01966466 0.16635998 -0.00792203
-0.01508821 0.14504600 0.01190342
-0.03390074 0.11636358 -0.00921550
-0.01990107 0.15124607 -0.02646612
0.02073050 0.10799944 -0.02308377
-0.02838500 0.18325888 -0.01900672
0.01903766 0.24394467 -0.02004844
-0.00054919 0.07900399 -0.03019958
-0.02158451 0.05533692 -0.03840273
-0.01751931 0.17869006 -0.00336497
-0.03122853 0.11429044 -0.01959431
0.02972578 0.20702468 -0.01228999
0.02541849 0.07401296 -0.02979087
0.01325910 0.07700437 0.02710068
0.03022307 0.15923798 -0.02762927
0.00996063 0.08002177 0.00257925
-0.02675679 0.21155807 -0.01675384
-0.01464244 0.20468923 -0.00458903
0.01629091 0.08869748 -0.01180839
-0.01138835 0.09297897 -0.03166018
-0.02622341 0.15016104 -0.02341991
0.00123770 0.06157409 0.00433069
0.03078499 0.07853155 -0.00589941
0.03210366 0.18528174 -0.01551650
-0.03643414 0.06602865 -0.03325798
-0.03072870 0.08719800 -0.01788384
0.00868794 0.05528536 -0.03594886
0.01210651 0.17340787 -0.02953189
-0.02656670 0.10575625 -0.03154859
-0.03060159 0.05874969 -0.02053125
0.03010366 0.18176281 -0.02491706
0.00118172 0.22316308 -0.00320882
0.01032943 0.16836394 -0.03108024
-0.00919395 0.11098562 -0.03314970
-0.03082409 0.15868370 -0.02251517
0.01534317 0.24277881 -0.01936029
0.03064900 0.21651357 -0.02258734
-0.01522304 0.08361628 -0.00350973
-0.02676786 0.19131643 -0.01527827
0.02886800 0.13626091 -0.01575093
-0.00551729 0.19146638 0.00954638
-0.02370118 0.08769795 0.00173221
-0.00428958 0.19362028 -0.03079168
0.00896647 0.20491710 -0.02717401
-0.02872046 0.14451879 -0.02543542
0.03051152 0.19567892 -0.01962697
0.01829439 0.08735187 -0.01084189
0.00647569 0.06044831 -0.01252010
-0.00063947 0.13428691 0.01439989
-0.04767632 0.06833981 -0.00413975
0.00808096 0.20325382 -0.03087484
-0.00745984 0.15259029 0.01997268
-0.03064250 0.10917623 -0.00321432
-0.01796355 0.05554207 -0.03287552
0.01265021 0.20485139 -0.02669462
0.01594609 0.10626365 -0.02617056
-0.02445986 0.06007101 -0.04130930
0.00590617 0.13599071 0.01815563
-0.00665885 0.08066620 -0.04277838
-0.00307871 0.16691050 0.02062297
-0.01054583 0.08108126 -0.02636376
0.01345400 0.14154813 0.01298898
0.02771067 0.22159752 -0.01250949
-0.02165051 0.23861581 -0.01894173
0.00740084 0.21962205 -0.01272221
0.01781529 0.19871606 -0.03002258
-0.00491143 0.06299559 0.01312083
0.03194297 0.17600890 -0.02375713
-0.02760993 0.16939341 -0.02072398
0.00961905 0.07858349 -0.03766122
-0.00671287 0.06060545 -0.01657154
-0.01502469 0.09979078 -0.03300023
0.02037784 0.19760987 -0.00647027
0.00828810 0.07930698 -0.02538135
0.00395279 0.20062169 0.01223551
-0.01350842 0.15696698 0.01296115
0.00971990 0.20389983 0.00923108
-0.02361188 0.16142786 -0.00747927
0.01558564 0.24700096 -0.01909421
-0.01079602 0.20706896 0.00884362
-0.00229379 0.14105619 0.01665202
-0.03085044 0.06094373 -0.00468448
-0.03646443 0.09177905 -0.01471740
0.00134325 0.06465231 0.03195805
0.01620479 0.07999643 0.00899207
-0.01745269 0.16842426 -0.00663021
-0.03535598 0.05722611 -0.00284631
0.01217930 0.10911757 -0.00288333
0.01320009 0.14522989 0.01631286
0.02741394 0.08351611 -0.00267017
-0.01475175 0.13146579 -0.02951702
0.02786560 0.17787954 -0.00251876
0.01011498 0.07888301 -0.02640391
0.00079787 0.22156581 -0.00801321
-0.01449696 0.18379189 -0.00169756
-0.02760586 0.22172576 -0.02028613
-0.03676940 0.07922240 0.01212332
-0.02098571 0.06547219 0.02949698
-0.03834828 0.05713890 -0.00784612
0.00944170 0.24071509 -0.01106919
0.03379457 0.22397441 -0.01341952
-0.01096359 0.14749213 0.01521081
0.02761898 0.07871720 -0.01573513
-0.00718886 0.06992345 0.03278161
0.02443288 0.10811301 -0.01790746
0.00706709 0.07746818 -0.04187657
-0.03366469 0.08047760 0.00047086
-0.03006754 0.10760599 -0.02225662
0.03328700 0.16745009 -0.01035676
0.03405285 0.17970988 -0.01189692
0.02801609 0.20717427 -0.01267990
0.03365124 0.16260496 -0.00766810
0.03258850 0.21972889 -0.00909944
0.03130525 0.24035087 -0.02862790
-0.03057366 0.06078382 -0.01603206
-0.01200241 0.08422862 -0.01723391
-0.00204119 0.23585902 -0.01674698
-0.00173683 0.06081117 -0.03269431
0.03017647 0.20377907 -0.02734340
-0.01327483 0.18241245 -0.00012188
-0.02418743 0.16326424 -0.02673834
-0.00401693 0.13094267 -0.03653231
0.02209758 0.15961245 -0.02548195
0.00192147 0.21866399 0.00958921
0.02204763 0.07655766 -0.03017510
-0.01234373 0.19634381 0.00779909
0.01872675 0.14823200 0.01485648
0.01927028 0.20226906 -0.00481374
-0.01428857 0.05940612 -0.03122706
0.00936919 0.18353328 0.00388472
-0.01294132 0.06158629 0.03082519
-0.00749227 0.24563292 -0.01532996
-0.01694885 0.13947344 -0.02770886
-0.01883932 0.08607762 -0.03514152
0.01974605 0.17223541 -0.02434066
0.03096429 0.06108091 -0.01191195
-0.00594409 0.20235816 -0.03022422
-0.00521770 0.07921220 0.02025148
0.02714645 0.19657859 -0.02986887
-0.01766415 0.17130423 -0.00188834
-0.00308353 0.09123559 -0.00092918
-0.01496355 0.08760375 -0.03398472
-0.00035044 0.09119359 -0.00415799
0.01943581 0.05784159 0.00889123
-0.01672605 0.15952878 0.01267152
-0.00034928 0.07731128 -0.04517735
-0.03542405 0.14044252 -0.01136153
-0.02740032 0.17718984 -0.02145620
-0.02425741 0.24000722 -0.01321064
-0.03243594 0.09506957 -0.01610881
0.03278931 0.17826845 -0.00438734
-0.01518047 0.13958424 0.01091226
-0.02472324 0.09320383 -0.03082581
0.00120102 0.10714135 -0.03362050
0.02744288 0.19030361 -0.00702176
-0.02481921 0.11151673 0.00329298
-0.01096343 0.07854805 -0.00781546
0.01283149 0.19705935 -0.00241118
0.01761854 0.08229961 -0.01203121
-0.01900365 0.12944722 0.00125731
0.03359757 0.22449681 -0.02381139
-0.01834697 0.13981098 -0.02519129
-0.03033186 0.13103938 -0.01382340
-0.00867492 0.16615599 0.01687657
-0.01241940 0.21427646 -0.02961929
0.01106576 0.07943375 0.02070758
-0.01466553 0.08702459 -0.03059874
0.00708464 0.08948076 -0.01409215
-0.02003096 0.08462537 -0.01373551
0.00058249 0.13494019 0.01452185
-0.02076006 0.06017394 0.02882802
0.03403319 0.19882798 -0.00596768
-0.03188042 0.09883500 -0.00392143
-0.00292478 0.20878735 -0.02115575
-0.04187576 0.05742176 -0.00084180
0.03037923 0.07578192 -0.00105472
0.00348273 0.21521838 0.01129812
-0.02944590 0.10949291 -0.00504846
-0.01755773 0.08679374 -0.01593050
-0.02453242 0.21487029 -0.02910827
-0.02475531 0.16194832 0.00449788
-0.02785394 0.18000007 -0.01988444
0.01006280 0.10203640 -0.00525382
-0.02827598 0.18584438 -0.01545690
-0.01591560 0.16755460 -0.00906395
0.02341758 0.20581059 -0.03171627
0.02832042 0.23669192 -0.01425738
0.00863562 0.10904954 -0.03246383
0.02232444 0.20589608 -0.00657303
-0.01870059 0.16226511 -0.01937666
-0.02412864 0.11726455 0.00377174
-0.02603403 0.13572089 -0.00257043
-0.02359710 0.13967279 -0.02446603
-0.01986651 0.14998347 -0.02687210
0.00231701 0.24830212 -0.02324558
0.02612657 0.22044474 -0.02697597
-0.01974473 0.16145650 0.00481352
0.02971897 0.17175180 -0.02506853
-0.02189951 0.07392218 -0.04012583
-0.00509633 0.06197691 -0.00549146
0.02847928 0.16416371 -0.02393127
-0.02672870 0.22415781 -0.01865778
-0.00445102 0.09309113 0.00485969
0.00583176 0.06708728 0.03254686
0.02730180 0.21315840 -0.03105658
-0.00680026 0.07992534 0.02538550
0.00120363 0.10083564 -0.03480053
-0.01104493 0.07910780 0.01366488
-0.00643132 0.21184933 -0.01017048
-0.02140324 0.11679199 -0.02642273
0.01829305 0.08051636 0.01748020
0.01725548 0.07744228 -0.02725459
0.00674098 0.09618631 0.00030777
-0.04509382 0.06693529 -0.01819954
0.01372889 0.07815883 -0.03573882
-0.03539530 0.05570874 -0.00398167
-0.03002153 0.14883392 -0.02135674
-0.02045348 0.06034216 0.01502682
0.01473850 0.05779056 -0.02910307
0.00804755 0.16115314 0.02106724
-0.02939230 0.13647933 0.00274606
0.01691863 0.15274578 -0.03066796
-0.00082967 0.13993900 -0.03631949
-0.02070201 0.24262182 -0.01704193
0.01314743 0.20518374 0.00742362
-0.00057826 0.09049620 -0.01031920
0.00539412 0.05933271 0.02135161
-0.03059406 0.11965882 -0.02012935
0.02487358 0.08458053 -0.00248835
0.02902140 0.15220283 -0.01457994
-0.02563054 0.16084139 -0.00026755
-0.03645238 0.07926561 -0.02543736
0.03282166 0.16516826 -0.01142253
-0.00585018 0.17346966 0.01161214
-0.02012688 0.07273635 -0.04138667
0.00174949 0.08852316 -0.03495146
-0.02155762 0.07879128 -0.02231144
-0.03003624 0.07024397 -0.03792392
0.02094656 0.06363360 0.02438820
-0.02688560 0.15821879 -0.02578296
-0.04283559 0.05616787 0.00699087
0.02039202 0.06343921 -0.03715653
0.00048258 0.21991779 -0.01136606
0.01780627 0.14609466 0.01247959
-0.03227047 0.15997328 -0.02405705
-0.03300723 0.14544483 -0.02235732
0.03126412 0.21466407 -0.01350506
-0.00186548 0.07846526 -0.03718986
-0.00252844 0.10384232 0.00555100
-0.00799526 0.08222517 -0.00507102
-0.01745937 0.18834184 -0.02633709
0.02983374 0.15995011 -0.02652932
0.01943742 0.21839473 -0.02251996
0.02174114 0.21621504 -0.00850520
-0.00438460 0.10558744 0.00513583
-0.02961486 0.11826646 -0.00879622
-0.03292384 0.05687618 -0.02046923
-0.02546432 0.11823772 -0.02086996
-0.01168922 0.21244767 -0.01222226
0.02795998 0.07250142 0.00548808
0.02678012 0.12670472 -0.01297866
-0.00292303 0.08970365 -0.01060253
0.02825488 0.07890838 0.00660372
-0.04143348 0.06396473 -0.02502573
-0.01791149 0.18655232 -0.02383647
-0.00835500 0.08053350 -0.01777282
0.00923061 0.06078130 -0.04056147
-0.02717721 0.17190251 -0.02264014
-0.00089613 0.22282927 -0.00120786
0.02680201 0.17797063 -0.00882215
0.00662503 0.09731518 -0.00600299
-0.02235284 0.13927852 0.00796036
-0.00062099 0.11152800 -0.03440386
-0.01104482 0.08001939 -0.01273257
-0.02358552 0.16073449 -0.01165759
0.00104472 0.05821642 0.02018013
0.00378511 0.11520027 0.00320457
0.00363615 0.19813386 -0.03183077
-0.01926043 0.07752914 0.02454703
0.00475427 0.22143650 0.00436870
-0.03581209 0.07369317 0.01139445
-0.02644658 0.15466505 -0.02416601
-0.02714206 0.05945283 0.01257979
0.03053938 0.10266019 -0.01024842
0.02251870 0.06390885 0.02334805
0.02828692 0.05824640 0.00705833
-0.03091377 0.08933368 -0.02484220
0.00848269 0.08032533 -0.00711105
-0.02674336 0.06950089 -0.04081769
-0.01246882 0.18639593 -0.00353208
0.01594857 0.10367668 -0.00680849
0.00287243 0.07891133 0.00517095
0.01544218 0.08200265 -0.01390738
-0.01924737 0.23973951 -0.02390814
0.01271546 0.09855571 -0.01635103
-0.02407711 0.18241623 -0.02798088
0.00670849 0.12169178 0.00523261
0.00909335 0.07147757 0.02900088
-0.02464929 0.12786710 -0.01980427
0.01967468 0.16584669 0.00871790
0.03003021 0.18270536 -0.01482696
-0.00292524 0.20504323 -0.02499187
-0.02666249 0.22825244 -0.01803058
0.02384542 0.05597667 0.01703300
-0.00929510 0.11145214 -0.03332719
-0.00586928 0.12978485 0.01009304
0.02651413 0.15646137 0.00944535
-0.03586204 0.05529148 -0.00198455
-0.02011044 0.24130180 -0.02821332
-0.00398693 0.16479233 0.01926209
-0.03160706 0.07757328 -0.01553427
0.00285810 0.08908626 -0.02349572
0.00108418 0.07566930 -0.04290992
0.00102242 0.22988212 -0.01286773
0.00248982 0.13524176 0.01521708
0.02415564 0.12120275 -0.01171522
0.00706916 0.19312838 -0.03341073
-0.00391610 0.06164911 -0.01781064
0.01504724 0.07064610 0.02766820
0.00008523 0.09442653 -0.00652146
-0.01321761 0.13403203 -0.03158587
0.00937234 0.08707424 -0.02793640
0.02280931 0.08511157 -0.00084521
-0.02273304 0.05750157 -0.02769405
0.01661477 0.09380702 -0.02929988
-0.00326978 0.14967722 -0.03679609
-0.03179279 0.07006697 -0.03337321
0.03133145 0.07222473 -0.02324744
0.01491021 0.21018547 0.00160858
0.01922861 0.12724629 -0.00709662
-0.00948756 0.15674525 0.01867907
0.00323508 0.23673287 -0.01019934
0.00396921 0.07839339 -0.04222228
-0.02043954 0.15374452 -0.02118011
-0.02774579 0.05280675 0.02094323
-0.01314800 0.04769434 -0.04366706
-0.02717057 0.20225412 -0.01909888
0.00403474 0.06269704 0.03391274
-0.02117600 0.19262968 -0.02699557
-0.01863296 0.07980624 -0.03589356
0.00887090 0.24337465 -0.01209822
0.01700479 0.07358597 -0.03465604
0.00465514 0.08815449 -0.03065192
0.00399498 0.06624572 -0.04565998
0.00924200 0.08098737 0.00736969
-0.01354482 0.07896890 0.01894574
-0.02844864 0.10900902 0.00113811
0.01775230 0.17188096 -0.02513870
-0.03189870 0.05680500 0.00822137
-0.02876914 0.05557387 0.01280733
-0.01751702 0.14215522 0.01149906
-0.01933517 0.23382923 -0.02421876
-0.02687291 0.20374458 -0.01665453
0.03180707 0.19695844 -0.02901579
0.02633637 0.22179995 -0.01309778
-0.01531787 0.06183542 0.00814624
-0.01559294 0.08059300 -0.02746907
0.03227964 0.20578201 -0.03025681
0.01446372 0.07740069 0.02384192
0.02998128 0.05673452 0.00254633
-0.03024086 0.10515361 -0.01606114
0.03427503 0.15115725 -0.00417079
-0.00709267 0.05590242 -0.04280429
-0.02386695 0.23240948 -0.01818214
-0.01166353 0.05572653 -0.04432615
-0.01955414 0.18400078 -0.02596481
0.02051728 0.24149320 -0.02424242
0.00625889 0.05924072 0.02317956
0.00518792 0.11890603 0.00546694
0.00583671 0.12403496 0.01362375
0.01106445 0.21475352 -0.01997259
-0.02347959 0.08933847 -0.01405853
-0.03830869 0.10743941 -0.01093713
-0.00433470 0.18524340 -0.02905243
-0.01366596 0.19655944 0.00448147
0.00997733 0.16022268 -0.03057255
-0.01451440 0.18641219 -0.00064790
-0.00091912 0.17043862 0.01637719
0.00816260 0.10663117 -0.00088963
-0.04273810 0.06040252 -0.00672468
-0.00018395 0.12831740 0.00942095
0.01651208 0.07707529 -0.03530227
-0.01675272 0.05997060 -0.02168342
-0.02804571 0.13970548 -0.00284048
0.00801075 0.20117806 -0.03128769
0.02658557 0.08253174 0.00017917
-0.04588187 0.06052013 0.00117738
-0.01135941 0.21320461 -0.02672414
0.01672288 0.15529050 0.01718002
0.01478671 0.10974157 -0.02887863
-0.02740025 0.07823929 0.02160404
-0.02100467 0.18950075 -0.02822162
0.01042487 0.07813510 0.02642012
-0.02945623 0.22421417 -0.02713753
-0.01038256 0.08836602 -0.03431366
0.02325979 0.17713456 -0.00899300
-0.00278509 0.11597946 0.00492138
0.03446884 0.19275776 -0.00602522
0.00321180 0.06923448 0.03215360
0.01016282 0.13609868 -0.03513411
0.00477869 0.18531553 0.00270152
-0.01227934 0.24640660 -0.01118416
-0.02410620 0.07987747 -0.03300881
-0.04270650 0.06401468 0.01303612
0.03164073 0.16874042 -0.02237066
-0.02800607 0.17255986 -0.02486636
0.03365182 0.23745358 -0.02277817
0.01221375 0.14047985 0.01661408
0.02315343 0.14197220 0.00714404
0.01367382 0.09999862 -0.01319086
0.02370281 0.07855821 -0.02497107
0.02064894 0.05681361 -0.02423975
0.02140586 0.16270269 -0.02627864
0.01520001 0.07858410 -0.02458676
0.03078778 0.18339786 -0.01627920
-0.01863025 0.06185684 0.01763834
0.02904669 0.24227402 -0.02060131
-0.00198020 0.06118856 -0.02612953
-0.00332066 0.13865823 0.01780425
-0.00961108 0.24209118 -0.02554928
-0.02119256 0.11377396 -0.02424529
-0.02618991 0.15345336 -0.00307546
0.03396083 0.23601069 -0.02189282
-0.03809676 0.11126297 -0.01426375
0.02376836 0.06366801 0.02054496
0.02817796 0.24438611 -0.01988145
0.00422488 0.21155536 0.01113785
-0.02458880 0.24313679 -0.01685535
-0.02184362 0.08737199 -0.03180097
0.02249479 0.16795158 -0.00796883
-0.01727737 0.16777581 0.01137328
-0.00893118 0.17543770 0.00979170
-0.02018177 0.18594474 -0.01028398
0.00927564 0.07269339 0.02601959
-0.01121461 0.19868466 -0.00436425
-0.00619116 0.14977011 0.01973088
-0.02667266 0.05412030 -0.02890504
-0.01628852 0.07447658 0.02830348
-0.02859671 0.11051584 0.00253105
-0.03245242 0.14827426 -0.01288258
0.01048869 0.21662191 0.00787991
-0.01864114 0.06251014 0.01829583
-0.00895806 0.11895054 0.00624534
-0.03143964 0.10552154 -0.02830191
-0.00855531 0.17389514 0.00895096
-0.00816233 0.14817744 0.01764505
0.02465612 0.07975776 -0.02131798
-0.01968987 0.10481811 -0.00049736
-0.04234250 0.07693058 -0.01026770
-0.03310669 0.14222550 -0.01829292
-0.00640902 0.10997318 -0.03487472
0.02955016 0.22736223 -0.02419508
-0.02796230 0.19313602 -0.02353561
-0.02640124 0.16807623 -0.01850228
-0.00539122 0.09716132 0.00706432
0.00839932 0.22377697 0.00100012
-0.04017562 0.07042196 -0.02438962
-0.00177183 0.23593992 -0.01470759
-0.02124090 0.16097006 -0.01737114
-0.00002460 0.07896842 0.00823934
-0.04060243 0.07055545 0.00741681
0.02918491 0.20445168 -0.01184022
-0.02492770 0.16308160 -0.01940278
-0.01628074 0.18225650 -0.00328833
0.02317623 0.05266540 -0.00145285
-0.02698386 0.09873149 -0.00498821
0.01571950 0.14290412 -0.03431962
0.01916371 0.08976695 -0.03311829
0.02085387 0.07640567 -0.03169292
0.00759877 0.06309376 0.01372084
-0.00766166 0.12781031 0.00846072
0.02242081 0.07771225 -0.01017435
-0.00540164 0.08053663 0.00587617
-0.01029456 0.08161132 0.01396275
-0.03886956 0.08720149 -0.01488443
0.00834384 0.13032991 0.01167715
0.00848184 0.12499299 0.00584109
0.01325142 0.08013432 0.00759815
-0.00835218 0.15023129 0.01679936
-0.01501012 0.18282419 -0.02564606
0.02864908 0.20051822 -0.00938312
0.03246342 0.15677212 -0.00869911
0.00603518 0.24433282 -0.01070047
0.00581610 0.18262213 -0.02993827
0.00743330 0.20474474 0.00764081
0.00396056 0.06085157 0.01292224
-0.01278389 0.12856068 -0.02997444
-0.03605031 0.10837395 -0.00597163
-0.02797593 0.19247471 -0.02062493
0.01945604 0.19253099 -0.02887510
-0.01773417 0.12872300 0.01011403
0.03049677 0.22022548 -0.02494630
0.01000139 0.21501663 -0.02065981
0.00187158 0.18977189 0.01071488
-0.00313807 0.08519882 -0.03812230
-0.03272081 0.13322327 -0.00800297
0.00689050 0.18080658 -0.02978570
0.02477734 0.10899891 -0.01150815
-0.02537302 0.23229796 -0.02986273
0.00528783 0.12385975 0.00194280
-0.01255231 0.13283493 0.00836530
-0.01952023 0.05524394 -0.04135455
-0.02240769 0.08457764 -0.00776820
0.01635277 0.21857128 0.00223533
-0.03531092 0.05037770 0.01218513
-0.00711518 0.05823223 0.02261541
-0.03950661 0.08702484 -0.01449862
0.02066526 0.10482953 -0.02256096
0.02775049 0.05700407 0.01495085
0.03275119 0.19764017 -0.02493506
-0.02133806 0.08037966 -0.03774004
0.00663278 0.06006604 -0.01726638
-0.03480863 0.05711903 -0.00462579
0.00771251 0.05850709 -0.04231313
0.01410318 0.08625743 -0.01403270
-0.02747155 0.21723296 -0.01888019
0.03037258 0.21969712 -0.00804111
-0.03597860 0.08679139 -0.02455472
-0.01594889 0.17223716 -0.00480676
-0.02821146 0.08336421 0.01527983
0.03207382 0.05098037 0.00008804
-0.02254525 0.15713416 -0.02115974
-0.01909285 0.21278104 -0.01160640
-0.00591276 0.16755390 0.01967558
-0.02997911 0.11925255 -0.01339902
0.00597989 0.12315842 0.01416624
-0.01590644 0.08830452 -0.00151892
-0.03390246 0.08751315 -0.02515788
0.00407380 0.07935849 -0.02068347
-0.00803203 0.08711240 -0.03245747
-0.02123611 0.07634918 0.02612015
-0.00993778 0.07972742 -0.02326256
-0.00711974 0.07810133 -0.02650560
-0.00322007 0.15372774 -0.03428578
-0.00565935 0.10932813 0.00511479
0.02449636 0.09909002 -0.02298368
-0.00010215 0.05449558 -0.04389076
0.00829117 0.17340191 0.01200253
-0.03075029 0.07252994 0.01653378
-0.02840973 0.12847273 -0.01899924
-0.00632204 0.07451691 0.02974513
-0.03083072 0.14396417 -0.00147257
0.01512104 0.17350881 -0.02707304
0.02341331 0.05932276 -0.00754617
-0.03702496 0.09555696 -0.00741701
-0.00797834 0.09528498 0.00478138
0.02685613 0.06878117 -0.03339478
-0.02440918 0.08160826 -0.02586456
-0.01533857 0.08008972 0.01992375
0.03349257 0.21399835 -0.01634251
-0.00345642 0.06258496 -0.01145790
-0.00282224 0.12036866 -0.03456143
-0.03307612 0.14511891 -0.00181744
-0.02168085 0.09831138 -0.03048225
-0.01735368 0.21614088 -0.01245332
-0.02338371 0.12436800 0.00558639
-0.02749088 0.20101222 -0.01969303
-0.00386933 0.24233752 -0.01422408
0.01145238 0.10835651 -0.02886561
-0.03076918 0.14093031 -0.00024843
0.00299718 0.11775632 0.01171472
-0.01253512 0.18786260 -0.02789336
0.00558925 0.06530700 -0.04671196
0.00906617 0.17358780 0.01646492
0.02631430 0.19407970 -0.00922068
-0.02259623 0.24223624 -0.02170134
-0.01183447 0.07114207 0.03278377
0.02795299 0.15778434 0.00164693
0.02642055 0.19351429 -0.02802034
-0.01395011 0.06037865 0.00358082
-0.04221097 0.07286764 -0.02059114
0.02126496 0.24093023 -0.01471327
0.03242185 0.05039134 0.00285914
0.02165272 0.16458061 0.00192600
0.02584420 0.15527916 0.00409458
0.01979823 0.08598644 -0.00151954
0.02660927 0.23008695 -0.02504972
0.02923485 0.14945748 -0.00215006
-0.02686551 0.20773953 -0.01763474
-0.00903426 0.09871496 0.00375932
0.02961902 0.17381936 -0.02906275
0.00451348 0.18673171 -0.03155185
-0.00787887 0.24452856 -0.01686213
-0.02827479 0.24249002 -0.01689822
0.00970886 0.11529173 -0.03436143
-0.01150684 0.17592540 0.01098922
0.01464765 0.21139035 -0.02953630
0.00972627 0.19606668 0.00722938
-0.02336273 0.24429138 -0.02028362
-0.00988212 0.12717204 -0.03499921
-0.02897134 0.09883344 -0.00174054
-0.04269747 0.07350541 -0.01374286
0.00232046 0.08633893 -0.01995085
0.03100433 0.21451885 -0.00785448
0.00922802 0.08024259 0.01540548
0.03556830 0.06480858 -0.00540262
-0.01295142 0.07668141 0.03075066
-0.01755441 0.18853091 -0.00588632
-0.04230103 0.07805242 -0.02004348
0.02647667 0.05731943 -0.02292321
0.03018530 0.10315771 -0.01915620
-0.03072445 0.06251968 -0.01682920
0.00839070 0.12995054 0.00922957
0.01608059 0.05837151 -0.01692787
-0.01733024 0.22637616 -0.02281519
0.01319024 0.05957883 0.01487627
-0.03019256 0.12617499 -0.01480261
-0.03010777 0.08665234 0.00962796
-0.00780847 0.05676726 -0.03643457
0.00815749 0.16984339 -0.02996060
-0.01383298 0.13545831 -0.03008049
0.02032325 0.15314387 -0.02841113
-0.00716353 0.06234971 0.03324647
0.02256048 0.20857400 -0.00826992
-0.04302868 0.07746877 -0.01496804
-0.01320629 0.13545296 -0.03138300
0.00957149 0.09548408 -0.03016232
0.00241207 0.20686981 0.01258573
-0.03246846 0.11140635 -0.00714171
-0.02754975 0.12201388 -0.01823782
0.02660975 0.10602203 -0.01247169
0.00538823 0.09236402 -0.00929982
0.02347499 0.07711256 -0.01906294
-0.02507885 0.17074320 -0.02739480
0.00585182 0.07806409 0.03110504
-0.04590259 0.06448913 -0.01631086
0.01475492 0.21704111 -0.01568443
-0.02053031 0.23026305 -0.02192580
-0.01476588 0.17176366 0.00772479
0.02580596 0.05539937 -0.01750213
0.01001384 0.07892121 -0.02801116
0.02613553 0.13953185 -0.00246990
-0.03029075 0.05843257 0.01963953
-0.01045520 0.07052699 0.03391264
0.01754553 0.14713998 0.01589704
0.00787378 0.16449220 0.01945548
-0.03349420 0.14451477 -0.01668280
-0.02157235 0.09197045 -0.00196299
-0.03663347 0.06097001 -0.03277604
-0.02285984 0.24637644 -0.02099891
-0.03993984 0.05621783 0.00752062
-0.01309713 0.15601361 -0.02951331
0.03223560 0.18979481 -0.01340454
-0.01298150 0.10874739 -0.03073314
-0.02665281 0.13694999 -0.01676912
-0.03221048 0.06476682 -0.03489070
0.03177609 0.14549282 -0.00214551
0.03086331 0.17871764 -0.02236537
0.02755511 0.17905542 -0.01864797
-0.00285437 0.11880085 -0.03512765
-0.03643637 0.10770984 -0.00736687
-0.00999993 0.09736118 -0.03268578
0.01762623 0.11287583 -0.03024932
0.00624957 0.05655921 -0.03568467
0.02187658 0.10093069 -0.01479274
-0.01212455 0.13738951 0.01248405
-0.02513847 0.08579981 -0.00152611
0.02486205 0.10145783 -0.02136686
-0.00909693 0.12089726 0.00726931
-0.01265812 0.12952010 -0.03294719
-0.00076616 0.21774842 -0.01280111
-0.01946269 0.13110261 0.00483606
0.02658927 0.17727581 -0.00947489
-0.02030478 0.19535801 -0.02969644
0.00795775 0.06913629 0.03338247
-0.00725987 0.19179246 -0.02993838
0.02847797 0.07857556 -0.00297875
0.02842698 0.23525783 -0.01405430
-0.02389515 0.11423711 0.00257250
0.00053869 0.10037769 0.00279780
-0.01580689 0.24376665 -0.01138093
0.03422880 0.17793362 -0.00819107
0.03420169 0.24136297 -0.01723699
-0.00673199 0.05596858 -0.04323350
-0.02222194 0.11628616 -0.00117127
-0.02741298 0.22212720 -0.02616119
-0.01840009 0.05643997 -0.03276341
0.01588602 0.05774068 -0.03645875
-0.02483829 0.09069339 -0.01061595
0.03345186 0.06374908 -0.00223212
0.01249496 0.12962975 0.00513719
-0.02688166 0.09710397 -0.00549741
-0.03024679 0.05366432 0.02250957
0.01005709 0.10868382 0.00368068
0.03069952 0.07754313 -0.00417644
0.03075266 0.19643342 -0.02052651
-0.04338127 0.06509395 -0.01951791
0.02874680 0.15039755 -0.00093195
0.01026448 0.20812374 -0.02451814
-0.02716836 0.22507058 -0.02586720
0.00950870 0.22406475 -0.00457704
-0.00966447 0.05819838 0.02757729
-0.01020819 0.20806055 -0.00818409
-0.03179611 0.06079703 -0.01258893
-0.01497238 0.23966238 -0.01192023
0.02206936 0.05807181 -0.00215332
-0.02114507 0.05772127 -0.03779445
0.01600526 0.24305993 -0.02464695
0.01551569 0.09223329 -0.03579416
0.02652737 0.19338365 -0.00625310
-0.00403950 0.21466479 -0.01295214
-0.01095825 0.07360650 0.02794826
0.00346239 0.08755736 -0.03367419
0.01952332 0.20685986 -0.00858914
-0.02733647 0.09290947 -0.00801083
-0.01459513 0.17474362 0.00881587
0.00997197 0.10101740 0.00159624
-0.00224594 0.20853102 0.01086752
-0.02372218 0.14223176 0.00517842
-0.02716392 0.08371902 0.01361227
0.01031341 0.15385997 0.02095225
0.02960485 0.14182302 -0.01597218
0.00490248 0.22242689 -0.01519009
0.00512318 0.06074349 0.00064238
-0.03379247 0.07705439 -0.03029255
0.02918932 0.16875905 -0.02197211
0.01244093 0.24290422 -0.02404191
0.00377112 0.22703901 -0.01558096
0.03264035 0.17562467 -0.00972942
-0.00423561 0.08890618 -0.02858672
0.01514513 0.17427786 0.00834252
0.01373917 0.10293560 -0.00799964
0.01526721 0.10901149 -0.00645308
0.01009465 0.11686680 0.00960181
-0.03534707 0.11352561 -0.01680467
0.00882944 0.06156231 0.00028257
0.00381651 0.07861842 -0.03570788
-0.01899691 0.21118703 -0.03090546
-0.03231301 0.09628919 -0.00368373
-0.02687001 0.19390985 -0.02956852
0.02967822 0.17776386 -0.00240393
-0.00739867 0.04976925 -0.03676926
0.03145076 0.19725950 -0.01758519
-0.02086195 0.12571891 0.00297015
-0.01135335 0.09893693 0.00746800
0.01822588 0.17347722 0.00393629
-0.01661382 0.11432168 0.00394806
-0.01681229 0.05100852 -0.04187516
-0.00686194 0.18534520 0.00048841
-0.02872570 0.21657129 -0.02062117
0.02380058 0.18458417 -0.02738646
-0.00729617 0.07003407 -0.04478037
0.00499943 0.12993392 0.01214503
-0.02777642 0.12165003 -0.01489438
-0.02217308 0.09164968 -0.01057264
0.01338202 0.19907124 -0.03142921
-0.04099923 0.05824029 0.00891854
-0.00332577 0.12255933 0.00764500
-0.02921225 0.20959589 -0.02073549
-0.01940241 0.17877762 -0.01907256
-0.00172473 0.21276744 -0.02526043
0.01360887 0.19513585 -0.00406594
-0.01503540 0.17696400 0.00508686
-0.01301657 0.21917063 -0.02370883
0.01839834 0.11455746 -0.00884655
0.02579392 0.12989172 -0.00886066
-0.00759804 0.11229590 0.00462446
-0.02930429 0.23882096 -0.02718120
-0.03476072 0.05510182 -0.01791592
-0.02815241 0.14674844 -0.00154834
-0.01831957 0.07417236 -0.04209714
-0.01376288 0.20526779 -0.00081950
-0.00894885 0.10922538 0.00605140
-0.02222934 0.06160158 0.00765934
-0.00397336 0.22009805 -0.00800820
-0.04324423 0.05976546 -0.00855141
-0.02923297 0.12956351 -0.02152253
-0.02121171 0.23021699 -0.02350918
0.02186913 0.08266089 -0.00639262
-0.04394906 0.07247103 -0.00825973
-0.01181547 0.07655771 -0.04219308
0.01087335 0.13184197 -0.03361274
0.02431901 0.09246787 -0.02989748
-0.01957620 0.15477204 -0.02769231
0.00192675 0.05932753 0.00401204
0.02048371 0.19560504 -0.00525457
0.01441248 0.14597517 -0.03257250
-0.02746250 0.15433431 -0.02428866
0.00174519 0.22494568 -0.01169783
-0.00368373 0.05883578 -0.04352465
0.02860671 0.18158704 -0.02508240
-0.01611463 0.13219219 0.00954826
-0.01151566 0.07899949 -0.00394014
-0.03163838 0.06219834 0.02293950
0.03338267 0.18040472 -0.00372297
-0.01687547 0.08550056 -0.01087519
0.02184811 0.10147822 -0.02455409
0.01501947 0.05538792 0.01752143
0.01804121 0.11237377 -0.02811299
0.01100459 0.06288668 0.01106715
0.02265425 0.15875524 0.01033181
-0.02726892 0.14431086 -0.00706398
-0.00075354 0.06222791 -0.02889921
0.03248113 0.22215587 -0.01767294
-0.00128770 0.18914506 0.00630508
-0.01582775 0.06047224 -0.00870177
-0.03159244 0.15184169 -0.01837523
0.00806841 0.09956297 -0.03189583
-0.02701345 0.10368368 -0.00132230
-0.02080084 0.13355659 0.00283923
-0.02346989 0.05630340 0.02687280
-0.01248553 0.07889860 -0.03344673
-0.00112481 0.14983888 -0.03647419
-0.00351269 0.08764426 -0.03574084
-0.02637408 0.13451754 -0.01609982
-0.02728070 0.22519401 -0.02680880
0.01843942 0.21367356 -0.01650666
-0.03395458 0.05890349 -0.01902859
-0.00335153 0.15201487 -0.03496907
-0.03004337 0.09919286 -0.02825311
-0.03176472 0.06075958 -0.03584798
-0.01717332 0.24310395 -0.02711562
0.02513370 0.19178310 -0.00839512
0.02825412 0.19387768 -0.01020084
0.01115388 0.21997847 -0.01546554
-0.00940477 0.07856318 0.02936260
-0.02896385 0.21195507 -0.02205224
0.03056911 0.16391397 -0.02549980
0.02601371 0.06556637 -0.03270083
-0.01378835 0.17760156 0.00506630
-0.00371791 0.24573441 -0.01401885
0.02582450 0.10473969 -0.01883386
-0.02845759 0.15588738 0.00471203
0.01884582 0.14666487 0.01062395
-0.02022714 0.23677748 -0.02836638
0.01365247 0.06144916 -0.00885033
0.01741245 0.24619214 -0.02512451
0.02990318 0.05634368 -0.01298158
0.02630139 0.16768672 -0.01208695
-0.02315640 0.12693292 0.00467401
0.01136173 0.19674709 -0.00020277
0.02483785 0.23671418 -0.01589691
0.01470515 0.17383938 0.01003139
0.02165769 0.20763662 -0.00742105
-0.02609495 0.11703739 -0.02092583
0.02796440 0.23526347 -0.01520100
0.02168891 0.13810234 0.00665229
0.01063673 0.17489024 0.01075698
-0.01618662 0.09890931 -0.00133295
-0.00159574 0.05834742 -0.04314867
0.02422150 0.16849196 -0.00181952
0.01626237 0.14395177 -0.03185512
0.02813541 0.16726559 -0.02867712
-0.02679946 0.07893127 -0.02350540
-0.01250110 0.17704563 0.00682052
-0.00522093 0.09244978 -0.03781374
-0.00987789 0.20743415 -0.00407889
0.02710349 0.07678212 -0.02446210
-0.04205970 0.07594161 -0.00403358
0.01460866 0.16576618 -0.02913724
0.00441463 0.06570172 0.03291759
0.00880197 0.20506477 0.01039902
-0.01650036 0.04959609 -0.03965906
-0.01988200 0.07458584 -0.03825485
-0.00066237 0.24478146 -0.01261754
-0.02105436 0.15896195 -0.00483802
-0.03428078 0.09465136 -0.01524886
0.01197463 0.17963399 0.00501547
0.03314425 0.14712699 -0.01732824
0.01555146 0.08376179 -0.00384244
0.01821753 0.17156860 0.01160629
0.03110937 0.20426059 -0.02489788
0.01197200 0.16141406 0.01960778
0.00384952 0.06116705 0.00450075
-0.02984071 0.13838254 -0.02405743
-0.01351007 0.19567826 0.00392789
0.02044200 0.08375704 -0.00986837
0.02037209 0.11056495 -0.01108826
0.03078174 0.20537016 -0.02379091
0.02737495 0.22489765 -0.02828184
0.01665008 0.17628306 0.00133471
0.01036170 0.13135412 -0.03569645
0.00504338 0.07868299 0.02702613
0.03164922 0.15744005 -0.02460060
-0.01631690 0.17248793 -0.00514873
-0.04028928 0.07895266 -0.00001290
0.03097916 0.06942680 0.00882950
-0.02584137 0.11401922 -0.00480192
-0.02522912 0.06187122 -0.01775712
-0.00792116 0.18619284 0.00111063
-0.00829681 0.21096401 -0.01499462
0.02301735 0.22379285 -0.02669678
0.02904863 0.17292783 -0.02192010
-0.01943965 0.18267091 -0.00394912
-0.02515015 0.13150896 -0.00698359
0.01638711 0.13582267 0.00868050
0.02288393 0.05274741 0.00562208
-0.00909523 0.17359230 0.00869961
-0.02216346 0.14180870 -0.02666930
-0.00179259 0.10545965 0.00486816
0.01951599 0.05842314 -0.03230900
-0.00817562 0.15965119 -0.03082419
-0.04346593 0.06970660 -0.01613008
0.00647344 0.11168960 0.00189276
-0.01940868 0.16689792 -0.00554988
-0.03267286 0.07348613 0.01558358
0.01886537 0.07515770 -0.03171130
-0.00270108 0.11222369 -0.03308426
-0.01285619 0.18798050 -0.00145898
0.00089910 0.20096709 -0.02998343
0.01735081 0.20970908 0.00417078
-0.00007729 0.08782174 -0.03592064
0.00338858 0.15603651 -0.03316784
0.00520023 0.24556796 -0.02333920
0.01501669 0.18218255 0.00099686
0.00205925 0.07966103 -0.02854096
0.00629163 0.18810487 0.00444298
0.01738516 0.06263595 0.02504177
-0.01449162 0.06051773 -0.02572104
-0.02007467 0.18552804 -0.00719229
-0.02173239 0.06923179 -0.04636583
-0.02421680 0.17985128 -0.02540936
-0.01637558 0.11719973 -0.03016275
0.02760326 0.12682208 -0.01035345
-0.01073635 0.19922838 -0.03178878
0.02216575 0.15896472 0.01109668
-0.02362107 0.12038223 0.00319536
-0.02305672 0.19440171 -0.00938227
0.02183103 0.07223246 0.01587455
-0.00098908 0.12778153 0.00908732
-0.03103757 0.06056314 -0.00129327
-0.00675235 0.17667608 0.00921485
-0.00811619 0.19161950 -0.00335545
0.02977530 0.07426753 -0.01538898
0.03221998 0.14779800 -0.01196799
-0.01186338 0.06123514 -0.04418325
0.00193950 0.16264887 0.02146364
0.00994150 0.15866077 0.01811857
-0.02228938 0.16265228 -0.01105721
-0.02550934 0.12070954 0.00571825
-0.00777463 0.05779418 0.02363734
-0.01538966 0.14986628 -0.03034914
-0.00309697 0.16216713 0.02100490
0.00058329 0.06217268 0.01474562
0.00660700 0.23171790 -0.01811945
0.01380267 0.05583166 0.02541954
-0.02773789 0.07998694 -0.00537092
0.03034314 0.22577626 -0.02578408
0.00252462 0.22365893 -0.00900672
-0.00311329 0.19714074 -0.03323861
0.00739070 0.15560833 -0.03201962
-0.00725110 0.16406387 0.01974920
0.00934081 0.07665119 0.02605629
-0.00845938 0.24396864 -0.00941492
-0.01670240 0.12171680 -0.02796344
0.02005885 0.08307417 -0.00917787
-0.02961650 0.15479521 -0.02292896
-0.00555003 0.14244546 0.01535538
0.01658161 0.11890210 -0.02875011
-0.00463037 0.08163238 0.00982665
-0.01316230 0.21555927 -0.03164547
-0.02042278 0.08608662 0.00750707
0.01464188 0.10695568 -0.02774578
0.02418726 0.24052835 -0.03047876
-0.02888494 0.21529460 -0.02432188
-0.00192578 0.08868094 -0.03032167
-0.02926191 0.20293283 -0.02637145
-0.01897956 0.13801005 -0.02600894
0.01689710 0.09127177 -0.03315443
-0.03274577 0.05716220 0.00318296
-0.04246578 0.06523032 0.01198844
0.00198385 0.19867536 0.01031481
-0.01141035 0.13448127 -0.03540927
0.02291028 0.24399275 -0.02054783
0.01635135 0.10203856 -0.01377259
0.01634446 0.10908890 -0.00573146
-0.02167632 0.22832111 -0.02380317
-0.03013287 0.15099819 0.00190900
-0.02636107 0.05966850 0.00668105
0.02836615 0.10326110 -0.00757461
0.00699393 0.17211647 0.01497075
-0.03908544 0.07249888 -0.02195395
0.00027779 0.18623325 0.00255647
0.00620203 0.24683276 -0.01620286
0.00736449 0.20934378 0.00830850
-0.01435917 0.20787193 -0.03299311
-0.02479287 0.06062135 -0.02352871
-0.02268108 0.07670524 0.02691432
-0.01934396 0.13624878 -0.02476670
0.02445614 0.15275660 0.00642525
0.00537914 0.08989435 -0.02847354
0.02545367 0.10849610 -0.01111594
0.01657074 0.17214571 0.00786845
-0.00139799 0.13007247 -0.03423247
0.03200088 0.16060220 -0.00366684
0.01046914 0.15518227 -0.03177535
-0.01862919 0.16714792 0.00680404
0.03048667 0.09885553 -0.01892865
0.03247725 0.24185398 -0.02712116
-0.00775849 0.07883806 0.02082595
0.00461940 0.08300791 -0.02584202
-0.02905502 0.11922632 -0.01859462
-0.03751909 0.07146158 0.01402268
0.00703644 0.15658052 -0.03163682
