-0.60894084 -0.38986713 -0.38666099
-0.57850468 0.55565387 -0.24273700
0.20247702 -0.77572930 0.37299621
-0.80583513 -0.40764159 -0.08370095
0.56836879 -0.44764775 0.36470872
-0.19047672 0.46968284 -0.66469562
0.12805991 0.64290476 0.59640586
-0.13565139 0.36951581 -0.70665765
0.62659419 0.18113057 0.57053018
-0.55412602 -0.35082182 -0.48277161
0.63967896 -0.18781780 0.53587139
-0.40109676 -0.70833725 0.17505662
-0.64503944 -0.55823702 -0.16821311
-0.30398461 -0.47816336 -0.62274849
-0.48228639 0.17536071 -0.71039045
-0.25139353 -0.75675571 -0.30293271
-0.09816778 0.08190293 -0.82963836
-0.42299834 -0.68889910 -0.05013258
-0.12641275 0.51463133 0.64587140
-0.08769991 -0.20033766 0.78146327
0.02089168 -0.83531296 0.07460587
0.19691668 -0.33925930 0.72192788
0.12359591 0.81133419 0.23279662
0.11091633 -0.20943554 0.76610267
-0.75986588 -0.40011835 -0.20942578
0.62803316 -0.15580115 -0.56424272
0.04618283 -0.34467879 0.71858072
0.64811826 0.33715776 -0.39369389
-0.03251585 0.82113421 0.08311526
-0.31557807 -0.39019278 -0.63385594
-0.13515326 -0.81924379 0.08582719
-0.14840364 0.78835267 -0.08019461
-0.02359458 0.84288162 0.49826834
-0.81548619 0.03554364 0.09081203
-0.56965649 -0.41227496 0.38329351
-0.04660423 -0.72798222 0.57821083
-0.26341340 0.20330302 0.76856530
0.38439277 -0.29607829 -0.73642421
-0.24642284 -0.73833466 -0.15584114
0.23273718 -0.57689685 -0.59633183
0.41636041 -0.26423165 0.67501628
0.05877449 0.83543944 0.38158432
-0.19684219 0.46063441 -0.65595889
0.22523910 0.13751656 0.79706383
0.50353074 -0.23750381 0.62789392
0.48356020 -0.46681681 0.40731233
0.77822018 0.40830496 0.20655277
0.30628142 -0.09855577 -0.82017529
0.74663711 0.12811024 0.27809727
-0.30510503 -0.14724368 -0.78058159
0.60878193 -0.33773136 -0.45244882
-0.69615090 0.43935695 0.24084403
-0.65908682 0.07959017 -0.48108301
0.17085104 0.77655607 0.38257670
0.22636740 0.71907854 0.41751769
0.21418807 -0.43939289 0.68657935
0.55359519 -0.64037526 0.04881649
-0.15907146 0.79763699 -0.09029609
0.68259680 -0.57906532 -0.03592292
0.54469788 -0.66732812 -0.14196320
0.23045453 -0.58944947 0.55206144
-0.23034596 0.76242042 0.08095803
-0.00406269 0.84561431 0.41465920
-0.33537143 0.22784960 -0.76153505
0.11603896 0.23877843 0.75612950
0.27637276 0.24993037 -0.76480448
-0.82337201 0.15811153 0.04899167
0.65287507 -0.31041789 -0.38429928
0.68758655 0.01410394 0.43119007
0.50136769 0.26319492 -0.61472380
0.02798287 0.29415518 -0.75150359
0.27517471 0.75890934 0.19561395
0.34754711 0.47104841 -0.55820644
0.58200181 -0.43833852 0.34935215
-0.07661393 0.72409040 -0.56292844
0.55268931 0.19106591 -0.63110137
-0.72737503 -0.37280443 -0.28185576
0.22009863 0.03622992 -0.84273505
-0.36347273 0.33708718 0.68770719
0.12661025 0.79047447 -0.17017698
-0.83022535 -0.00670214 -0.04136698
-0.32446802 -0.69821870 0.24922635
-0.19863254 0.36341861 -0.71164811
-0.66073024 -0.05728111 -0.49088940
0.82978857 0.22957347 0.03383593
0.72325099 -0.18488309 0.34236163
-0.27999088 -0.45179093 0.64447379
0.38091034 0.46753800 0.51607072
0.30763093 -0.12311657 0.81976688
0.82862270 -0.47587550 -0.05443796
-0.37965992 0.46857393 -0.56476164
0.80623221 -0.27265304 0.11577188
-0.04080127 0.79754579 -0.54511690
-0.24249324 0.59912807 0.53425515
-0.20766734 -0.52215219 -0.63115430
-0.56385553 0.63944316 0.15339427
-0.70244050 -0.58583540 -0.02041299
-0.12541986 0.80656517 -0.02888629
-0.18335761 -0.19544873 0.78542840
-0.03388701 0.84327769 0.22583535
0.83484983 0.35137689 0.05163185
0.50639415 0.38472983 0.51664019
0.45485920 0.53355366 0.39445856
0.39401558 -0.70171124 -0.16461778
0.13643938 0.32754868 -0.72328043
0.44503292 0.51602519 -0.41995087
-0.46280047 -0.62483847 -0.26770332
-0.09290703 -0.30297923 -0.71438920
-0.81457710 0.28346014 -0.10333695
0.80810177 -0.09166027 -0.13125297
-0.72954822 -0.00974356 -0.31695300
-0.35457280 -0.68628490 -0.30646634
0.82422495 -0.22644658 -0.03821671
0.67665207 -0.01193124 -0.44415820
-0.77798653 -0.25346383 -0.20994161
-0.83452904 -0.10136407 -0.03401573
-0.61318004 0.11630843 0.57850790
-0.75312054 -0.11505053 0.20843138
0.12333100 -0.80117023 0.24478681
0.32663125 0.68799317 0.36233571
-0.09396439 -0.77292186 -0.53075671
0.58828294 0.60799563 -0.20723909
0.81680799 0.26286224 0.06658321
0.27278700 -0.75961614 -0.26128528
-0.51761127 0.66162837 -0.05942490
-0.67029476 0.13760549 -0.44183645
-0.30597949 -0.50875872 -0.57918251
0.33603913 -0.72630078 -0.17859378
0.81515741 -0.09603749 -0.06811360
0.38821924 -0.34835309 0.63271034
0.05246999 0.20329140 0.78198028
-0.49615484 0.47164464 0.40207142
0.61293495 0.03396379 0.61362457
0.55510294 -0.39099130 0.40573865
0.42258286 -0.68930322 0.01368426
0.01070576 0.82572764 0.53477955
0.42108542 0.39950901 -0.55584180
-0.21949574 -0.56285423 0.60696900
-0.41878411 -0.26387572 0.68210495
0.06066389 0.19675073 -0.79056370
0.28962123 -0.68326062 0.43727991
-0.30852544 0.72028977 -0.08661518
-0.63924515 -0.01705863 0.56365466
-0.68702388 -0.49983600 -0.20514230
-0.66723228 0.09298170 -0.47769916
0.47953063 -0.37309316 -0.52554524
0.20216560 0.45073530 0.67910051
-0.02637279 0.27554840 -0.74525166
0.82974505 -0.32041767 -0.07652616
-0.48902681 0.66337413 -0.14473486
-0.50016403 0.43798009 -0.44385958
-0.02038019 -0.17402087 0.78831828
-0.79444957 0.42646176 -0.12765032
-0.82372844 0.24705948 -0.07370766
-0.16040687 -0.78658938 -0.15358156
0.35871181 -0.66360003 -0.33483967
0.36264545 -0.60607857 -0.40065071
-0.68125880 0.39540026 0.28331092
-0.24707478 0.07390043 -0.82714856
0.15852597 -0.79164273 0.28596833
-0.12512250 0.80063981 0.07079847
0.51795375 0.56773406 -0.28390229
0.78146517 -0.00390897 0.17727651
0.06104070 0.69495261 -0.58468270
-0.74402666 0.00539897 -0.28180775
-0.63834250 0.01279260 0.52884102
-0.31894794 0.35648999 0.70624030
-0.82837307 -0.53240538 -0.00455182
-0.34335220 0.36530197 -0.65959609
-0.48681372 0.66192335 0.01957900
-0.50051844 0.56489444 -0.30630609
-0.04286592 -0.82522112 -0.01217378
-0.80221570 -0.36765251 0.16081657
0.43734971 -0.25248143 -0.69750404
-0.29793641 -0.59244347 0.50539351
-0.62008035 -0.46821618 -0.27738383
0.26844195 0.68616682 0.43137082
-0.20263225 -0.25222719 -0.75732827
0.37331274 0.49471036 -0.51207209
0.17477837 -0.78903019 -0.17477618
0.84407592 -0.33734396 0.01445982
0.15694393 -0.80290776 0.18549925
0.42582175 -0.48990455 -0.47909200
-0.28554565 -0.41433465 0.69230151
-0.01392031 -0.83480430 0.21462904
-0.62339079 -0.40642321 0.33942053
0.20917606 -0.75921321 0.10887846
-0.81515241 -0.48056266 0.06364585
-0.10378651 0.79454780 -0.22818489
-0.45075971 -0.60758126 0.35482204
-0.69820201 0.57190549 0.14934894
0.81168962 0.40228239 0.06880552
-0.83898604 0.14040723 0.03958828
-0.75038612 -0.19665830 -0.26263762
-0.73532748 0.09259619 -0.25560051
-0.02978199 -0.34463412 -0.71098220
-0.52355647 0.65732175 -0.01595691
0.07349133 0.55594993 0.66039312
0.61020589 0.35773194 0.41639560
0.76676834 0.38615677 0.20957458
0.55733562 -0.46939766 0.34211516
-0.69662023 -0.16993944 0.38678101
0.39360380 0.06880342 0.82221496
0.20192675 -0.11199775 0.79392874
-0.13679807 0.80253226 -0.44403508
0.80794168 -0.22904950 0.08528075
0.65437245 -0.56524765 0.19042195
0.53637528 -0.46114141 -0.34917963
-0.13027157 -0.54558247 -0.63030863
0.27216771 0.00606586 -0.84435129
0.60142303 -0.42760435 0.34523293
-0.24670126 0.60348463 0.52638006
-0.14122312 0.80209398 -0.29999256
0.50371706 0.37351990 -0.49901214
0.00246138 0.84753382 -0.05678340
0.15313774 -0.38563663 0.70791900
0.71222019 0.45322657 0.20179684
-0.41561306 0.22440484 0.69884276
0.35955039 0.17460673 0.79109144
-0.67534947 -0.27129087 -0.43628120
-0.45637071 -0.10331162 -0.82603753
-0.24181886 -0.54748034 0.56036532
-0.40008667 -0.70697355 0.26492429
-0.77466846 -0.06831226 0.13099635
-0.36691904 0.73949164 -0.24910843
-0.79221177 0.01511728 -0.18402976
-0.54445064 0.34836611 0.50275302
0.26242611 0.46035221 -0.65098453
0.71268690 -0.05963683 -0.38426512
-0.67592716 0.44773903 -0.21794939
-0.15720257 -0.78323209 -0.21234980
-0.41711122 -0.67708379 0.13862345
0.67419326 0.57885665 -0.16126789
-0.41741049 -0.54434502 -0.39568052
0.57749379 0.55969673 0.26394477
0.16615802 0.59017253 0.59781408
-0.55568576 -0.48418730 -0.33035746
0.35163015 0.49284744 0.51520598
0.26985565 0.75040436 0.01735209
0.45375162 0.67960274 -0.00177937
-0.23480964 0.57089412 -0.57093465
-0.61420476 0.00871279 -0.61491370
-0.02106048 -0.81065416 0.54711425
-0.18929099 0.53015745 -0.64882433
0.81960857 -0.13576667 -0.04817237
0.79217780 -0.08379345 0.08568308
-0.45584992 0.44597298 -0.47279912
0.25281116 0.57304245 -0.55534053
-0.81204164 0.11347897 -0.08386180
-0.01079206 -0.81923938 0.02802445
0.08507210 -0.66169238 -0.60780406
-0.13906929 -0.77310872 -0.45276532
0.27818188 -0.31946290 0.72183096
-0.18276550 -0.67357099 0.53197718
-0.83843768 0.11293621 -0.04679776
0.08146412 0.67160267 -0.59921753
0.67387152 0.07468248 0.46534705
-0.45446929 -0.65768468 -0.28601092
0.69612896 -0.21571113 -0.38756588
-0.67844057 -0.50115532 0.18238270
0.23689748 -0.70856827 -0.45312247
-0.81829154 -0.13304457 0.08033751
0.79520726 0.14757760 0.18969454
0.22890308 0.72933227 0.39193437
-0.18738355 -0.59100437 -0.61445272
-0.14187135 -0.28630561 -0.74609458
0.28199035 0.71044207 0.35963601
-0.64458013 -0.56178182 -0.19502553
0.40844965 -0.69662029 0.14320245
0.83829260 0.38334948 -0.06136673
0.77370226 -0.29388031 -0.13144216
-0.16215229 0.67751890 -0.56467164
0.72155118 -0.46498954 0.20840006
0.37568331 -0.68463016 0.17830288
-0.16809729 -0.08651557 0.82194042
-0.31195238 0.72978985 -0.22839433
0.16390453 -0.67462867 -0.52395761
0.61870122 -0.49793774 0.24688673
0.74952412 -0.30223060 -0.31824961
0.11051998 -0.27236459 -0.72578740
-0.28224343 -0.56288660 -0.52056682
-0.27634078 -0.55867618 0.54540658
0.63925540 0.60352254 -0.12756546
0.47549459 0.56401277 0.34509671
-0.73087406 -0.57508683 -0.06893785
-0.36451250 0.46421874 -0.56045794
-0.52306771 0.46055916 -0.37292644
-0.76457298 0.38529563 -0.21784447
-0.58083808 -0.01120079 0.67601633
-0.31232548 0.56275964 0.52578080
-0.01911991 -0.15975779 -0.78825915
-0.30934399 -0.57848924 0.50519311
0.14023712 -0.78225452 0.20326644
-0.15724818 -0.80201900 0.44161955
-0.59267247 0.03076854 -0.70714843
-0.48923299 -0.64954931 -0.14850290
0.12657304 0.17647098 0.80065691
-0.71127701 0.19724502 0.34290421
0.27682683 -0.50110817 0.57973301
0.67630160 0.11981756 -0.42871958
-0.66726911 -0.11146940 -0.47431076
-0.33739683 0.58708948 0.45795742
0.15035661 -0.28689733 0.74569130
0.76643062 0.45787147 0.14361048
-0.75725675 0.30136847 0.26049241
0.37673315 0.70748866 0.25302088
-0.56467772 -0.15163384 -0.66076148
0.82438576 -0.25033119 0.07530823
0.39671734 -0.59556371 -0.38828981
0.38749635 -0.25600702 0.76594901
-0.63033259 -0.35427117 0.40644392
0.56260431 -0.61407882 -0.03142321
-0.26028031 0.26050138 0.74328744
-0.20083158 -0.61099768 0.58479273
0.17201312 -0.56565404 -0.64146650
-0.00988699 -0.84856051 -0.09391809
-0.34250402 0.19665197 0.76923716
0.04803576 -0.82970613 -0.50369322
-0.73978639 0.08954549 0.23660992
0.66549766 0.60173470 -0.07650743
0.59392178 -0.16304038 -0.61746800
-0.74979913 -0.15686572 0.31160331
-0.31474218 -0.74746853 0.18098608
-0.05661431 0.37299216 0.70244455
-0.47115573 -0.48255974 0.40728748
-0.30538681 0.18118575 0.78011560
-0.02969626 -0.85236794 0.34108132
-0.09005497 0.81329685 0.12096828
-0.00677404 -0.13825074 0.79152107
-0.37796062 0.67641211 0.30007225
-0.41161606 0.21991271 0.71462893
-0.26845106 -0.08800542 0.79939973
-0.20317768 0.42507988 0.69922698
-0.51838267 0.62262654 -0.23146720
0.35859129 -0.71651369 -0.00127096
0.11631389 -0.65426731 0.59127998
-0.04571271 0.81995249 -0.52389622
0.60372782 -0.43614036 0.32988384
-0.50290072 0.35337558 0.49220389
-0.06774718 0.79956609 0.47163501
-0.43540299 0.68048817 0.24216139
-0.77338588 -0.49967527 -0.09642342
0.53208029 -0.48026183 -0.36060879
-0.21842106 -0.75353396 0.26900220
-0.82241523 0.53946656 -0.01851425
-0.62530565 -0.60700208 -0.04630657
-0.59070635 0.00003423 0.71777296
0.62314022 -0.01318333 0.53951204
0.31866187 0.74128336 -0.10393379
0.75665319 0.09562540 0.26898393
-0.11747072 -0.80230153 -0.08299109
0.04742267 -0.48053151 -0.67011416
-0.23197186 0.64073259 0.49577737
-0.17018338 0.78687459 0.44576523
0.29522648 0.25269240 -0.76627564
-0.19106710 -0.02754577 -0.84488964
0.30289015 0.75031745 -0.19699931
-0.35697165 -0.12293046 -0.80391455
-0.39360365 0.22837500 -0.74661517
-0.38689464 -0.69663471 0.32446665
0.64880681 -0.52955776 0.20999095
0.74137902 -0.21026284 -0.35214466
-0.31891966 0.71631908 0.08972058
-0.48154375 -0.59523064 0.32346562
-0.12815338 -0.58554590 -0.62332761
0.25758722 0.75804788 -0.02863537
-0.18172552 0.77949476 0.30932346
0.62718105 0.36393636 -0.37631217
-0.27670217 0.42948660 0.66984785
-0.72235453 -0.42621484 0.21901175
-0.68778455 0.25933379 -0.43082461
-0.14612515 0.46457985 -0.69457400
0.20629509 -0.59924465 -0.55748558
-0.37202507 0.10383637 -0.81555605
0.60581756 0.61067885 -0.14186074
0.16034563 -0.10128573 -0.80526936
-0.13681708 0.79469180 0.05704085
0.08238031 0.47362739 -0.66081786
0.10848409 -0.78950804 0.34307051
-0.63511980 0.24640709 0.50809598
0.72660196 0.29099438 0.30327132
-0.13329574 -0.28580558 0.75243914
-0.20088242 -0.48887730 -0.66710639
0.51025045 -0.20124781 -0.68830621
-0.14880972 -0.34537855 -0.71264637
0.20319350 0.78020382 -0.11923999
-0.65238655 0.25263134 0.45494214
0.06144370 0.08515291 0.83357918
0.58938670 -0.17397888 0.63011920
0.42699623 0.38968632 -0.57069767
0.71496820 -0.48572356 0.17757703
0.48789978 -0.64749312 -0.24124472
0.50398600 -0.24873395 0.62734926
0.22662731 -0.71694994 0.43517971
-0.02558258 -0.55740637 -0.62900233
-0.53756428 -0.56737775 0.29206109
-0.14323585 0.50798512 -0.66796863
0.79045486 -0.03779550 -0.18264230
0.52296114 0.33054042 0.51819479
-0.80854547 -0.17109585 -0.12827782
0.63150728 -0.37025741 0.36135328
-0.14859080 -0.77309889 0.26579526
0.50937438 -0.56660277 0.32343623
0.60788643 -0.04058292 -0.62353206
0.27171439 0.65150064 0.41646209
-0.30378380 0.71959227 0.04062947
0.36312068 -0.32322595 -0.70752168
-0.71674597 -0.24750309 0.32774642
0.28153437 0.21632841 0.79869914
-0.58874989 0.62974870 -0.07381053
-0.60928142 0.09646719 0.66662300
-0.08907352 0.09783996 -0.83062875
-0.75052762 0.07266552 0.21370228
0.04626476 0.83676314 0.14366646
-0.78248799 -0.53998035 0.03951701
-0.23613286 0.75937802 0.37973002
0.84464502 0.29011822 -0.00574364
0.17637943 -0.68459016 0.49734673
-0.24844363 0.51211590 0.61603773
-0.68138146 -0.00521223 0.45360321
-0.73423588 0.27819052 0.29067805
-0.03879864 -0.83944303 -0.34913152
0.29371020 -0.05825522 0.83726847
-0.70250940 -0.42727917 0.22522078
0.02383212 -0.19654126 -0.77780068
-0.85380602 -0.19849718 -0.05642786
-0.54430902 0.00009622 -0.82399225
0.07575538 0.61000192 -0.61694121
0.52596879 0.65018082 -0.12975481
0.60532165 0.07374807 -0.70207536
-0.39679936 -0.56076586 0.40507713
0.21838985 0.78168207 -0.17641088
-0.41651785 -0.57658124 -0.40032831
0.61755037 -0.00982352 -0.60470450
0.07796437 -0.61721295 -0.62860119
-0.84075379 0.48918203 -0.02949077
-0.10641715 -0.80257463 -0.05811497
0.35622162 0.31147474 0.69138849
-0.35708740 0.64852959 0.37482390
-0.51569152 0.66258776 -0.16978496
0.64536393 0.62265962 0.00703225
0.17507258 -0.74310309 -0.48375601
-0.57614124 -0.29503673 -0.51760352
-0.31545877 -0.73698777 0.10285126
0.11732274 0.80578458 -0.15685509
-0.38399327 0.67603087 0.29024565
0.08476055 0.41358837 0.68965769
0.39670309 0.43974102 -0.52693701
-0.19128715 0.78336072 -0.01497232
-0.31159055 0.07243399 0.83454323
-0.15395646 0.57117563 -0.63514066
-0.53847992 0.21173969 0.61046946
0.50880790 -0.29690969 -0.55612063
-0.26800752 0.75408679 -0.21269169
-0.11398174 0.79438603 -0.28390566
-0.77662396 0.30062282 0.20694138
-0.62562501 0.06573769 -0.57784891
0.18547979 0.53431964 -0.62890756
0.39067066 -0.70581776 0.12938991
0.35381213 -0.70238054 -0.35304457
-0.72142684 -0.16509829 0.33888945
-0.25542131 -0.05186088 0.82748103
0.21357349 -0.76894939 0.33838928
0.22174491 0.76841652 -0.09856270
-0.66882074 -0.40530500 -0.30962583
0.52953279 -0.65086061 0.01974707
0.27023786 -0.74551994 -0.16595130
0.08524037 -0.46822184 0.69732893
-0.56448436 0.28839973 -0.49988976
0.18546423 -0.74142092 0.44258803
0.79580879 0.29229078 -0.10973657
-0.35693908 -0.70576775 0.04439577
-0.28854918 -0.62878704 0.43032694
-0.22029547 -0.68132311 0.48695210
0.62029529 0.48588386 -0.27228996
-0.24549858 0.66041338 0.46603388
-0.79110599 -0.34419152 0.12152270
-0.19030654 -0.67311275 0.48331839
-0.55882823 0.11293936 0.71784663
0.04429000 -0.66778755 0.58781981
0.21208760 0.77049786 -0.24683857
0.17550743 0.74600351 -0.45446846
0.46761879 0.26852161 0.62757778
-0.41204953 -0.69564712 -0.08444111
-0.67978907 0.00863213 0.44337603
0.29066887 0.73351568 0.33523476
-0.84405947 -0.47882321 -0.07203896
-0.31722519 -0.72458488 0.15878880
-0.17725526 0.15691115 0.79179132
-0.26847684 0.75049937 0.00290582
0.17863075 -0.07689849 0.82452607
-0.60302126 -0.48893857 0.26327509
-0.04893891 -0.00386548 0.84279001
-0.40309212 -0.70967829 -0.13651395
-0.34714997 0.48699751 0.54564273
0.14572820 -0.81337601 0.31685930
0.25667799 -0.38381779 -0.71071482
-0.20889354 -0.39954787 -0.68870151
-0.44912031 0.56947309 0.38619092
-0.69162714 -0.26480949 -0.42367464
-0.06493901 -0.35894379 0.71521616
-0.15278144 -0.77353954 0.43905485
0.53585184 -0.46680871 -0.36703426
-0.22246380 0.49430853 0.65263748
0.16298831 -0.78340930 0.12064232
-0.62596023 0.26498324 0.49860910
-0.41425258 -0.42473736 -0.52776885
0.11874417 0.79358548 0.08353326
0.66818607 0.48157635 0.24745543
0.00801317 -0.84074575 0.15063876
-0.15722004 -0.78660774 -0.43568835
0.72721577 -0.14156698 0.30900139
-0.41335329 0.24369577 0.74075437
-0.64419854 0.50578344 -0.21206529
0.83692777 0.14699875 0.02813471
0.67071283 -0.30281958 -0.42536011
0.22541401 0.78309476 -0.21492530
0.24266449 -0.75894207 -0.14618535
0.08823231 0.63718104 -0.58022213
0.35649148 0.55870563 -0.47848621
-0.58150780 -0.12995593 0.66665387
0.76636648 0.16588087 -0.21934426
0.29141915 -0.34758332 -0.72659481
0.46941635 0.32890067 -0.56612098
-0.23743998 -0.50536573 -0.62657404
-0.83154619 -0.11323384 -0.03300285
-0.46043286 0.12526129 -0.81958961
-0.09725995 -0.22641365 0.76884818
0.44576347 0.33034921 0.59191275
0.32470626 -0.52901286 -0.52473092
-0.09393775 0.81305134 -0.28844661
-0.73825634 -0.27877617 -0.27215621
0.80564392 -0.33056426 0.11354600
0.14046119 -0.79084820 0.16080949
0.26219508 -0.03656886 0.82582211
0.32248214 -0.44541919 -0.60263383
-0.54448533 -0.27045408 0.56811762
0.00476073 0.40862378 0.70050919
-0.31157449 -0.47120574 0.59315741
0.19853960 -0.55621815 -0.63883698
0.48030660 0.35883352 0.53253269
0.27051109 -0.38724884 -0.71044314
-0.82043719 -0.04244831 -0.11974897
0.26360488 -0.43785474 -0.66263485
-0.77686834 -0.03091741 -0.21924143
0.06147198 -0.31233534 0.72188985
-0.34103629 0.71829438 0.04589185
-0.18220489 0.59848338 -0.60883272
-0.08062018 0.76973277 0.54179466
0.50843751 0.29494217 -0.57047820
0.18317991 0.76728201 -0.37195578
0.40094927 0.68909013 -0.17416485
-0.49388975 -0.20194191 -0.68239105
-0.82894862 -0.55123776 -0.00363130
-0.53417993 -0.66013288 0.02535385
0.47899482 0.36343482 0.51486492
-0.23902258 0.41674766 0.67413950
0.50150263 0.64266193 -0.21023758
-0.15862766 -0.01099546 0.85788608
-0.30058849 -0.46391150 0.61702883
-0.74141896 0.30035332 -0.28029755
0.44427603 0.52383316 0.41656303
0.00498937 0.81714720 -0.01832179
-0.78495097 0.39616132 -0.18222253
0.68476737 0.02508224 0.43002528
-0.14521566 0.79159045 0.05386560
-0.33082893 -0.69695669 -0.34150019
0.65006793 0.20164220 -0.53160977
0.11752480 -0.79326969 -0.46152437
0.03293456 -0.85726458 -0.02822400
-0.79900658 0.14788751 0.10397051
0.19184662 -0.36594096 0.71723104
0.47882485 -0.10535689 -0.81352079
0.77728486 0.06476428 0.19748755
-0.02733016 0.83743089 -0.52574646
0.43631485 0.36591229 -0.58128512
0.21833768 0.76540196 -0.14482617
-0.18957098 -0.32655731 -0.72380519
0.44738096 -0.61179614 0.32554305
0.29682997 0.37119085 0.68285322
0.76583076 0.18090162 0.24667905
-0.18709035 0.63038582 0.55721641
0.15958376 0.16081190 0.79920888
0.66003764 -0.06452608 -0.47253451
-0.08033677 -0.82666600 -0.18834150
0.64933896 -0.12754467 0.52140653
-0.77966988 -0.24814688 0.17375109
-0.28596583 0.73681098 -0.20933636
-0.28764942 0.49593627 -0.57022870
-0.73095000 0.01257452 0.34167680
0.05708088 -0.14807557 0.79084551
0.21437421 -0.35862625 0.72624445
-0.00705707 -0.20014827 -0.77098608
-0.16888152 -0.77941614 -0.03374614
-0.45131952 -0.33820665 -0.58993340
0.39950579 -0.70036471 -0.07912476
0.48424008 0.23702295 0.64813805
-0.78917336 0.08685964 0.17626736
-0.63727999 0.36116976 0.35317668
0.44877231 0.45371938 -0.48260897
-0.41516671 -0.65051574 -0.31627619
0.82881927 -0.38385063 0.03151421
-0.70637333 -0.36108950 0.27720863
0.62279963 0.45173171 0.29662052
-0.19576874 0.04480574 -0.83438766
-0.03709415 -0.73991865 -0.58494508
0.66656125 0.03773559 -0.49087298
0.31775263 0.28902441 -0.74882841
0.39586234 -0.30402324 -0.66231251
0.09544280 -0.83722448 -0.36698771
0.32640892 0.73115414 -0.01406201
-0.69281387 0.34976465 0.35052043
-0.44461575 0.67484969 0.23875010
0.38759854 -0.34787393 0.60564470
0.60064042 -0.63786709 0.14406432
-0.17370927 -0.75952387 -0.29266137
-0.74029827 -0.31859618 0.22945093
0.25981680 -0.74936098 0.12852424
-0.40146190 -0.25059238 -0.73854816
0.23773788 -0.38806129 0.71825147
-0.29353228 0.63345093 0.46990716
-0.05603801 0.81731099 -0.20038259
-0.74060571 0.56168061 0.03498161
0.20879802 -0.16598979 -0.79154849
0.35906795 0.24992539 -0.76042151
0.54210377 0.08053436 0.76133347
-0.01466762 -0.63462299 0.61817801
0.24578539 0.18182051 -0.78018916
0.34269872 -0.43968457 0.60062194
-0.07626884 0.15990837 -0.79659534
-0.17383096 -0.59744614 -0.60480583
0.22050373 0.52045614 0.62361753
0.10210602 -0.83316410 -0.08805544
0.35838690 -0.70238602 0.06569342
-0.40054390 -0.38752124 0.58009458
0.04225837 0.83734447 0.39560160
-0.82431173 0.03936800 0.02239421
-0.31316325 0.28708839 -0.73526466
-0.49641612 0.16802801 0.71899796
-0.60151267 0.60396236 -0.10790775
0.02615023 -0.13426559 -0.79783463
0.03039878 -0.83735949 -0.35294768
-0.18767403 -0.49774092 0.65908682
0.13643377 0.64969891 -0.60719132
-0.12874795 -0.19346404 -0.76243436
-0.45432281 0.16043890 -0.74278152
0.84943998 -0.12365926 -0.01985386
-0.78830540 -0.36464494 0.16902536
0.63231623 0.02200949 -0.56344187
-0.68061793 -0.05251426 -0.46934575
0.11236286 0.61266369 -0.60157323
0.46995962 0.39837691 -0.49854708
-0.15457480 -0.77954894 -0.44879049
0.85920751 0.15916662 -0.00284693
0.19180651 -0.77730101 -0.27837723
-0.65073550 -0.30535510 -0.40452513
0.32439849 0.54427361 0.53512526
0.81994092 -0.35405138 0.10456472
0.82556438 -0.30404422 -0.05330446
0.28861418 0.35705364 0.71186185
0.73999739 -0.00252261 -0.30177391
-0.38770294 0.58530146 0.37517825
-0.73793304 -0.23091589 -0.27778029
0.46459079 -0.15183888 -0.78872776
-0.59023070 -0.38901213 -0.38925666
-0.60890484 0.36431676 -0.42282784
-0.48395965 -0.65559989 0.09590125
0.12217322 0.54853010 -0.64935625
-0.74742568 0.41295457 -0.21432923
0.71907413 -0.13848893 -0.35548946
0.41865906 -0.30231035 0.65890419
-0.64048696 -0.12654285 -0.50508738
-0.49817351 0.15422381 0.69459081
-0.34692276 -0.16167831 0.78310597
0.43819213 -0.37739229 -0.56770480
0.72739923 0.04285146 -0.33835372
0.66138053 0.47286037 -0.24004471
0.03681315 0.67472607 0.58740556
-0.63656163 -0.60071719 0.03794129
-0.11688180 -0.82001770 0.33660811
-0.42561895 0.68754214 -0.14418201
-0.18691419 -0.61309856 -0.56611168
-0.08404873 0.55409789 0.64743662
0.01167324 -0.50702226 -0.64658725
-0.07302959 -0.66133827 0.60744250
-0.27158681 0.75501424 0.30374190
-0.66540849 0.12989749 -0.45598847
0.73595929 0.06815971 0.31657255
0.83475709 0.14235604 0.04765217
-0.28802457 -0.41699153 0.70294106
-0.41414878 0.28233013 -0.69000900
-0.41656798 0.69046628 -0.03088000
0.62736166 -0.57826358 -0.16991606
-0.68087780 0.23793851 0.35540470
-0.18071443 0.51362783 0.65419316
-0.66233563 -0.57466388 -0.18051904
-0.22708838 -0.04134271 0.82143402
0.30430219 0.37514916 -0.70270288
-0.67199445 0.21672976 -0.51781988
-0.14725074 0.58724028 -0.61204410
-0.35462859 0.13869298 -0.79595888
-0.34248811 -0.71458888 0.00657248
0.25426716 -0.75320721 0.27632511
-0.21666895 -0.77822745 0.05062482
-0.57810545 0.59998262 -0.21755061
-0.66302645 0.44879726 -0.24665427
0.07058910 0.80263811 -0.42583033
-0.19878046 -0.55502635 -0.59501851
0.53294730 0.29928344 0.52788150
0.71141183 0.24435341 0.33144927
-0.14749642 -0.79066879 -0.01717551
-0.24233539 -0.03846987 0.82555604
-0.63332272 -0.56081671 0.15495230
0.53538561 0.50812769 0.30806437
-0.30257830 0.71126056 -0.36063361
-0.23806772 0.24548762 -0.74479473
0.54196239 0.63767630 -0.06585438
-0.00574358 -0.83813006 -0.41236892
0.51683164 0.49330181 0.37272671
0.67830813 -0.33183923 0.34307221
0.11110933 0.27072182 -0.75224710
0.60435820 -0.07243620 -0.64256775
0.15321173 0.67854530 -0.58552432
0.61017036 0.52150911 0.23274826
0.80857265 0.49585912 0.06850602
-0.45662895 -0.02435197 -0.81340969
-0.59458923 0.62053609 0.17469700
0.25823623 -0.14734787 -0.80436885
-0.10149590 -0.80845988 -0.19278511
0.67467606 -0.06930821 0.45273620
-0.62696636 0.46942407 0.28156170
0.23284547 -0.49791813 -0.60066330
-0.79883242 -0.19054389 0.10660467
0.18049380 -0.68795049 -0.51037300
-0.28733611 0.73116863 -0.14119509
0.34061223 -0.73718542 -0.05039744
0.41043651 0.69633174 -0.04337930
-0.55777216 0.01297404 -0.76930618
0.43138936 0.51527834 0.45449722
0.66249812 -0.23964180 -0.44404435
-0.82020760 0.29796344 0.06720765
-0.18316402 -0.01238964 0.84406602
0.42908603 -0.08761953 -0.81788218
0.39752358 0.24066637 0.76103938
0.24285737 0.15126513 -0.80056894
-0.52398658 0.19348566 0.64537346
-0.15539198 -0.34771681 -0.71750474
0.69889832 0.43420482 0.23873203
0.57964635 -0.17012382 0.60745299
0.51958776 0.65704143 -0.20809700
0.52503693 -0.64427990 0.06887288
-0.82508135 -0.46497962 0.09237540
-0.39012715 0.33301482 -0.63503289
-0.24595013 -0.67999905 -0.46785349
0.63226449 -0.29492521 -0.46682206
-0.82501745 0.21814448 0.05684412
0.18740234 -0.73270470 -0.47748804
0.49420109 0.66564089 0.14828140
0.03667099 0.42604664 0.68252802
0.25687569 0.74884933 0.21452442
-0.25365353 -0.76742655 0.23474625
-0.39219442 0.47535726 0.50726700
0.84971488 -0.22047147 0.01154847
0.59533656 0.43804118 -0.34914663
-0.66111255 -0.25931123 -0.43528557
-0.34726247 0.33056769 -0.68203986
0.24282248 -0.56408769 -0.57279217
-0.03031689 -0.23073772 0.74366820
0.13145243 -0.81292909 0.36577889
0.08900902 -0.75091034 -0.49913967
-0.54856968 -0.61166191 0.21678673
-0.68014717 -0.32110912 0.36566368
0.09211059 -0.48957962 0.65748882
-0.40846491 -0.37948710 0.58040476
0.42141619 -0.00710395 0.83983219
0.30411991 -0.01204269 -0.83193028
-0.19757394 -0.61723131 0.55098665
0.21420242 0.09282590 -0.81974828
-0.40263933 -0.46355081 -0.48633292
-0.75196898 -0.37966603 -0.23012292
-0.39467838 0.42336506 0.53822374
-0.62321126 0.08683879 0.61142492
0.02651126 0.84661633 -0.29898813
-0.53114367 0.09770214 -0.72906303
0.22853161 0.30803901 0.73183596
-0.35026217 0.06009011 0.81069255
-0.42440140 0.31069738 0.64416027
0.45344955 -0.54617077 0.37015206
0.39644951 0.61857402 -0.37119687
0.52059054 0.65005392 0.04036917
0.10854822 0.82976973 -0.30120480
-0.44349068 0.39403525 -0.53465068
-0.20174590 0.76222086 -0.41112417
0.82674813 0.05538823 0.06330494
-0.42983076 -0.27798846 -0.66101789
0.06269898 0.81493419 -0.40332782
0.58436859 -0.03901555 0.66671240
-0.22125785 0.31089538 -0.69672799
-0.35756895 -0.47947866 -0.52029705
-0.10050655 0.21875902 -0.75413430
0.18292977 0.72057867 0.47659311
0.64279222 0.38963792 0.36212161
-0.68674684 0.57096142 -0.11774323
0.15124056 -0.30546659 -0.72741866
0.26676482 -0.12288885 0.79906785
-0.30019808 0.11734414 0.81533372
-0.24870810 0.33745655 -0.70652831
-0.67281103 -0.46962979 -0.22151503
0.10497787 0.81449181 -0.21828854
0.22551236 0.75401878 -0.28226736
0.51356351 -0.15592481 0.70546508
-0.48167664 0.09086819 0.79648077
0.46381474 -0.67564434 -0.10075972
-0.50284243 0.49389020 -0.40854326
-0.60971808 0.02704626 -0.65593112
-0.46767062 -0.39787593 -0.54700637
-0.48532906 -0.09985969 0.80900705
-0.35508439 0.71508634 -0.15074918
-0.67302549 0.07037932 -0.45330629
0.72273982 0.17536329 0.36446956
-0.70264602 0.19079880 0.35575357
0.09959343 0.81725109 -0.37879527
0.32777238 0.73016220 0.16800725
0.07116985 0.48648414 0.66895843
0.20729376 0.21732764 -0.77974987
0.36905342 0.62436187 0.37351385
-0.83833945 0.24967732 -0.01140184
-0.51902676 -0.53070956 -0.31750071
0.64581287 -0.16096766 0.53598940
-0.67446446 0.09456307 0.46184686
0.59689450 0.02388123 0.68139517
0.11334676 0.37031192 -0.72826195
-0.68296206 0.24379189 -0.42037046
0.05115554 0.52258474 0.64778030
0.24784374 0.25561130 0.74995017
-0.09055223 -0.30062276 0.72907555
0.47290623 0.67947799 -0.18063968
-0.79237580 -0.13275360 -0.18626191
-0.07654762 0.80544454 0.03386305
-0.30901894 0.73580760 0.03774760
0.68932092 0.52540076 -0.16449916
0.42645010 0.68648243 -0.19866905
-0.36531734 0.50337148 0.52076244
0.02160712 0.79159701 -0.56481898
-0.68661392 -0.59354126 -0.01514803
0.75325155 0.28901049 -0.27074128
-0.72853911 0.07147000 0.33150184
0.59753120 0.50027668 -0.29850787
0.85025156 -0.07660749 -0.00750820
0.66390753 0.28660280 0.44988981
-0.14624827 -0.39505106 -0.70626259
0.30891716 0.36520702 -0.70721948
0.11156557 0.79509836 -0.02236623
0.00482799 -0.37514800 0.71725190
0.74385023 -0.35840669 0.27042508
-0.57172585 -0.11649025 -0.71451676
0.10658415 -0.81874323 -0.15405887
0.25405848 -0.39249206 0.69963145
0.67201042 0.58703703 -0.06796841
-0.41557550 -0.44975451 -0.53841746
0.13259536 0.27839845 -0.74423718
-0.17642428 -0.49682358 -0.65400672
0.62087226 0.27173075 0.47838914
-0.06191801 0.83437777 -0.28650743
0.63273382 0.12751764 -0.58981359
-0.13190334 0.79975212 0.26078439
-0.35078540 -0.71293968 -0.30725032
-0.54872990 -0.56920421 0.22967227
0.50488031 0.11664609 -0.77640188
-0.61962032 -0.62625653 -0.03080512
0.60759747 -0.30588126 0.42473865
0.03182122 -0.12709828 0.78484190
-0.58140457 -0.21990731 -0.55444801
-0.40318567 0.70250195 0.27208102
0.30422592 0.74544322 -0.30204758
-0.32036415 -0.72464013 0.03529971
0.75848103 0.26226601 -0.26056454
0.49023664 0.09091734 -0.82282794
-0.29336932 0.41334006 -0.66142917
-0.26702330 -0.36465362 0.70538247
-0.70670211 0.17600718 0.40130034
0.63563526 0.12029780 -0.64581025
0.03261773 0.85067290 -0.00862994
0.03561392 -0.68752944 -0.56764436
-0.38008469 0.71924442 0.00026265
0.00415205 0.81645459 -0.53912568
0.73449647 -0.35240677 0.31037939
0.82828820 0.32730013 0.07622049
-0.43238926 0.65686494 -0.24834403
0.35550264 0.70459378 0.07673626
0.67970526 -0.25547427 -0.46669918
0.58448350 -0.61765462 0.19603570
-0.12725806 0.20134397 0.77449250
0.11927305 0.47804835 0.66736817
0.77559304 -0.35445958 0.24162975
-0.35326704 0.58160526 0.42856720
-0.15878622 -0.23815030 0.77222693
0.81084776 -0.02633178 -0.07686861
0.67876148 -0.58400208 0.08008994
-0.23081504 0.61939621 -0.50649714
0.63315547 0.04579044 0.59457505
0.52995622 0.57943380 -0.27654609
-0.60634220 0.51987493 -0.25969529
-0.28149933 0.30955967 0.70772839
-0.53476036 0.65173060 -0.07774581
-0.18202244 -0.29579672 -0.72704017
-0.65639567 0.57974738 0.03801505
-0.22731166 -0.21773055 0.76473594
0.50492024 -0.04091420 -0.79817426
0.29874736 -0.32204053 0.74198389
-0.35806638 -0.34450853 0.65262580
-0.75127470 0.10758715 0.30586097
0.65201318 0.14821382 -0.52373600
-0.12965895 0.79881603 -0.34785560
0.25239211 0.69456649 -0.44262400
-0.01084747 -0.29355416 -0.73869455
0.47822630 0.35025698 0.55456281
-0.00246762 -0.80742472 0.54258823
-0.53593659 0.34465986 0.52401567
-0.20686306 -0.72303075 0.42781612
-0.61964154 -0.15176867 -0.57940054
-0.00058800 -0.05759024 -0.80696201
0.01036584 0.83805269 0.32880130
-0.81919634 -0.20101330 0.08484041
-0.30346191 0.66158861 0.41637310
-0.42031094 0.26398197 -0.69665647
-0.32720730 0.09777020 0.82355285
-0.13427955 0.31682351 0.71540558
0.56706572 0.03287270 -0.70211768
0.59020448 -0.08849845 -0.64806890
0.08918931 -0.60348976 -0.64588237
-0.17325987 0.61049825 0.57856035
0.37608060 0.14797845 -0.81967139
-0.57956600 -0.04243297 0.72428977
0.65548563 -0.57566261 0.15341496
0.47152585 -0.27283868 0.65562701
0.00015882 -0.64191437 -0.61137474
0.47354639 -0.55813062 -0.32502180
-0.82979465 0.25257882 0.06561697
0.43328464 -0.50934744 0.43502033
-0.14322494 -0.61570394 0.61103785
0.71585274 0.11183723 0.32152012
-0.36931086 -0.58331931 -0.44771001
0.26740083 0.26277134 -0.75783443
-0.34976196 -0.34892917 0.64388549
-0.29113322 -0.61967140 -0.44290319
-0.37261274 0.52231354 0.47974005
-0.87013340 -0.38947749 -0.00307797
-0.21443017 -0.76988524 0.22276884
-0.72599280 -0.52970177 -0.10291368
0.13824266 0.22371864 -0.77875376
-0.50985837 -0.64658558 0.17623785
0.29561836 -0.75550359 -0.21465988
-0.51180005 -0.41836679 0.45618859
0.31686428 -0.31685385 -0.73443484
-0.32176891 -0.34459010 0.68461502
-0.12412244 0.00112754 0.85599494
0.59614182 -0.03741892 0.66777503
-0.83885539 -0.38203231 -0.05385669
0.18055534 0.60771447 -0.56894529
0.61420047 -0.31217885 -0.44767854
0.76117480 -0.28601786 -0.26932737
-0.21130897 -0.02681133 0.83409750
0.24806245 -0.76491529 -0.01792419
0.18303408 -0.77980137 0.07134714
0.70598686 -0.29155821 0.37276646
0.64100313 -0.60395014 -0.01045792
0.55329859 -0.41032973 0.40545127
-0.54800057 0.48691958 0.33224225
-0.73011136 -0.07823593 0.34761295
-0.18895364 -0.72899264 -0.47171324
0.40921578 -0.22379334 0.74802482
-0.12715338 0.79401386 0.01698571
0.40825054 0.18654211 0.78376794
0.21237589 0.62427986 -0.53357601
0.04551106 -0.69373214 -0.59202290
0.05134265 0.36003026 -0.70999122
-0.77376986 -0.21396790 0.25331673
0.37128443 0.63964444 -0.35638830
0.79204762 0.27721229 0.10985161
-0.27180457 0.48142061 0.60909390
-0.18448132 -0.80255103 0.05812920
0.23451351 -0.28964901 -0.74827969
-0.82938397 0.44471839 -0.08572448
-0.82847559 0.20895278 0.09348211
0.06960049 0.45679045 0.65800393
-0.40633348 0.04149169 -0.81997561
-0.13399047 -0.79378682 0.06265800
0.15992844 -0.29617921 0.76064515
0.73817837 -0.06687543 0.30777672
-0.13630661 0.57079393 -0.64068246
-0.02069157 -0.61473459 -0.62902105
-0.30178249 -0.74947572 -0.32830566
0.22000964 -0.48599952 -0.66985631
-0.84680605 0.45884386 -0.01276804
0.66934693 -0.57456446 -0.05882749
0.44551685 -0.68493438 -0.17994449
0.27678722 0.48236492 0.63589048
0.10237248 0.28758144 -0.73550570
0.11548483 0.43430990 -0.69089258
0.54287374 0.07745437 -0.75967157
-0.50123894 -0.47476515 -0.39421141
-0.68495607 0.49615568 0.17160533
0.67375553 0.35412323 0.32576093
-0.74333107 0.34192377 -0.26945814
0.19790944 0.55763823 0.58885360
0.42217839 -0.19911866 0.74229836
-0.58472705 0.61044389 0.18034923
-0.47396028 0.66941178 -0.19185814
0.23961778 0.76870573 0.20624219
0.60820091 0.37439120 0.40668628
0.35923573 -0.61384284 -0.44840160
0.44641489 -0.34961799 0.60658693
0.81882632 0.05883626 0.05811890
0.83165741 -0.11544881 0.05619399
-0.19459569 0.12479455 -0.79367959
-0.36069721 0.70215791 -0.22562799
-0.34724125 0.04990271 0.82854867
0.64733779 0.54187518 -0.18607680
0.39987290 -0.22478874 -0.75144374
0.38920808 0.70069647 0.27817214
0.45859426 0.19270056 -0.72135687
-0.03385554 0.49152017 0.65756917
-0.66536963 0.32392678 0.39054933
-0.33589971 0.39924499 0.64705694
0.02304929 0.23481870 0.78201759
0.75004148 -0.01729714 -0.24800390
-0.75793278 -0.51197243 0.13475454
-0.04035357 0.09761967 -0.81207347
0.36425379 -0.68608040 -0.20789851
-0.31032810 -0.73698896 -0.23725326
0.08955741 -0.22297893 0.75515521
0.14037660 0.09398602 -0.82816839
0.55943871 -0.54347813 -0.30505636
-0.80264437 -0.41339067 -0.11623343
0.76041818 0.24904531 -0.29217765
-0.30822796 0.42148343 -0.66263986
0.52252162 -0.44159469 0.41702834
0.13019761 -0.12554608 -0.81250691
0.29960296 -0.72973478 -0.28785169
-0.20181708 0.15310960 0.80297232
-0.73788130 0.29835317 0.28134674
0.07414035 -0.56865412 -0.62753963
0.49077097 -0.36472473 0.48340544
0.01321544 -0.55741739 -0.63013709
-0.65195286 -0.60313505 0.09390238
-0.54090297 0.30228928 -0.49720132
-0.39968988 -0.34627080 0.64225531
-0.16907358 0.76943213 -0.03881317
-0.11113515 0.79187894 -0.01897569
-0.51416945 -0.44135702 -0.38545799
0.33449224 -0.27279422 -0.75575650
-0.33252949 -0.69597363 0.33552983
-0.19479154 -0.77114981 0.09500530
-0.44521925 0.68435073 -0.01092178
-0.63799477 -0.04296277 -0.56281137
-0.55755508 -0.64580685 -0.02721261
-0.71696961 -0.08666507 0.41313690
0.72926581 0.11851989 -0.34215936
-0.66423190 0.15608941 -0.48779631
0.56284046 -0.26504540 -0.55848968
-0.10255828 0.79367447 0.50478613
-0.75105619 0.32223454 -0.27333659
0.73280084 0.21644880 -0.24735807
0.26841977 -0.61820740 -0.51074147
-0.72895002 0.13084714 0.33107346
0.49892104 -0.09746117 0.77835691
0.03579703 -0.15507486 -0.80483353
0.28223759 -0.47257707 -0.62952304
-0.62624645 -0.44883329 0.29463533
-0.13339300 0.60204864 -0.62091684
-0.41070288 -0.56395537 0.37243465
0.38698703 -0.46546710 -0.50730658
-0.33410773 0.29672047 0.74509704
-0.85203171 -0.06515973 -0.02779189
0.46280423 0.57918841 -0.33611062
-0.53349745 -0.59127486 -0.24679452
0.43723515 -0.17068543 0.77586842
-0.59856510 -0.62984788 0.15633722
-0.76016247 0.10149379 0.27803683
0.30048248 0.12230784 0.81208265
0.09693865 0.82767671 0.12350290
-0.60074091 0.27472797 -0.47856361
0.75386822 -0.00284809 -0.24675022
-0.00075245 -0.86749572 0.25075513
-0.34480053 -0.75318849 0.16343692
0.78342247 -0.14066227 0.15358220
0.40812960 0.30592516 0.66115570
-0.26621360 0.50794274 0.58288944
-0.59728587 0.48987257 0.28136435
-0.23662394 -0.60451853 0.51222003
0.21273749 0.55136764 -0.61526549
-0.63756692 -0.12959273 0.55294669
-0.06772577 -0.59917599 -0.62998772
0.36309543 -0.49582747 -0.51095462
-0.26791418 0.72361004 0.36708957
-0.73153746 -0.54684407 0.03995229
-0.17622441 -0.60544145 -0.61611605
-0.20887305 0.22263435 0.78135693
0.60898173 -0.31765610 0.48617423
-0.32224819 0.60405177 -0.44421411
-0.09800962 -0.81983137 -0.28528267
-0.76220763 0.55842185 0.06657872
0.30665958 0.05346100 -0.83561492
0.50744832 -0.19329213 0.69412971
-0.52841854 -0.61626029 0.21596171
0.01183277 0.84250188 -0.41177136
0.79301035 0.20240048 0.17692864
0.05830126 0.25143689 -0.75319195
0.68204975 0.36680916 -0.31618056
-0.44191119 -0.67530572 0.25730440
0.62355053 0.40218237 0.35668892
0.67870522 0.20977995 0.40740269
-0.72868896 0.33722761 -0.31741405
-0.07515512 0.82871723 0.18438824
0.17618723 0.78220659 0.28062829
0.53049350 0.18160875 0.70643902
0.00313221 0.72520143 0.57087421
0.49118987 -0.13401794 -0.76084292
-0.37297070 0.27346063 0.74506605
-0.58162320 0.36067045 0.44302571
-0.47206959 -0.13476044 -0.75017118
0.44348463 0.57330894 -0.35344309
-0.29435104 0.64028597 0.48533127
-0.50068378 0.51261848 0.36301422
0.36998242 0.41766295 -0.58171690
0.84954810 0.29405490 0.04506291
0.15085833 0.80464238 0.23690897
0.86414969 0.34906423 0.01873057
0.03135337 -0.32048512 0.74819648
0.65508592 0.39631280 0.32207990
0.28973946 -0.25731575 0.74635983
0.00005356 0.83236593 -0.36886099
0.68469203 -0.14003815 0.41106045
-0.38958400 -0.39994061 0.60258543
0.34958151 -0.72394711 -0.02561010
0.82179964 0.25510079 -0.08081910
0.20974721 0.11142762 0.80279744
-0.41767290 -0.18617539 0.72872901
0.42791197 -0.67288148 -0.16976447
-0.53806508 -0.09586152 0.73680615
-0.49084079 0.50126034 0.42721513
0.05601690 0.80863559 -0.51499474
0.37955481 -0.60426772 0.40287641
-0.20058383 0.65786314 -0.50473571
0.06773564 0.25663948 0.74517906
0.05286539 0.83245981 0.28584993
-0.37706199 -0.50969398 -0.50564730
0.56282437 0.04325344 -0.72082424
0.30361232 -0.58104491 -0.51118791
-0.21506435 -0.76010412 0.31431350
0.00656734 -0.37376183 -0.70698917
0.25784302 0.47764489 -0.63578653
0.07037521 -0.05790462 -0.84153938
-0.28577456 0.73579711 0.21159695
-0.67493653 0.08813980 -0.41212487
0.61904299 -0.41532439 -0.32669273
-0.17462955 -0.54559225 -0.66145527
0.62658739 -0.38819182 -0.35677698
0.02173142 -0.07642560 0.80255687
0.14401528 -0.78866756 0.12202676
0.50699115 0.12936437 -0.76386368
0.14047457 -0.00549639 -0.85436523
0.25541908 0.75417155 0.37291825
-0.02873025 -0.55607527 -0.64947510
-0.58083999 -0.01739790 -0.70237184
0.02722065 0.38276681 -0.70439851
-0.31110641 -0.73853987 -0.02288944
-0.22493161 0.47531906 0.68145192
-0.67370379 -0.06305947 -0.44391569
-0.70116544 0.51637733 -0.15483779
-0.38958639 0.44798553 0.52381682
-0.75601506 0.35757139 -0.24250296
-0.76026177 0.56329244 -0.04019800
0.33571810 -0.50648683 -0.53223491
0.12834413 0.47760960 -0.67462432
0.46931657 0.30235174 0.58269656
-0.55569565 0.06789605 0.78980947
0.26865813 0.22006354 0.76885474
-0.62139273 -0.12101001 0.57961953
-0.83685005 0.13535568 0.00400800
-0.32171756 -0.38634789 -0.64767349
0.26901719 0.01317501 0.85748923
0.50296843 0.25292021 0.60807037
0.53562534 0.04234424 -0.78403258
-0.82020211 0.07621341 -0.08972351
0.74600685 -0.30902541 0.30795303
0.73447073 0.31738070 -0.29107985
-0.80357695 -0.02054102 0.07472311
0.27099547 0.18108833 0.78668094
-0.61805749 -0.53093696 0.20460926
-0.45163742 0.14231779 0.77004242
0.28942761 -0.40780473 0.67627513
-0.18872212 -0.27901044 -0.73581505
0.45585546 0.06567061 -0.82637322
0.35792792 0.41466367 0.59228420
-0.70635021 -0.12518948 -0.39513904
-0.34136057 -0.11272544 -0.80443501
0.71525943 -0.22104692 0.36102268
0.45922786 -0.48425743 -0.46087724
0.69658613 -0.01333797 0.41602713
0.06914487 0.01946549 -0.81693971
-0.19930318 -0.76900893 0.10578696
-0.54312158 0.40366620 -0.42078170
0.51349211 -0.64997673 -0.19617337
-0.36678952 0.23075226 0.75883579
-0.29980028 -0.62440795 0.44321719
0.35130224 -0.72226012 -0.04866046
-0.53010798 -0.53446126 0.32378203
-0.22108345 -0.76923925 0.35841909
-0.53381515 0.27760351 0.56529129
0.28484783 0.73653626 0.35399371
-0.41640058 0.38991541 0.58073068
-0.79733932 0.15719754 -0.18555260
0.26370984 0.72220784 0.40465996
0.12161419 0.45108730 -0.67475891
-0.61158943 -0.11876407 -0.61354125
0.03753788 -0.45871490 -0.68374479
0.67446959 0.03934293 0.49385464
0.02667231 0.85394180 0.03738390
0.70675540 -0.40444651 -0.25630262
-0.42414781 0.30068365 -0.66649890
0.77041042 -0.28943753 0.21912184
-0.58751082 0.24645680 0.55033720
-0.09262866 -0.80485660 0.37804765
-0.16355868 0.49312803 -0.67606485
-0.44143680 0.68459976 -0.03843998
0.54537213 0.31565088 -0.47509384
0.57434654 0.17072344 -0.61082888
-0.84072351 0.15947068 0.04819880
-0.06033229 0.53525597 -0.65365744
0.72878182 0.28527737 0.30695149
0.41590473 -0.48050407 0.50569689
0.37659031 -0.44584152 -0.59230876
-0.02180609 0.38201189 -0.70054495
-0.82662094 -0.32087678 -0.06524056
-0.08078689 0.82891029 -0.18371215
-0.73108482 0.05268270 -0.27010319
-0.33942398 0.70619190 0.31708208
-0.55214596 0.00905401 0.78603590
0.20316003 0.75154138 0.41192394
0.39422214 -0.58460873 -0.38048175
0.80815828 -0.10665753 -0.12263586
0.41101900 0.54107827 0.44158968
0.25513166 0.15446192 -0.78786230
-0.40616748 0.38617450 0.56482017
0.11112814 -0.83060610 -0.16145079
0.51560342 0.66032845 -0.18514891
-0.61997736 -0.06722262 -0.62348473
0.43073261 -0.52870882 0.41228080
0.58311343 -0.08267967 -0.74041271
0.67731595 -0.45370167 0.24676813
0.09058003 -0.00233533 0.85070789
0.61852384 -0.56213582 0.16585240
-0.54139805 0.01707580 -0.79512513
0.61010718 0.46379983 -0.28885695
-0.11153062 -0.36027175 0.70674241
-0.11767204 -0.46527094 0.68261361
-0.64655018 0.23676819 -0.50208056
0.04910921 0.82752448 0.44782642
-0.76195788 0.21973412 -0.25217733
0.21511602 0.74748415 -0.40043226
0.40984556 -0.69259912 -0.20019841
0.55437708 0.39746425 -0.42633608
0.43756297 0.67581832 0.20020522
0.10490244 -0.38172504 -0.71695769
-0.23926032 0.10977382 0.81345963
-0.28641379 0.04451161 0.84683239
0.64645875 -0.32513660 -0.40088165
0.67729902 -0.56333971 -0.10280585
-0.31387061 -0.23870930 0.75810552
0.48281920 -0.60739654 0.29001176
-0.68953872 -0.13609038 0.43364790
0.54890525 -0.01738724 0.84525716
-0.79407334 0.38807681 -0.14474037
0.84319031 0.12061287 -0.01270710
-0.71635544 0.39939076 0.26540184
0.47328115 -0.59706229 -0.32156581
0.75567508 -0.17254773 -0.20507579
0.28344280 -0.54643053 0.52477050
0.45265681 -0.07044054 -0.83890045
0.08278699 0.81184280 0.04639934
0.75247502 -0.31053418 0.25789991
0.80325770 -0.01525618 -0.12586214
-0.09697081 -0.80541921 0.33904940
0.30353040 0.19756104 0.77383947
0.36853191 -0.46402958 0.54667854
-0.62915194 0.42647851 -0.33101654
-0.80906940 -0.13202509 0.16747148
0.01883673 -0.15457669 -0.78989315
-0.01091161 0.83786702 0.34528008
0.38597521 0.69740289 0.12312710
-0.57509172 -0.02194404 -0.76744676
-0.67162073 -0.28009081 -0.43255341
0.30509067 -0.15428671 0.80163288
0.19465888 -0.70029265 -0.48900321
0.61712837 0.52518106 0.23090583
-0.78135955 -0.43585157 -0.15730514
-0.07451412 -0.00012853 -0.86311233
0.36234191 -0.39752677 0.64932573
0.14180975 -0.15980056 0.78728056
-0.48510394 -0.65402907 0.18264422
-0.49208781 -0.63859707 0.24861573
0.26675853 0.63490140 0.49512455
-0.68233228 0.58749676 -0.07233130
0.84418464 0.01023795 -0.02004178
-0.46622100 0.68304241 0.18259510
0.53415489 -0.12035149 0.70394528
-0.29874605 -0.62469971 -0.45121560
0.39374962 -0.70112205 -0.08677585
0.51182806 -0.20902240 0.66078377
-0.78327250 -0.35986817 0.22417925
-0.77011883 -0.39723876 0.19872247
-0.00729204 -0.67448938 -0.58376086
0.20500413 0.28744486 -0.74227393
0.19095489 -0.04584992 -0.82869041
-0.42532995 0.67297029 -0.05825317
0.18008737 0.64819103 0.52578413
-0.70925677 0.23245014 -0.36890289
0.82930946 0.01769198 -0.10629696
0.67287529 0.50143874 0.20604841
0.49964693 0.04484113 -0.84254503
-0.02467416 0.85084349 -0.37348738
-0.16910900 -0.34386209 0.71479297
0.82238209 -0.18016493 0.12989938
0.04261545 -0.83067733 -0.03770538
0.06956679 0.22369888 -0.75751102
0.30858907 0.18410267 -0.79149508
0.83715093 -0.17870906 0.03222846
-0.70260096 0.19406652 -0.40371829
-0.48276675 0.65851760 -0.08737678
-0.37901187 0.30124694 0.68647408
0.65556335 0.03042915 0.50785697
0.10354429 0.13090909 0.79338002
0.15049192 -0.80710357 -0.17509268
-0.01469274 -0.65117997 -0.61133897
0.28234386 -0.25459048 0.76249266
0.29380125 -0.23094468 -0.76993132
0.14699416 -0.78956139 -0.22580875
0.29309347 -0.71420354 -0.37109730
0.33859882 0.70803720 0.14783208
-0.04577564 0.76943868 -0.53854370
0.60335803 -0.04534557 -0.60118520
-0.38461956 0.46371147 -0.55264652
-0.84429634 0.04948562 -0.03930489
0.55673444 0.60091847 -0.21110560
-0.40855929 -0.23869036 0.71887481
-0.05494444 0.12524609 -0.81351018
0.83604574 0.35577306 0.04347668
0.37635705 0.53311855 -0.45684087
-0.51225686 0.65146089 0.21225213
-0.82159281 0.07766264 -0.10789954
0.02879213 0.85274583 -0.03366603
-0.11519767 -0.74781293 0.51140690
-0.52958202 -0.53660429 -0.30752054
-0.27478972 -0.74576908 -0.10546818
0.83168340 -0.20743687 -0.05534948
-0.03285151 0.51537031 0.64976311
-0.02938809 0.74934411 0.56973553
0.35840240 0.70024031 0.01521953
-0.36930373 -0.66677260 0.35609064
-0.42137387 -0.41687253 0.54652691
0.67894173 -0.60898989 -0.09566507
-0.36443794 -0.51608706 -0.49726155
-0.38937372 -0.54898727 -0.45977172
-0.18292266 0.77321959 -0.20001525
0.37846106 0.67614084 -0.32711437
-0.64423442 0.35336596 -0.38303584
-0.03943799 -0.84194571 -0.48160571
0.52278900 -0.19593142 -0.65356350
-0.76819348 0.01626345 -0.19411165
-0.16154315 -0.32735053 -0.72909164
0.79984391 0.05761580 0.14387760
-0.46670982 0.67425370 -0.11687911
-0.14867041 0.79873657 -0.29749385
-0.55526149 0.29582867 -0.47517359
-0.61531281 -0.46522129 -0.30405667
0.69758189 0.03867175 -0.42288831
0.00783869 -0.78025216 0.56387854
0.60679245 -0.42828462 -0.31361854
0.70835507 -0.56580698 0.08871613
-0.56361163 -0.07943675 -0.70225084
-0.38821682 -0.29086068 -0.70195389
-0.85372388 0.05855074 0.02215990
-0.12123132 0.38179684 0.70134056
0.38788763 0.70796913 0.22045624
0.06272095 0.41355738 -0.68027925
0.73466623 0.02616694 -0.27130601
0.84228909 -0.15172949 0.00983362
0.25450650 0.64006227 -0.47874022
