28.53069496 7.52248764 33.46514130
28.40778160 -33.69249725 47.13214111
21.46708679 -31.16960144 40.44775772
24.79671478 2.94301033 29.93204880
29.61324501 6.99036217 33.02558517
27.60377312 -24.87688828 13.77305603
28.75222778 -30.07950401 17.50935745
0.83944893 -31.45590210 11.99621582
19.68934250 -18.10971642 1.84710312
-3.45183945 -21.94861221 -8.30264282
15.31218719 -27.59865952 25.67085266
11.29874897 -17.36206245 -0.70556450
30.32184982 -4.89090729 19.81734467
26.44817734 10.71930885 28.60585785
20.36915588 -27.80052567 11.75102901
31.55468178 -40.62091827 19.77067757
17.60509682 -31.94515228 21.53582573
38.02217484 -30.75784492 36.10980988
44.69004059 -33.27548981 50.62339783
1.90706825 -40.91757965 11.11490917
13.99181557 -35.20113373 28.40544128
41.13853455 -27.66208458 43.87581635
39.30345154 -34.56359863 29.02972221
27.74686623 -7.96714306 33.16073990
1.19430733 -21.38943100 6.78557587
40.57364655 -1.78241062 39.67383194
0.86460495 -27.21286392 2.56444168
34.32359314 -18.85827255 21.17154121
14.04298401 -25.29186630 -1.69215965
36.96513748 -30.81475258 20.78952599
23.60495377 -32.45333481 42.21442413
36.21779633 -39.65227127 23.99035263
17.55307007 -27.85589981 31.54023361
23.71987915 9.44877625 26.48436165
9.11375141 -38.26481247 -2.24867249
36.28803635 -1.28357506 36.97016907
21.88112068 -26.10806274 11.46182728
17.26147079 -30.93834686 21.77062416
16.15953064 -33.58072662 -0.87716866
33.09118652 12.44360161 28.02489281
20.19717216 5.29976082 26.16430664
39.45524597 -35.92752838 29.55356979
37.00914001 -16.58521271 24.68158340
33.03989410 -22.66321564 18.16867256
7.42961025 -31.63893890 -1.39559937
25.70809937 -16.19454193 9.36607456
11.28006649 -38.61291885 23.97656250
18.49100494 -4.74104500 22.60188103
3.84406662 -32.13967133 16.23112869
16.19084930 -28.74356842 21.61834908
24.53676033 -2.32538986 30.38874817
32.04644012 -23.22866058 16.16547012
15.48627472 -18.15860939 1.26523209
36.14550018 9.78108406 37.75944519
18.44874191 -7.74285936 12.05655956
30.85948944 8.17961693 34.95024490
21.79192352 -39.10589218 24.63792801
18.39830208 -15.93681717 31.56974220
8.41176414 -28.84251022 -3.31127548
22.50328445 -35.01318359 16.89429474
11.06131649 -13.67411518 21.47292900
4.05212402 -19.05600357 14.23459530
3.03779411 -37.90866089 3.05843735
30.49386978 -17.84487343 16.35933685
30.79418945 1.57960892 19.19739342
24.59219170 -37.02270126 31.86908722
-3.89582634 -20.64245987 -6.22946739
14.17544746 -33.02187347 -1.26640701
34.11137390 -2.93069935 34.79565430
37.22924042 -38.89305878 24.65999985
20.85801506 -18.29166031 34.99015808
28.11884880 -26.49251938 42.67939758
14.87255096 -39.57666016 3.67323303
24.38055992 -20.17815590 6.97402763
36.89109039 -33.22280121 33.54638672
22.01955032 -41.64540100 30.51221848
40.47844696 -32.17960358 24.24896431
3.04562378 -19.32789230 3.27456856
33.48614883 -11.93751144 22.93563652
-1.06952858 -38.20124435 8.62921143
21.62689972 -13.36652470 35.31636047
7.54113102 -30.47620010 -1.35276604
49.09809113 -32.74884033 49.97961044
38.26940155 -0.70059204 38.59458923
32.72294998 -6.32750034 22.89985657
42.02371597 -31.23885727 33.21449661
8.29347229 -11.89641762 1.80599785
34.36194611 -2.21205521 34.63057327
35.43135071 -35.39106750 30.17276382
0.32611275 -38.02185440 2.38232040
13.97185326 -5.98588943 9.25700569
25.35053444 10.65334129 22.66293335
5.15980148 -39.59967804 5.15341568
18.82096481 -23.52632523 1.13999748
1.13746071 -35.55047607 -0.30374336
42.57154846 -33.03352356 47.55037308
23.38663483 5.41516304 14.38925934
14.52266502 -42.18928528 20.98672485
-2.79982376 -26.29618835 0.44662285
6.97876358 -34.40752411 -0.61206436
11.15065956 -36.01885223 24.80670929
28.39948654 -19.95473480 10.72977638
10.96469498 -23.70017242 20.81454277
18.57093048 -39.05167007 3.81496048
20.45747757 -3.11939812 24.12332344
24.57275009 -25.55480766 13.32407570
39.79549408 -14.12049866 40.45344543
36.19219971 6.98826408 41.67179108
2.69362068 -21.21804047 1.00438309
18.73555756 -16.07707977 4.47742653
18.56577301 -37.34483337 2.30416870
8.83889198 -37.57311249 -1.93900108
44.87004089 2.67552757 37.69417572
35.75404739 -0.83765125 40.12065887
26.10600662 6.45148277 19.30311966
10.38535976 -31.63197708 19.35780525
3.90760612 -31.06873322 16.76443863
3.03503418 -33.11769104 4.33490753
19.69770622 -28.63291359 19.32267761
16.26216888 -10.71699047 5.01203537
0.15772057 -27.86800766 -7.71606827
20.53144264 -11.75431538 7.90557003
27.40117836 -12.64756298 37.03942108
15.04579449 -35.70111084 16.05464554
19.59875488 -23.68238449 1.79570580
25.92024231 -16.52339172 9.05271244
23.85560799 8.40489960 17.94293404
20.95331001 -2.42149639 22.46765327
20.02999878 -4.32553101 23.91517258
27.91505432 -2.16502380 34.23524857
9.77497101 -41.89774323 18.91870499
27.94414711 -42.57047653 19.27227592
31.75158691 -0.70166588 21.61246490
27.14686203 -14.26285076 35.83032990
19.57931137 -17.56689453 34.11425018
5.26223564 -20.63151550 -7.78205490
20.67917824 -14.96409988 5.89363003
28.53480530 7.25486183 32.63843536
25.69350815 -37.04168320 44.80481720
27.26259422 -37.86222076 25.73410988
19.81160736 -5.10426331 14.81084824
6.49781322 -11.67294788 12.23921680
22.26093102 8.44523048 18.57881165
27.11435699 -4.64948845 33.76986694
28.82672119 -37.85068512 26.31136513
18.96311569 2.22213745 22.24279785
36.29656982 -11.67675495 28.55651093
24.84650612 -23.58394241 7.28806782
2.58280373 -24.28715897 -10.01061058
23.42358589 -4.76216125 17.51132965
37.88554382 -2.62186241 27.62001991
14.02150345 -28.47257042 19.03850365
32.94468307 -10.54726028 25.21020508
22.28301239 -35.24586105 40.47847748
10.82352829 -8.95058060 8.48610783
33.91958618 -17.75100327 42.65132904
1.56164932 -18.80025673 0.01749039
25.80969620 10.75814629 22.35810089
10.95679474 -26.42889023 21.16953278
9.34640884 -29.29969597 21.66220665
38.10148621 -29.49755096 40.75146484
45.69101715 -33.22309113 51.79853058
21.91927338 -13.39376354 7.06223869
14.48280907 -28.83091736 -0.61204720
45.93076324 -27.97007751 46.05899811
29.35907936 8.77673721 32.95628738
47.68400574 -34.91853714 44.73670959
32.29547119 -8.09038258 21.76849556
17.48118019 -14.53287697 2.87597847
15.82664299 -11.70612335 25.57684326
35.47248459 0.72510910 40.53973389
26.83379745 -11.06957531 13.15180206
38.66154480 -28.02887726 23.43228340
0.64506531 -23.14262772 8.05711746
11.81127930 -41.05133438 12.16269302
36.87886810 -11.72656631 30.21002197
26.89410019 -36.81976318 38.08281326
38.65892029 -28.80462456 40.70618439
17.89183998 -33.06692123 2.20722198
19.96126175 -27.88667107 11.32197952
33.15735245 -22.57016945 19.07849884
28.52363205 -33.46021271 35.92545700
34.46266937 6.55986214 22.83885384
19.98798752 5.20835114 23.69546318
20.04463768 -24.28614807 3.25530815
44.62833786 -29.22463036 47.08003235
19.34679604 -16.00466728 4.10624123
14.98313522 -39.96496582 11.29225540
43.38734436 -22.89684868 41.89463425
14.63485527 -7.02116966 13.92504120
26.91731453 -35.47129822 29.88670158
-5.88894844 -25.49654007 -3.41020203
4.93983078 -17.42741203 15.57782936
26.07471657 -10.63354588 13.70041943
18.20741272 -39.02983475 9.80765152
2.22725677 -29.19543457 14.90841007
42.12638092 -21.74089813 40.74089050
26.48970604 -33.58233643 17.33041191
23.46881485 -33.78588867 41.88484955
35.12535095 -39.31261444 26.08193016
40.66904449 -0.87328815 33.18524551
18.49398041 -40.76558685 21.39874268
26.05342674 -12.61400032 37.26997375
46.00732040 -26.18007278 43.68609238
12.31482887 -23.31469345 22.21411133
17.22572708 -33.98533630 32.65374756
5.83669376 -15.19196510 -6.05491829
33.45840073 -32.89569092 16.02529907
39.12397385 -1.62730122 34.47240067
22.33306694 -22.30397797 38.04920959
20.68114090 -28.66598701 12.31136894
7.06774426 -21.99664497 18.38417625
8.19546223 -38.23497391 18.90909386
14.98750877 -31.97323799 23.10857773
30.04066467 -37.00522614 29.78921127
40.09655380 -31.41996574 37.93361664
22.04643440 9.96116066 17.83732796
19.59163094 -2.51232719 24.33924294
5.19857216 -41.96023178 8.13258648
18.36514473 -4.80506420 18.59576988
40.55817032 -36.02433777 24.68414688
5.04549408 -16.29375648 14.54983521
39.06754303 -18.11947250 25.54116631
34.22551727 -12.59370422 39.22175980
30.65458870 -24.08365822 14.88586140
11.17354870 -8.74670410 16.84285164
3.31154442 -31.04365921 -4.49245071
39.36549377 -20.02497482 42.65510178
2.85805702 -38.31146622 3.55718994
48.78192902 -38.35573578 47.96101761
31.71428680 2.52257538 18.83263016
32.97088623 -36.55760193 18.54484177
33.75065613 -8.90216446 36.52991104
26.33213043 -5.64078903 31.85206032
4.76181412 -38.62359619 4.24660492
41.52850342 -30.71899033 29.25346375
42.11201477 5.14619827 30.98051071
14.48653984 -30.21741867 12.00215435
20.98183823 -33.10397339 7.77452087
0.65557671 -17.74055672 -9.41012573
25.35580635 -29.55385971 44.18666077
33.61553192 -8.05563736 34.78625107
3.04054642 -26.17370415 15.00030518
-2.25717735 -17.69002914 -8.51753044
28.40140533 -41.28470230 21.92688751
16.31085587 -28.23378754 18.44257545
12.73107147 -6.73229980 11.58633232
30.24187660 -39.01632309 20.18197250
29.84272575 -13.88630772 39.03168488
4.70252228 -35.05639648 -0.44117355
-0.18481636 -29.66653252 2.16545868
21.62181473 -22.88657379 3.91482735
-3.76951790 -16.55647278 -4.56590843
21.29965019 -40.71446609 22.63885880
30.57810974 12.92973900 28.77721214
14.06791019 -39.09391785 25.74560738
40.60606003 -30.50827217 24.46499252
7.62266731 -22.80317688 19.95769310
41.09387207 -19.74702072 42.01295471
13.45150185 -34.57236481 28.44722366
11.82950974 -20.96754837 -2.16514587
6.43260098 -26.69857025 20.71032715
23.09269142 -34.12386322 26.33693123
18.28744125 -39.61854553 31.05557632
38.82181549 -28.21320724 40.60788727
16.99588013 -21.66398239 30.51395035
1.15316772 -40.64023590 7.51666546
13.81945801 -10.62158012 5.27583790
46.91479492 -36.47753143 44.95423889
8.64959908 -37.69514465 -0.33386421
16.92758942 -39.25124359 22.41054535
43.18133545 0.63815403 37.27012634
25.72570801 -26.22084618 15.52837276
15.43956757 -25.74764633 -0.67576408
3.77347755 -16.04533768 2.81661415
6.10944462 -18.57590103 -2.34117508
26.52170372 -35.75924301 46.10569382
28.37637901 -33.12578583 39.04968643
38.26693726 -37.52868652 23.54829025
27.99639511 5.13321686 33.36321640
16.23417473 -11.51804733 26.22583199
24.40801239 -37.18190002 43.40542603
22.23225021 -30.87326050 5.32661629
11.04858875 -22.89266968 -2.55373001
29.88097954 -39.17645645 20.72151375
-1.46041489 -40.10968399 7.06233597
27.04516220 -22.26233292 11.82038879
24.84786987 2.26129150 30.68444824
3.65917015 -17.76102448 -7.96203613
34.11047745 -38.13489914 27.91023827
39.10929871 -18.65481567 42.73325729
27.35678482 8.69787407 31.96915245
28.42922974 -30.82935333 46.43359375
15.36832333 -10.13032055 25.96779060
3.12609482 -16.25743866 -1.87858200
34.74238586 2.77835655 40.76351929
32.86040878 -5.96258640 33.82042694
15.45979977 -35.62554550 17.02788162
28.59216309 -24.67226028 14.71568584
23.83864975 -34.20476913 23.13767624
36.92215347 -15.94391060 25.05235481
-3.33111191 -17.57298660 -3.09489632
14.05250263 -39.26044464 29.90122795
17.30304337 -12.30163765 29.65064049
22.65361595 -5.13657188 28.97898483
31.51260948 -42.52727509 15.68944645
17.79974365 -27.47232819 0.32484245
19.74501419 -22.16471672 3.36695290
17.84185600 -4.29998493 19.22270393
32.68706512 7.78058815 37.08647919
17.96089935 -41.56391144 31.76226807
5.21631622 -39.16516876 4.80536652
22.32086563 -35.91038513 17.25926971
-1.97733498 -35.40220642 4.87540054
21.81149673 -41.76918030 33.42828369
6.23906708 -15.02560425 1.89724731
2.74222183 -26.37793350 -10.02409554
36.20316315 -29.65276337 20.38641930
-4.50769424 -20.43308258 -2.48439407
-0.00503540 -32.24108505 4.12075615
29.77738953 -29.83430862 17.25484085
30.10184860 6.52181816 18.29577255
35.42510986 -27.03376198 43.43101501
1.85247040 -35.86345673 14.41674709
3.50988197 -14.58203030 8.02876759
31.92246056 -14.78832722 41.14732361
25.30579376 -21.61404800 8.31022930
18.12740135 -33.93616104 13.68620110
21.01719856 -8.47982883 13.57080650
30.07313919 -5.86176682 19.91261673
12.00059700 -17.44145203 23.85353470
29.66359329 -38.97251892 13.80599213
15.01775169 -39.66548538 29.72914696
38.57718658 -31.67212677 39.35009766
13.97669601 -11.33002853 23.22416687
16.06658745 -26.40493393 24.89204597
12.05547047 -12.51239586 3.41570091
4.36153984 -32.77741241 17.53763390
18.83053589 -1.10321808 23.34931564
20.94983864 8.18350601 15.18889046
43.65806580 7.23239517 38.49440765
21.73775101 -33.21282959 40.41006088
19.55384445 -0.73876572 17.28767776
21.63290215 8.87075996 20.98739624
37.95573044 -4.86459732 30.55739594
8.67639065 -41.45704269 11.78457165
18.27556801 -32.86236572 38.09928894
34.57063293 -25.35248947 43.57649231
28.24099541 -33.92313004 14.76446915
5.67156506 -15.35558891 -1.01008987
39.51854706 -30.01073074 42.65846252
20.49409485 -23.88318253 38.17689514
25.99008942 -12.15152264 12.48693943
19.00031281 -24.98331070 31.92588043
30.51214600 -38.93269348 24.52835846
25.37154961 -21.63984299 40.26871490
39.48972321 -37.22774506 25.26326180
37.65652466 10.79638100 37.18963242
21.78878593 -22.55578804 37.76269150
27.77321053 -37.77096558 28.98383141
25.98550034 10.65734673 29.93693924
-6.32445335 -24.42843246 -4.26333427
29.97653198 -40.97376633 22.75799370
14.55399704 -42.05021667 20.73554611
29.83916473 -28.13610840 45.21244049
45.40361786 -29.10079956 40.30539703
43.10947037 -0.64661789 36.91535187
16.00938034 -40.52257538 14.11452484
1.97374344 -16.19499397 -7.47476387
26.36153984 -18.50640488 9.45173645
36.71714020 -28.31067276 40.59236145
33.69261169 -29.89604950 38.85065079
21.75018120 9.50874138 16.70130539
-0.03264809 -32.76917267 11.41342735
22.63756943 -6.39804173 29.03898621
3.56528091 -15.56295586 4.05398941
29.69735527 -14.86566925 39.08016586
44.27737045 -39.08681870 52.49641418
16.55682755 -10.24385738 24.98873138
6.72665024 -12.76038933 0.07432747
29.82092667 -20.06280518 14.33304977
20.54311752 -3.55248451 24.41018677
35.54993439 -4.72448921 32.38650894
34.78154373 7.94453812 23.04757690
-3.35040855 -16.97224045 -5.65501976
2.69983101 -17.87751389 9.34886646
0.59823799 -36.42582703 13.06492329
11.97107887 -28.01405907 -1.93482208
18.77706909 -22.63188362 32.72517776
5.24275398 -18.30014038 -7.62152672
36.62210083 -37.21393585 20.94376373
10.17300606 -29.45883179 20.47953033
18.22100830 -16.70233917 29.66368866
14.40732193 -9.35867691 25.11496353
7.55555344 -24.33851051 -8.42119408
21.93118858 9.03303719 17.01583672
20.75982666 -18.02077293 4.47030830
5.41500282 -15.89937210 -7.29923630
30.79262352 -34.14707947 42.07486725
21.62792397 -25.54837418 38.33543777
12.61526108 -39.88632584 26.11149216
3.48727417 -21.23562241 -10.66617012
27.81007004 -18.74242401 40.44968414
-2.73894691 -35.75225830 8.18304348
30.14019775 2.26716042 35.10314178
49.29824448 -36.25653839 47.49613190
28.09062004 -28.91608047 45.77829742
21.31049347 -13.11416435 33.86936569
31.66366959 -31.60647774 42.54421997
41.40905762 -25.50403214 33.86046600
19.94335747 -32.58346558 9.50653172
26.56831169 -29.12894440 18.93193436
2.05210495 -18.02154922 9.61678410
43.55587387 -32.35028458 48.42260742
25.47022247 -34.10398865 12.64508057
17.87290764 -14.48916149 4.18880653
-1.26791382 -18.74658966 -9.43786430
18.80890846 -36.72436142 17.59726906
46.82236481 -29.03589249 43.52787018
20.00238800 1.92354774 15.50792980
43.52208710 -31.09086227 47.59331894
-0.67038727 -28.38040543 -1.56406212
9.13264751 -24.27790833 17.33077621
1.20159912 -41.44671631 7.26641464
14.62584496 -36.55642319 28.96097183
-1.49908066 -15.55045223 -7.49653435
33.37519836 9.94368935 32.16816711
31.10080719 7.96478653 37.04393768
26.39249420 -24.26179504 37.01890182
23.53028679 8.51595497 22.04612923
16.04159927 -26.57763863 27.85153580
0.19941521 -32.04946899 -5.68523979
1.27669525 -29.54187012 -2.44156265
41.08912659 -19.84945679 40.95087814
18.70718956 -13.86656570 30.96546173
30.63311005 -42.67380905 18.91650772
39.90522003 -26.97052383 29.53727341
35.23176956 -33.68183517 18.25022888
45.88329315 -26.54035187 39.46540070
37.10843658 -4.50017166 29.59079742
9.97751904 -33.42374420 18.14686012
18.67894554 -42.06806564 27.69458199
25.05082703 -1.01902962 31.79471588
35.69628906 -2.04549217 37.62218475
22.78592491 -35.79583740 4.34654045
41.60694504 3.36520767 30.96067429
21.27801514 -28.14281845 10.40717220
24.70366478 -12.29998970 34.89028931
4.40706062 -15.53192997 4.61491394
16.90628624 -40.30979156 11.19189167
18.90309906 -18.03679085 2.41442490
-2.12954330 -27.80936813 -3.80861855
30.45095062 -35.11106873 34.30933380
22.59830856 -2.32120991 27.49376678
41.99346161 -21.69145966 34.79236221
42.66291046 4.06714058 32.19493484
39.83657837 -30.09286118 41.57617569
0.65814972 -38.23036957 1.38693619
21.31905365 -17.76837730 36.24395370
-0.97247505 -40.35819244 9.93741226
18.72104836 -13.07097816 33.04825592
43.38267899 -30.90873718 48.30780029
42.20077515 3.18636131 41.86611938
1.21844673 -10.25518703 -5.36727524
8.06002522 -16.65285873 -0.38210297
32.18341064 -30.34008408 39.98178101
39.81629944 -18.92739296 28.25372314
30.09015274 -34.81902695 41.59521484
21.21757698 -9.11826229 11.55038166
-3.66584396 -20.36981392 -2.43927383
31.85983276 -15.74505424 41.63113403
14.13919449 -41.83583832 27.45468903
30.64324188 9.09159851 19.88574791
6.17587090 -30.39042473 19.24887276
1.51997757 -18.52916527 -0.14243698
17.71303749 -27.10714340 0.90719414
39.65021133 -17.15008926 42.06004333
37.58801270 -16.71299553 27.33043289
23.86048698 -26.10785294 12.38506413
14.39042568 -33.07730865 13.87784195
27.01796150 10.88725281 30.44002151
25.47713470 12.02044106 28.26396370
0.21830750 -27.64787674 -0.67441940
18.71026230 -33.37479019 1.17501831
36.36246872 0.45512104 40.94758606
44.93807602 -27.43744469 38.96253586
23.43758583 -6.72598076 30.61939430
10.74361324 -18.56879044 -0.86718178
36.97636414 -10.54603004 37.09461594
15.22302818 -35.87760544 28.17296028
27.87575912 -34.05394745 35.55027008
33.40406036 -6.80981922 23.26674080
4.60700035 -14.42472267 6.11226082
17.95203781 -30.85002136 0.89808655
31.26510811 -17.86814880 42.47914886
22.46718025 -17.98840714 38.08583450
0.08141518 -34.45317841 -1.27464485
22.57240486 -20.00377274 5.18716431
10.90212250 -35.20298004 -3.84345818
18.84670067 -21.11328125 32.33763885
17.75613403 -40.69398499 22.95541000
0.74006462 -39.62356567 9.60716152
35.73342133 -39.40238190 25.47246933
7.60912991 -14.37339497 17.28437424
13.64693832 -28.31635284 -1.14407730
15.45173454 -37.08984375 28.30438232
21.00448608 7.87485695 19.79418945
35.37541962 10.50618553 27.31346512
28.41992569 -33.93716812 36.05877304
18.04905701 -34.57096863 15.77553368
22.24041748 -21.70899963 37.70960236
7.23159122 -12.22213840 1.40645409
14.25725365 -21.47402191 27.84074020
3.92537308 -32.58669662 16.99250031
39.43628693 -24.80067825 30.33911133
25.25699043 -19.74595642 39.08919525
12.67937660 -42.98970413 22.51335335
23.63855362 -39.56515503 18.68237305
31.66395950 -29.63377380 42.81976318
39.42134476 -29.96212959 26.49877548
32.16600418 -37.44051361 27.79322052
5.83523083 -20.94625664 -2.29034424
44.14681625 -36.58729553 51.39667892
-0.57059479 -36.98977661 1.75881577
36.82661438 7.22740746 41.21314240
13.38248730 -29.94116783 25.07099533
20.52025986 -18.28781509 35.44134521
26.37185860 -9.89699936 33.65884781
24.30270195 -38.90408707 38.55729675
26.66876411 -16.27518845 10.64551735
36.69362640 6.03853035 40.97314835
15.34448814 -15.26155281 26.94031143
-2.60680199 -18.41054916 -7.16673470
23.89622116 -36.25666809 7.04197788
22.81216431 3.76772499 27.87479401
26.35345459 -38.87415314 42.95137787
-3.74135780 -18.10218811 -6.89012909
14.96892548 -35.19561386 17.28729439
39.40137100 -20.74467659 26.76995277
33.67607880 -24.30364418 18.89947891
3.83711433 -28.87641525 -1.80292702
36.17677307 -2.40283298 36.53109360
29.37045670 -25.73377991 14.81720543
29.78382874 -43.37915802 20.99427223
-2.09140015 -33.56360626 5.49390602
17.21748352 -39.74937439 11.07880402
1.12417221 -24.28678131 -0.17301750
35.99565887 -15.99903488 42.61984253
14.46051979 -17.09368706 0.36680794
2.80286217 -18.96090317 11.64643192
31.91290665 -6.79353523 22.86295700
30.22642899 -22.76443672 43.29895020
18.05138206 -30.27742767 20.96479797
46.55177307 -39.47295380 52.06627655
26.72137451 -20.81385231 11.42189026
48.77052689 -35.38756561 48.54734421
7.76212502 -22.50584793 18.63539886
28.25416374 -8.17151642 34.25905609
5.48549080 -16.04003143 -1.87901878
5.19724464 -22.28722954 -7.84286880
28.42756844 -41.64148331 21.26833344
15.28973198 -5.96594524 10.14036560
38.99766159 -20.37717438 30.27405357
28.50707054 -35.10648727 45.79100037
26.35590553 -34.50885010 33.37990570
23.25989914 -19.23093414 38.99452972
27.74961853 -35.51742172 45.81641388
38.30057144 6.04264450 42.13745117
19.33419800 -22.95295715 33.62125015
34.04297638 -12.87900257 40.70092773
19.12374306 -4.35029507 22.39617538
25.44230080 -26.68689537 15.16981983
6.97699261 -18.80603981 -1.63374519
35.65304947 6.53699684 25.21842003
0.17697906 -15.90799999 -6.83852577
4.60053444 -35.54008484 16.32246780
31.03224564 -4.31290054 19.75937271
41.93417740 -32.26836395 44.87956619
29.13751411 -26.73028564 16.10043716
45.23406601 -28.94645309 47.56541443
17.14484978 -40.33283997 22.00625420
34.76445770 -9.71373558 26.47258186
27.03748703 -39.63930511 12.53015041
42.00659943 9.58467293 40.62330627
2.05786514 -22.08621216 -1.34522820
33.83438110 -18.49736214 43.57664490
39.54059219 -22.94248009 27.04874992
1.89357948 -24.21068573 13.39062119
35.45662689 -2.50744247 27.32438087
48.66738892 -33.43223572 46.56552124
-0.04150009 -37.53323364 1.12364197
34.31079102 -11.19686222 37.90283585
15.08804512 -34.56357574 -3.07774544
21.15179253 -35.56925201 14.85249424
31.45981216 -41.02838898 15.46997833
10.76804829 -41.40853882 8.89375496
23.42370415 -31.10810852 23.77823067
5.75105000 -37.18253326 3.50881767
21.94610596 -29.30933762 8.26824188
3.70653534 -16.10383987 5.50700283
6.85690403 -32.72542572 18.44816399
19.87935829 -25.13059998 35.44097900
17.74535942 -15.90335751 31.53829193
-3.09372330 -24.37573242 -6.52457809
41.74627304 -32.83293533 32.12111664
19.09873199 -28.30948448 12.87004089
21.64788055 6.17740250 26.93988800
12.84493160 -31.70565033 26.28158188
22.80557251 -32.43879700 6.45809174
29.73286819 -43.14388657 16.34168434
14.59465027 -9.88547325 8.51422215
4.51555443 -16.37333488 2.85702324
1.71776199 -20.65994644 8.99413109
12.28057289 -33.39722443 16.82287407
30.08191681 3.23689651 36.91981888
10.59906864 -10.39072323 15.82980633
22.78064537 -6.20472336 17.07260704
29.47006989 2.18229294 17.78080559
16.89384651 -38.71698761 2.81806183
31.90789413 -41.28610611 18.26025581
3.05835342 -38.61850357 15.66489887
29.50844574 10.23862076 19.96149445
28.82309723 -36.73000336 12.53279686
11.81789970 -32.32574844 25.23615074
24.69446373 -31.73651314 22.48188210
35.11966324 -13.57142258 21.35928726
22.38419342 -40.90148926 16.84735489
18.20921326 -7.88331413 25.38856125
18.43855858 -35.15049362 34.92838669
48.55681610 -36.08901978 51.69457245
37.90303802 9.70995903 32.35604477
7.44248581 -26.36858749 -6.48111916
15.86404228 -42.83784103 24.54856110
23.64038658 -25.81955147 13.17389679
6.92668533 -19.03851318 -1.41637611
41.39846802 -17.24497032 38.17790222
10.26378727 -39.40642166 24.17122841
25.15561295 -35.00253296 9.64893055
16.20604324 -35.01514053 18.71643829
18.90827179 5.41292763 18.89341736
0.34490395 -31.25769615 -1.99621582
21.18762589 -29.03016281 36.90271378
16.18202400 -26.87949753 27.94129181
16.37503052 -21.38275146 29.63475037
20.69460106 -36.29671478 3.21961021
31.38254356 4.73121834 20.08826637
18.58154678 -29.28026962 33.24651718
23.10496902 -34.86830139 23.89066696
-1.51700592 -37.11563110 2.36293411
19.39004898 -39.98871613 21.42493820
39.28659439 -28.30077362 40.52879715
17.08469009 -35.38919830 -0.92200661
35.84642029 -38.96427917 24.07045174
39.15634155 -21.16145897 28.12822533
6.37646675 -37.15099716 19.54889870
15.54477501 -28.20530128 17.91585732
23.53698730 8.73390770 20.81118393
17.56199265 -29.18486404 12.09278202
32.92588043 -12.28417683 38.77358246
33.70261002 -22.22064400 18.48492050
9.84620953 -35.12169647 24.06201935
19.10149956 -41.73616791 30.79968262
7.40123940 -13.72619057 4.28954124
35.63912201 -40.22458649 21.35928154
24.36411285 -13.64062119 36.66834259
6.20549774 -22.94927025 -9.42377090
8.21464634 -34.78282928 1.72269058
24.32794189 -32.00074387 43.76772308
16.69820023 -7.86891413 22.44250107
17.01815987 -28.06184387 30.34710312
20.21560097 1.94044685 25.19198608
14.11722374 -38.28630066 -0.75687599
32.23389053 3.71498680 39.07074738
23.67107391 -26.01274490 10.11019516
15.13806343 -5.19578457 12.10897255
33.71181870 -14.33799934 19.88637733
32.55936813 10.16369820 22.78834724
24.82807159 -24.44960403 39.76482391
16.67611504 -35.86865997 32.42887497
18.36338425 -38.95855713 3.96282768
5.22015953 -20.99085617 -1.64806747
22.27001190 -30.04663277 23.24071121
21.56087685 -37.55815506 39.20825958
5.31106567 -24.58470154 19.36803055
33.90616226 6.29349899 24.35991669
38.90206146 -33.13388062 22.68174553
3.85156631 -19.74462700 13.99803066
6.76813316 -38.90671539 18.45793152
23.26719093 -1.32909584 28.96350098
6.56172848 -20.32936668 18.27446556
-5.08572197 -25.04982567 -5.00199509
39.24279785 -13.16061211 33.15263367
-0.17157364 -14.96393871 -1.74567986
48.27698517 -36.62904358 45.12967682
5.73072243 -41.08559418 6.36319828
19.53719521 1.35738945 16.42247009
24.21517563 -36.63464355 22.19253159
38.30599213 -31.87042618 20.94246674
49.21582031 -34.18633652 51.21907806
20.04603386 -6.86975384 26.13760567
12.26000786 -18.52383995 -0.82558060
33.48336792 -1.55220985 35.74443054
21.14355278 -25.97311020 38.56827545
38.31359100 -19.04223824 31.52621460
36.72721100 -11.86394119 28.87389755
18.20961380 -23.58759308 1.34480476
46.05652237 -31.09110451 43.64093018
1.50402832 -23.87733078 -1.04277611
41.24196625 8.03076363 34.71972275
22.10713387 8.17735863 27.61951828
19.65270424 -39.75732422 35.09942627
15.53118420 -39.97423935 28.31411743
-2.05622673 -24.11112213 1.17742729
16.29540062 -26.91137886 27.60560608
-0.95477104 -31.65116119 3.87608910
35.08132172 -22.89106750 44.62006378
17.62919235 -40.67161560 31.99340057
20.71305084 -40.66043854 23.37605667
37.89369583 -11.04260063 32.80487061
44.32288361 -39.41368866 51.54720306
36.41598892 -15.17406654 27.78777695
40.34152985 -22.19723511 43.90687943
37.68221664 -34.40617371 20.78839874
11.17002678 -41.10947418 -2.68542480
47.51830292 -35.61520767 45.82974243
31.04473495 -16.74239349 41.18543243
20.76344109 -13.11980724 34.03081512
25.09880066 -11.58023834 36.27657700
11.01704407 -12.02466393 3.84311676
40.26854324 -20.62939835 42.95394135
22.26220512 -38.30142593 7.92480469
29.28098488 -34.92551422 45.47451782
-5.20660782 -24.60107994 -3.95235634
37.44368744 -0.90272999 39.57627869
35.68376160 -34.00701523 31.37924957
21.43318176 -39.39970398 23.55678558
22.18600464 -39.66555023 28.95590401
4.39748001 -14.90382099 8.59014034
11.50876999 -22.26442719 21.94694710
12.04468536 -40.27688599 25.44028091
37.97533035 0.12490177 40.28765106
35.10360718 -2.66697693 24.95976448
40.73527527 5.96352768 41.16372681
21.15608025 -22.69972229 37.74084091
23.97313309 -18.18553543 7.01534843
39.38481903 7.83919525 30.53811646
32.23261261 0.24671936 37.05561447
42.37152863 5.14328575 36.55259323
41.03119278 -14.70468712 38.79977798
25.97588730 -30.70896912 19.90368462
24.37433052 -26.68352318 39.59780121
46.32654572 -29.21693420 40.47202301
0.09389114 -24.13220596 4.71459961
18.73593140 2.29883766 18.58617401
21.67042923 -34.15480804 12.78126335
30.89348221 -12.55714893 17.05105782
24.49156761 7.59752464 14.49994278
27.31330109 -29.76154327 45.15314865
19.97061348 -14.51669407 32.49443817
29.77492905 -27.17306900 44.58047485
18.57860947 -4.02425480 14.31387997
41.74412918 3.20554543 29.20348358
18.72956467 -7.96592379 25.90229225
3.48199463 -16.29571342 -1.67978859
22.86783028 6.32775497 28.11719704
4.40059471 -15.39355946 -3.17423058
31.90159225 9.40412903 34.00360107
11.97648335 -20.84237480 25.50699615
31.20602036 -33.43941498 16.17194557
20.62559509 -34.57294464 12.76539326
42.58024216 9.51095390 39.67514420
6.30077648 -18.15509224 -2.10535622
16.85007668 -6.75779057 19.62935829
14.79248619 -37.00527191 -3.71143341
4.19973946 -19.97162247 2.34330750
27.90947914 3.28005791 34.43640900
31.29981613 -14.25935459 16.76796913
19.11396980 2.50510406 19.53578186
38.94311523 -21.68335152 25.28561783
31.97307587 -33.60243225 31.62753296
21.70126343 -39.09928513 10.32921028
36.31734467 -13.09411430 23.73631668
41.94455719 -27.58180237 45.13317108
42.62550354 -24.77049065 37.67710876
39.15813446 -27.95557976 22.83870316
37.51580811 6.43010139 40.57459641
18.23774338 -21.79811096 1.95682907
5.31279373 -15.13818169 4.23583984
25.08083916 -24.75347900 13.23613930
26.13989830 -27.57623291 42.72945404
2.88298798 -11.34241867 -0.32332039
7.33209705 -23.30802155 -7.08396912
-3.12787819 -34.43186188 5.24008179
44.97508240 -30.53656006 38.96484375
20.48243713 -35.48414612 2.76865578
32.78160477 -24.31982613 17.75241852
26.59932709 -35.08589172 36.40310287
-0.59434891 -23.73896599 1.20974350
3.71685982 -38.21445847 3.78188324
32.27500153 -9.70909119 24.31210136
20.24296570 8.86994743 15.35712337
41.67967987 -30.00621414 30.48605728
48.70169830 -36.90890503 49.30461121
36.36530304 -3.46697330 27.24045753
42.39165497 5.44849205 34.08767700
1.44320679 -22.42775345 7.98601532
-0.14097404 -28.95321465 7.61365891
48.75642395 -36.37724686 50.73935699
41.83961487 -19.73507690 37.52257538
21.48053360 -9.13294983 11.03588772
15.56578636 -24.35662079 0.13915634
32.81443024 -4.35133171 21.42661476
10.52303696 -38.07222748 -3.97517967
33.88980484 -18.75290298 43.97621155
50.25957489 -34.31761169 46.98366547
26.99299240 2.73473167 32.76856232
39.36568451 -24.49733925 29.95535088
32.06455231 12.33790398 28.16448021
27.29501152 -31.51355171 18.21981430
23.92845154 -5.19058800 30.68184090
42.74131775 -0.44559383 39.18604279
28.48886108 -18.59722710 40.63768387
34.87422943 7.98900795 38.96830750
25.37428284 12.25866318 25.19924736
34.79600525 -31.03275108 19.00158691
12.37403297 -33.19207764 26.72524071
32.31766510 -27.33533287 43.00788879
12.49057484 -25.05645752 23.05595589
42.09357834 -26.03214264 33.20742416
30.89717865 -18.16818237 18.27786636
16.73785591 -40.25702667 -0.16753769
5.04757500 -14.63319778 13.34822083
34.61426163 8.93787003 30.02367592
14.79129505 -27.14797592 23.45973396
36.63126755 -11.54103088 37.71845245
6.67595863 -27.06224060 -4.21268654
42.15396118 8.60050392 41.19199371
3.42126656 -34.64401245 0.16402245
24.20640182 -39.08662415 31.90117455
1.57481384 -16.32248116 -1.43670464
26.00367355 1.34582520 15.07458878
31.85704041 -6.50867939 22.27121162
44.51763916 4.13292503 39.43683243
38.87651825 -24.09132004 23.50205612
26.90396881 -37.07390213 37.81495285
16.24097443 -19.23276520 1.58962250
36.11257553 -37.58367920 21.03540802
38.50753403 -16.55939674 28.15213776
-1.33994675 -18.89178085 -0.75683975
40.05873871 -14.98551369 40.06748581
2.59425354 -11.86918640 -1.09457207
15.81162834 -35.89797211 -1.69527054
40.88415527 -30.47879219 25.40754318
23.51539230 -40.00517273 33.00886536
22.33169174 -33.77346802 12.58163834
2.95490646 -28.22663498 0.88593483
29.21855545 9.47783852 32.84789658
5.73126698 -39.41880035 12.65009117
39.48636627 11.27405167 39.69551086
31.12287331 -30.44842720 39.39241791
19.31156731 -4.22102070 22.42390060
11.27303505 -14.21476841 2.59145546
37.60207367 -14.67355728 41.11060715
36.09616852 -18.39338493 21.46513367
45.72200012 -31.58196259 43.74137497
0.08405876 -24.64205170 5.88267803
20.36657333 -4.57211399 25.34926987
32.14121628 -28.66515541 17.49683571
41.35194397 -29.08102608 27.21563721
31.00554466 12.30414009 23.66246414
-3.54290581 -17.14706039 -6.40665245
27.82824326 -30.36594391 45.53476715
16.81848907 -37.51446915 -1.13754272
28.93620110 -4.47287846 35.77693939
29.85853386 10.08553505 32.41582870
35.12472916 -16.84664154 21.91164780
25.25770760 3.35114670 15.14656925
40.08574677 -25.69295502 42.75494766
-6.03095245 -22.13278008 -4.78179932
35.09100342 -29.57915497 19.25017548
1.30878639 -27.25136948 1.01904678
8.73682213 -37.48354340 0.33951378
37.47534180 -19.12202835 23.06832504
12.23792839 -10.93158245 3.86855507
35.76359558 -39.05488968 26.31044769
1.20372009 -26.02077103 -9.52354240
-5.02379227 -23.76465225 0.11295128
14.06055641 -27.87363434 27.15683937
2.00821877 -30.54302216 14.39108086
35.61006546 -4.87095451 27.95693588
16.07878113 -25.74140549 27.19252968
42.30497742 2.21280670 32.66382980
6.05556965 -14.46084785 14.84647560
40.15011597 -26.96670914 26.75844955
4.21999550 -17.40475082 -9.45488930
14.75548363 -6.93804359 9.35147667
38.96254730 -1.39200974 32.51478958
45.64249420 -26.42988777 44.75310135
18.37965393 0.08426380 24.07436943
31.42818069 12.11867714 21.45979500
20.50176430 -30.61853027 1.35413170
43.38126373 -29.67436600 46.79994202
11.63906574 -29.49626160 -1.63289261
5.99749660 -19.43172455 17.88508224
28.85642624 -26.81773758 43.25153351
-0.81176186 -35.48918533 10.30212975
8.45913792 -24.88672638 -8.72159767
41.16661072 -15.00213337 36.86466980
39.67622375 -14.81492615 33.23998260
32.25810242 -38.41103363 20.00167847
14.79575825 -40.79045868 10.08007812
28.59525299 -36.02653503 30.01495552
21.66332054 -4.03143215 15.83509064
14.26749611 -28.44144249 26.59981155
31.71700668 -35.62343597 17.49124527
0.88888168 -20.35421371 8.31589985
0.90823174 -19.59307098 5.57183647
35.05789566 10.56710625 36.82078171
17.93556213 6.75995445 19.33270264
44.12873840 -40.80155945 50.33603287
35.76961517 -31.42067146 36.54341507
16.48806763 -3.13114357 17.75040054
4.31753349 -29.62291908 -0.54764175
15.52279854 -39.43849945 29.87193298
29.17819214 -22.47985458 14.06725311
-1.68971825 -38.31585693 5.82482338
39.57046890 -23.44408417 43.37564850
25.04120255 -38.56717300 33.91118622
1.80681419 -18.13711548 10.60844898
41.07486725 7.30972290 33.66990662
17.35067177 -9.06103325 9.86460114
3.61412811 -20.96333694 13.92611504
5.13517761 -14.22402954 13.81527901
16.67536736 -39.28811646 12.58448792
16.56690598 -29.28126144 29.85232544
39.49013519 10.89808846 40.41755676
8.29419231 -32.85068512 -3.06574059
35.13166046 -13.04603672 23.24202156
6.65029907 -21.25170517 19.59158516
34.11599731 -20.47204781 44.40125275
17.86237717 -40.72149658 30.45104408
20.30741882 -5.45022869 26.23446655
3.10979271 -36.63454056 14.44053459
-3.03413010 -33.27435303 -3.44736099
26.61430740 -2.58783245 33.09958649
12.98114681 -8.24072170 18.32292557
42.81562805 1.35555267 41.72802734
19.61737823 3.85074615 15.78334332
31.36284637 10.98157883 29.44462585
42.51362228 -31.68643188 31.30568886
1.87892723 -20.88546371 0.85858345
18.02197266 -6.37048244 18.43996239
24.81958961 -18.19845581 6.91113472
10.73076630 -41.13212967 13.10032845
-1.31224060 -29.17015266 -3.09504509
10.25683784 -36.16835785 -4.33325195
13.16448593 -10.86166096 22.20235443
30.17307472 -34.56264877 46.78914261
30.61647034 -35.38474274 16.75090790
36.93450165 -11.55563259 37.13231659
44.91174698 -32.07050323 43.38314819
1.32234001 -36.57840729 1.02736664
44.02635574 -35.79524994 46.77866364
20.10321808 -39.96011353 22.41814423
12.28705215 -28.17650604 17.47656631
8.77567005 -11.96731567 5.05591583
5.86760426 -35.86558533 17.96786118
-0.12992477 -25.15186119 1.80555534
10.83556843 -20.52608299 23.50121880
6.77432251 -11.82634163 7.79855824
33.99835968 -38.38681030 24.47448921
13.47687912 -28.24790192 26.74673462
7.85718346 -12.89231110 16.47324753
19.75960159 -9.27062035 11.38693047
47.14875031 -40.42795563 47.48094177
20.60957146 -40.50218964 22.85107613
9.23650169 -12.48648643 18.10559845
34.39939880 -2.41912174 22.48370361
42.02038956 3.46120453 29.91365051
15.50599480 -24.60850334 28.65980721
3.09035873 -36.81998444 16.50134659
39.46120453 -25.12267303 25.00126457
15.45108604 -40.38503265 15.21971703
15.68270111 -39.32527924 -2.82881355
38.43446732 -1.57863331 39.49631119
8.69738865 -9.97343922 6.00208569
10.12669182 -40.73136520 16.37134361
40.55100250 -26.59042931 33.46683502
32.00994492 13.50922585 28.18545341
5.28332901 -16.45930290 -6.13132477
31.93336487 -31.47418594 38.76860046
35.41491699 10.04743576 36.56771851
36.09878540 8.45889664 29.69259262
39.78761292 10.34689903 40.49641800
43.83479309 6.51601791 37.98894119
21.33763695 -16.56436348 34.25373840
12.94144535 -17.92487907 0.12869453
29.70528030 12.59205246 25.70783234
36.13672638 8.65191269 31.04805565
5.17267799 -29.14322281 17.42330742
26.16230392 -0.28919983 16.56431961
41.89086533 0.14170074 41.97674942
9.47251225 -25.96357918 21.19155312
42.52378082 -30.01988983 37.22927094
21.77356148 2.03753662 15.24796104
23.73910332 -10.44625473 11.16046524
16.56768799 -33.20803833 30.99309921
35.42824936 -1.20120430 36.53439331
-2.33386803 -34.47701263 3.90395927
43.81071091 4.41141891 36.32423401
0.61603355 -22.78161812 5.52852535
26.36446762 6.10063171 30.76568413
6.32018757 -27.44283295 -7.07406044
11.30670929 -36.51533127 25.23314476
11.77973461 -40.69103622 1.66753578
30.26530457 -32.42628479 43.32658005
17.36742783 -37.47113419 -0.68003082
24.40882111 -18.75241661 8.45641994
18.99872017 -3.91924381 21.94640541
28.85817146 3.32352638 16.84977913
17.32409286 -39.29031372 6.60271358
24.57601357 -29.88041687 21.84149742
19.74336624 -18.87178802 33.23461151
32.42542267 -11.57672310 23.51554108
27.04838181 0.62564564 31.76632118
24.67752647 -34.08163452 12.53567028
33.18523788 -20.28133202 18.64321518
8.86963844 -38.04592514 0.15393639
28.70537567 -37.87871552 28.48610687
32.67338181 -40.30652618 18.31051254
29.88619995 -17.97247314 40.98522568
0.00770950 -29.21333122 9.51943588
-2.56918716 -14.64830685 -3.90661621
16.76391983 -6.22055912 11.63342667
6.17753887 -18.79483032 -6.41438484
-2.59627342 -26.66896629 1.35947609
36.57163239 8.99959183 25.78523827
23.30608559 -11.64986420 9.67636108
29.73826981 6.94544792 36.66265106
13.20957184 -32.11993790 29.35295868
5.54165649 -19.33140373 -7.59418106
20.86501503 -20.51962090 32.81619263
37.14377975 -10.95715809 35.10659409
13.02968788 -9.27957916 17.92476845
0.55638695 -40.10709000 8.57153511
4.79813766 -12.36186218 -4.63869095
39.48810577 8.51309013 34.91713715
5.86114407 -26.18650818 -9.13130951
43.31535721 -34.29906082 50.52490234
40.48351288 -28.59322739 25.62993813
19.32809067 -27.96669006 0.69901466
4.85243797 -18.51989746 -9.02664375
11.67770481 -32.58823013 16.36177063
10.54096794 -36.19773102 -4.62904167
29.01605797 -11.82188511 15.76906776
-0.85042953 -28.63285446 -1.79102135
43.91822815 -30.74053574 38.35013199
3.02585602 -14.42242718 9.45248890
38.78270721 9.99980927 36.53229523
39.83731079 3.33966064 26.52700043
35.58889389 -4.73140621 27.41791916
20.48644829 3.61249161 15.30246544
23.76182175 -34.34242630 6.66471195
38.41694641 -29.73139191 22.78394508
22.12721634 -36.63878250 19.75823402
19.19431877 -33.12675476 22.27475166
42.87658310 -22.68474579 38.56282425
15.42527580 -38.27778244 26.28987885
29.95795822 -7.70086193 19.98717117
13.99276924 -33.70515442 14.85484219
29.67659378 7.48848724 32.48789597
6.57133579 -39.72928619 5.04870224
20.00395012 -39.92822266 36.59784698
22.89676094 -26.48662376 11.18047237
24.99429703 10.47147369 29.02321243
1.16942024 -32.72238922 -3.39944839
21.97235298 -35.97959900 25.75574493
15.17440987 -35.31225586 29.56849289
38.87066650 -28.04187393 22.40731049
33.94404984 -3.83693886 24.34786606
16.26079369 -40.13989258 2.22300720
-1.76674461 -35.79277802 9.03377056
35.45780945 -13.90712452 39.38454437
15.22079277 -40.18161011 12.20906544
42.79726410 6.61195374 34.30535889
6.61819077 -22.14039803 -6.44339371
-0.56972313 -32.01083755 11.29389858
3.92662430 -27.42559624 -9.05378532
23.59471321 -9.01005745 13.06644535
5.02776718 -14.97117519 14.14477348
1.54547691 -21.84324646 -0.50661850
23.84087181 -30.02305412 21.59492111
3.81976318 -15.47298527 5.78743935
26.25018120 -30.08438110 19.13782120
1.75643158 -18.81171989 -0.49698448
41.53960800 7.62391663 41.07501602
5.76401711 -18.37411499 -4.72025299
33.75519180 12.04270744 27.87509346
41.06402206 2.03802299 30.63120651
42.29732895 -30.01658249 35.49557495
-0.11677170 -26.39246178 1.62722969
19.03768921 -35.04128265 0.70384216
14.95964432 -30.43276596 22.74823952
18.99681473 -11.77668476 31.39900970
18.05438995 -36.15683746 31.69136238
9.99104691 -28.68711472 21.64111137
12.01253223 -17.80357361 -1.67233849
8.63609314 -12.83762550 1.90958977
42.06933594 4.18371964 31.96515274
3.51712036 -24.78719330 -10.60364914
28.53095818 -6.31068516 34.58681488
31.72596169 -8.83105278 35.38759232
30.10210609 -7.13833618 18.45318604
46.55644226 -36.91406631 52.65313721
10.97305298 -8.81519508 14.54647827
20.45913124 -10.85843849 32.41633606
31.19246674 -34.63191223 31.60763359
24.97801590 -24.58638382 8.46978760
13.21874046 -26.97564316 16.69078445
33.72184372 -25.80588913 44.30600739
21.10339737 -27.95616531 3.53737831
-1.50557327 -39.22457886 4.72343636
37.97955322 -11.39253330 32.44779587
36.07737732 -16.45758629 43.27451324
49.33254242 -34.61587906 46.86351013
46.12219238 -28.51480484 40.23097992
18.77533913 -35.93286133 22.57829666
29.70682526 -33.06409454 47.11471558
34.72677612 -23.09979630 19.69032097
0.69014931 -24.27940369 3.43872261
26.32332230 -24.68269920 39.91021347
0.63286400 -22.74557304 3.32699203
23.29215431 -32.23249817 25.35247803
40.33605194 -24.88363647 26.36584282
21.22780418 3.64756203 25.83681870
42.97946167 0.14104462 40.85460281
39.10025787 -24.58191109 23.82370567
25.30667305 -4.58906651 32.86105347
18.53597832 7.57786560 19.72352409
1.75626564 -34.24334717 15.29211998
8.73890114 -23.61403275 -7.58466530
35.63183594 -15.19277859 23.69232178
25.12713623 -37.85057068 28.13332748
-2.17647171 -38.35233307 3.02880478
43.98458099 -35.64282227 48.89906311
10.32387161 -30.18235397 20.01504898
0.75547600 -19.42874718 7.06284046
17.65983200 -31.13831329 10.31830788
27.50219154 4.39546967 35.27922058
18.50777626 -37.67983627 0.55863190
32.42811584 -38.15524292 26.78865051
11.93777657 -25.03765488 -2.17871475
13.86541939 -39.20692444 -3.45328712
0.05525589 -25.11707687 3.89836502
17.20687103 -16.84714890 1.13941956
22.43011093 -26.64729691 11.06254673
0.90798759 -24.57309341 4.13530731
39.71086121 -0.61569023 32.08010101
13.97078323 -20.17800522 -1.17684364
20.60633469 -30.44095421 39.78606415
14.80416489 -27.77465439 27.73283005
30.19692039 -12.25373745 15.53395081
20.93216133 -42.40006256 27.14200974
36.69610977 -6.20447159 26.50369263
20.71078682 -35.18259048 14.88580608
19.08190918 -24.97413635 0.65079880
20.30871201 -7.48432875 27.76455498
6.25249958 -12.96567535 1.91243744
30.26683998 -3.75639153 36.32348251
12.97861862 -8.46784496 21.02591324
30.01525497 -17.59578133 15.87083244
31.79769516 -20.35744476 17.73250198
40.35926819 10.70798683 37.88565826
16.81640625 -29.36746025 14.96398067
25.09095192 6.54378128 30.18438339
26.42798233 -34.41838074 32.46030426
20.93328285 -4.95517921 15.50561047
2.53782654 -33.94362259 15.75227737
27.27986145 -31.56337357 17.37471008
13.14207172 -20.37951469 -0.24812889
31.02999496 -28.08148766 44.63314056
4.56299973 -27.49114609 18.92387009
0.23623848 -41.22975159 4.72733498
20.99167061 7.27146530 14.09745979
2.75832748 -33.54827881 6.12615204
33.86290359 -20.63591003 20.42328644
29.49669647 -39.19204712 21.33579636
17.86571503 -7.87694597 25.47154045
2.30985832 -28.55283737 -3.22321892
30.44507980 -40.85474396 20.78645515
26.76288223 -9.84066582 34.84592438
33.53898239 3.78201675 39.52285004
37.35401917 -33.27673340 20.58850098
4.51537704 -29.73292923 17.00291824
16.16738510 -11.99044991 27.27299500
43.95629501 7.46565628 38.99957657
41.34498596 -25.57733536 45.00211334
15.69022751 -27.01614189 -1.25713348
19.75417328 -15.16115475 4.37217903
0.40747261 -30.64124489 1.22348213
17.20451736 -13.65688133 29.32273865
23.41130829 8.88772202 28.70162010
34.06741714 -27.30012703 43.32611084
-0.19518089 -30.44742966 8.24850273
43.72787476 -31.13119507 47.14339066
25.54415703 -20.14866447 8.39699650
3.65780449 -14.94229126 9.83881664
7.90853214 -40.55905151 13.65555382
29.57787704 -6.20490551 19.87225342
25.52204514 -35.26621246 32.99197769
5.76838398 -14.40168762 -0.37960434
30.26134682 -22.45154953 15.23129463
34.14346313 -16.99645805 19.52615356
25.62721062 -11.74569988 35.36251068
1.09243584 -22.98137283 1.30569267
36.78030396 -22.11244774 45.24356842
19.10709000 -39.71489716 23.29653168
22.50777626 -17.24554825 38.00728989
0.95495033 -12.31689453 -1.21601868
18.37692261 -12.17133522 29.76260185
17.69973946 -34.31258392 0.88847733
47.06116486 -35.66466904 52.43163300
21.24276543 5.20974731 26.30182838
40.37979889 -28.79094315 27.86466599
35.54879761 -32.57122803 32.59104156
27.35977173 -36.85571289 29.51997757
13.67935181 -29.41783905 0.23781204
23.67013741 -34.32263947 9.20012760
46.06726074 -28.65372467 42.89057922
6.23027897 -27.34679031 -6.46954536
34.45938110 -13.16040230 39.86678696
37.55855560 -0.26343822 39.55268860
6.77688217 -14.37103653 17.45030975
37.47522354 -18.04612732 43.03448486
13.84098816 -30.61908340 -1.05227852
-0.31118965 -30.80366707 2.01938438
41.09953308 5.72624397 39.73961639
36.73831558 -14.12654591 26.74264717
1.09979820 -22.91874695 1.32928467
39.87007141 -34.43594360 27.40175629
21.30203247 -36.20009232 18.11749458
40.57238770 -33.01800537 30.87795258
43.53716278 -30.74354172 48.21974564
21.17996979 -28.88260269 38.65062714
37.38192368 -17.74473572 22.87065697
25.91630936 0.25991917 15.10374641
31.85511780 -20.35390091 18.65203094
1.46699333 -12.59490681 -1.48717690
8.02961731 -31.97304535 -2.78301620
27.86305618 -8.41646957 33.10597610
13.68678379 -8.35053062 17.76544380
24.37434196 -38.49301910 35.67111969
17.33679771 -37.80704498 0.52329826
46.12660217 -33.69954681 43.95761108
39.04507446 -30.33404541 39.84541321
23.12669754 -35.76219177 22.28023338
21.89065742 -34.73925018 40.43588257
32.65455627 -4.16540146 34.00236130
32.46411133 -38.03076553 19.05368042
41.51977158 2.02619553 29.83179855
35.75202179 -12.30861473 28.45940590
2.96388245 -15.77730274 3.67704201
8.27072811 -27.36313629 -2.45446968
10.43605423 -33.92284775 24.30983162
4.16435432 -14.18698692 14.20758057
6.90909576 -20.77127457 -2.11224556
34.94872284 -26.22802734 42.80332184
31.87291718 -33.21633148 32.27315140
22.76277351 -9.17436600 13.95318317
7.64896584 -31.52444458 -2.87793922
43.94692230 7.84287834 38.93893051
21.76618958 -38.35306931 26.66850853
4.13965416 -37.99723053 16.97627068
8.91812992 -25.30018806 -3.01917648
18.34047699 -39.04049301 3.93526077
6.99005890 -13.05100822 5.58582211
18.95092392 -31.33607101 20.91934776
31.77894592 -38.64092255 22.41952705
-3.15131950 -17.09715271 -3.43044090
28.24329567 -38.35448837 25.59436989
39.42959213 -1.33557320 30.67668915
31.48357964 -36.98540878 16.92842865
18.22010803 -39.55627441 7.45223808
15.71546555 -31.71571159 21.77698326
29.00241661 4.70969009 35.32711029
23.64255333 -36.48261261 19.31921387
43.97150421 -24.74578667 42.92167282
29.88389969 -20.83366394 12.95619202
30.22319412 -33.91233826 34.74531174
31.95170403 -26.62151718 17.77629471
22.58457375 -37.32455063 40.19487000
12.70596790 -41.06851578 6.72636127
19.80164719 -35.09397888 36.39669800
-3.79224586 -23.58803749 1.39123535
14.00545502 -40.83829498 8.79589176
10.74496269 -33.94675446 -4.75785065
31.06936264 -25.15561676 16.66387939
19.41127777 -8.39939117 12.06719398
26.09512329 -2.39347839 16.86055756
8.18899822 -39.71859741 18.61001396
22.63924408 8.30743980 23.16256905
44.00984192 3.01939392 35.14536667
18.32477951 -22.03879166 32.89308929
30.10523987 -18.58703423 14.62842560
26.13165665 -18.44319916 10.35749435
37.19163895 -6.84130764 28.98634720
14.94012547 -22.62898064 28.22391129
43.79632568 -24.36929321 42.71997452
16.26118660 -28.33389091 18.61481667
43.94612885 -38.61245346 46.33805084
-1.56566811 -30.93222809 -6.12167549
25.53188896 -34.92073822 36.45227432
13.65871048 -34.38747406 17.08665466
31.61951065 2.40242767 18.49612617
40.81344604 2.15651512 30.70951080
0.16659164 -31.60135269 -6.55613136
30.81884384 4.04421806 18.35206223
9.93209171 -9.89523792 7.75088596
40.52632904 -26.57470322 32.29526138
1.54614449 -41.01778030 6.81903362
