-11.28830719 -0.42085946 5.84574127
-10.71404552 0.03034227 4.83508110
-10.09371758 0.45983160 6.49216080
-11.21502018 0.57776427 6.16802835
-11.03587437 -0.32264578 6.53307390
-10.65561199 -0.06939678 5.02609539
-10.29767513 0.70826548 6.55645132
-11.11132622 0.19095095 6.53598976
-10.61518478 0.46451443 5.39608383
-10.26228905 -0.34186769 5.80449677
-11.24853897 -0.57527512 6.29853773
-10.52459145 0.08169882 5.30315495
-10.84522724 0.67276722 6.18451834
-11.11712837 0.19649020 6.48309612
-10.15716553 -0.44801560 5.24335814
-11.41914082 -0.37480918 5.46118784
-10.96638584 0.84733796 5.85253906
-10.06795406 -0.77493495 6.78971529
-9.93474579 -0.73427409 6.76739025
-11.13069820 0.59119177 5.53972197
-11.47199345 -0.75154036 5.36765194
-10.37528515 -0.55882341 5.70044565
-10.99344158 0.16334283 5.22474718
-9.96702099 -0.92322183 6.82205296
-11.22396469 -0.25900072 6.51572609
-10.23684502 -0.66830271 6.63405466
-11.35085678 0.51497263 6.66042566
-11.15161419 0.20151876 6.48863697
-11.61496639 -0.71561587 6.64006090
-11.53970432 -0.79491228 6.57721329
-10.91354465 -0.08883040 6.88294840
-10.85383701 -0.39300868 6.44924974
-9.87636566 -0.15522200 5.88290930
-11.31707573 -0.73901212 6.62270021
-11.41982746 -0.27357379 5.73476505
-11.70963955 -0.81732017 6.73463726
-10.19984150 -0.47326943 6.28482771
-10.36811543 0.65574694 6.59281158
-10.04788494 -0.19571395 5.96172905
-11.30156517 0.37606189 5.84529257
-11.81724834 -0.11967695 5.98697233
-10.42787933 -0.30517274 5.36651230
-10.94248104 0.47854862 5.49698353
-11.72708797 0.84384114 5.14995861
-11.39872456 -0.40300149 5.56317472
-10.28066826 0.56345862 6.61873245
-10.58778000 -0.65666789 6.13019180
-11.33741379 -0.72902322 6.50951195
-10.66331959 0.19573084 5.28890467
-11.30073738 -0.10679824 6.30741835
-11.25045013 -0.47545972 5.27988100
-10.75270844 1.11030602 5.88770580
-10.21158695 -0.56398320 6.31799412
-10.38437080 0.64145368 5.32547951
-10.52699280 -0.57431120 5.56193113
-11.78507996 -0.92025250 4.97896194
-11.13148880 -0.55964559 5.76155090
-11.44845104 -0.40203393 6.53922844
-10.74447918 0.99253666 5.81268501
-10.31894779 0.62858689 6.32165098
-11.16254234 0.51755369 5.31000376
-10.05805111 -0.54485589 5.23779964
-10.88317585 0.86098164 5.75728083
-11.01199818 -0.16911279 6.58360815
-11.43493557 -0.83904487 5.19206619
-10.82614613 0.06751902 7.06660891
-10.61292362 0.49400541 5.43181229
-10.37720490 -0.64576042 5.39556503
-10.14560032 0.13024914 5.73690987
-11.56621170 0.87904042 5.05461740
-10.47676277 0.22127503 5.39406300
-10.84798145 -0.94829708 6.03635883
-10.93753910 0.50535440 5.55050182
-10.28715801 0.19981244 6.43294287
-11.44979382 0.82019466 6.62965965
-10.71478653 -0.09877700 4.98780632
-10.30166149 0.25754920 6.49585629
-10.39535904 -0.36198440 6.53835583
-10.77571487 0.88459581 5.77414656
-11.04019737 -0.13989216 6.55867767
-10.03178215 0.66111517 5.22907734
-11.53017998 0.91908568 5.12916756
-10.51532650 -0.61942637 5.89627790
-11.35101986 -0.45015061 5.77863503
-11.21522808 0.46418545 6.05167437
-11.14547348 0.58454686 6.19501781
-10.79230595 0.23811828 5.16955471
-11.45005131 -0.26748818 5.98060846
-11.35075569 -0.65776378 6.36679983
-11.71356964 -0.81636292 5.01365376
-10.04941273 0.58431166 5.23853636
-11.71768093 0.82943422 6.85510445
-10.85554028 -0.23213442 6.64230871
-11.44488525 0.47150382 6.44511414
-11.72008896 -1.00155139 6.88203669
-10.96135807 0.86286449 6.01193905
-9.65990162 0.00483154 5.98508549
-11.52017117 -0.15717502 6.07366800
-9.91094685 -0.79680133 5.17271709
-10.28971386 0.61570758 6.64073658
-11.45577812 -0.45705172 6.39649105
-10.43330574 -0.30200523 6.50175476
-10.12207985 -0.51267576 5.24657869
-10.18406582 -0.39496222 6.33737755
-11.06122684 -0.54730916 5.44573689
-10.24056435 0.15264976 5.60718393
-10.75957870 0.29405904 5.36801720
-11.80116177 0.98940384 6.92431116
-10.72205830 -0.25444797 5.23239183
-10.74601841 -0.35774496 5.37418938
-10.83018494 0.05321475 4.80427361
-10.28530788 0.70316809 5.44484901
-11.40844345 -0.41513762 6.39344835
-10.15359211 -0.76548183 6.73967743
-11.17948341 0.26575190 6.49412680
-11.44246006 -0.17184864 6.13152838
-11.56202698 -0.83195847 6.71943331
-11.26504326 -0.67642349 6.42115068
-10.16896439 0.62654287 6.75062084
-11.15492916 -0.55519354 5.76035452
-10.23224640 -0.61688745 6.34552860
-10.22403622 0.39251551 5.62045956
-11.68001556 0.83552325 6.68563938
-11.38039875 -0.67316598 5.47919035
-11.31353569 0.41596708 5.76237154
-10.44322872 0.00787377 5.40765572
-10.37188625 -0.24340445 6.51851034
-11.08774757 -0.21315137 5.37373877
-11.49937248 -0.83911449 6.74645710
-11.38890457 0.66499418 6.44394207
-10.68552017 -1.06229413 5.95300579
-11.48853779 0.76028258 5.09073925
-10.46188736 -0.50820589 5.32715273
-10.96676636 -0.78896284 6.03399467
-10.17248726 -0.48152417 6.61068249
-11.37870789 -0.44538254 5.65431166
-11.30611420 -0.53715914 5.68099642
-11.05672359 0.66605484 5.83604288
-11.10044098 0.55300492 6.23689795
-11.30820274 -0.30794132 5.34526920
-11.14248848 0.52734196 6.17498302
-10.97009850 -0.55475777 5.59714556
-10.03942680 -0.81849545 6.78003216
-11.02981758 -0.56165391 5.48091412
-10.23437881 0.72996306 5.28282642
-10.98488903 -0.24101844 5.32385635
-10.29518604 0.47323745 6.11134005
-11.69352627 -0.91510165 4.96278667
-10.86473465 0.14811388 5.07558250
-10.81631851 1.15285647 5.95615959
-10.33260822 0.39622742 6.56484127
-11.40929699 -0.61840039 6.36469221
-10.53888130 0.33362693 5.35113573
-10.60422802 0.00808947 5.18985605
-11.43077087 -0.67142993 5.15313530
-9.97588062 -0.75591904 5.04221630
-11.27862263 0.65809631 6.51701927
-10.96582985 -0.01028067 5.07453299
-10.78678513 -0.08677615 4.89719152
-10.14102840 -0.61153436 5.13559723
-10.03448391 -0.59317815 6.47939873
-11.66728783 0.15686136 6.00171518
-11.45417213 -0.45517316 5.51388407
-10.16408825 -0.16335048 5.70626402
-10.78941917 -0.64784378 6.20022202
-10.45616913 -0.53783572 5.91076374
-11.73524666 0.92769086 6.79474401
-11.38961315 -0.52259243 5.63107777
-10.42675495 0.35853243 5.36306000
-11.63156319 0.82491714 6.65950871
-11.22660923 -0.54521376 5.72193909
-10.19928646 -0.63753837 6.33303976
-10.55017948 -0.59626913 6.21275187
-11.20443153 -0.65870374 5.32525015
-10.96549797 -0.68279183 6.11477423
-11.35469532 0.49492681 6.13482475
-10.10976028 -0.65122783 5.42924023
-10.57973099 0.81395358 5.95121765
-11.59394360 -0.63809514 5.14344025
-10.82648087 0.07766456 6.99737978
-11.00362206 -0.66415608 6.11403990
-11.67574406 -0.84101063 5.23479366
-10.35936737 -0.55985522 5.67093992
-10.61817741 -0.93182385 5.94854450
-11.75929070 -0.97738457 6.89808559
-11.30340958 -0.62246448 6.31904030
-11.16163826 -0.11836734 6.46396923
-10.97387218 0.10793379 5.17474031
-11.41077232 -0.77545303 6.62775469
-11.48391247 0.55089039 6.41579819
-10.94547367 0.62609452 5.68606567
-10.61667347 -0.83999413 5.86420155
-11.70748138 0.76228750 5.05994034
-10.23895359 -0.23507623 5.42776537
-11.28384972 0.49900657 5.30175829
-9.89949989 -0.97581428 6.87794256
-9.84893036 -0.12469804 5.84311199
-10.52320957 0.59577847 6.24873924
-11.43867874 -0.49618232 5.56791115
-11.40583801 0.77956975 5.22684526
-11.10380554 0.54995376 6.50889444
-10.14808559 -0.21826912 5.73286676
-11.51142693 0.54479331 6.60069847
-11.36003494 -0.31735972 5.57187748
-11.31984997 0.07173574 6.36935806
-10.32946587 0.50232023 5.27443361
-11.62565231 0.12443727 5.78518438
-10.38950062 -0.40888789 5.33720016
-10.48972416 -0.32662010 5.34233379
-11.34387302 -0.02231543 5.63236761
-11.40550709 -0.24204788 5.96337175
-10.24825191 0.33417547 6.11378956
-10.25913715 -0.36078051 5.76623154
-10.78295898 0.03262336 4.84929180
-10.35959530 0.50673944 6.57067633
-10.12349796 0.22493255 5.92601967
-11.39514065 -0.30342245 5.47468710
-10.72586155 -1.09102571 5.90423822
-10.12040329 -0.77317113 5.10163164
-11.18107414 -0.49883756 5.32549763
-10.25660133 0.17446779 6.38424778
-11.55939674 -0.55214369 5.32430601
-11.20405006 -0.59480774 6.29052925
-10.73252296 -1.00283134 6.05839968
-10.66905785 0.15057035 6.67272377
-11.16103363 0.44814181 6.56376410
-11.37920952 -0.63160270 5.48725319
-10.02121830 -0.63013804 5.15740395
-11.52611351 0.21621947 6.00663042
-10.30191517 0.62100118 6.27806664
-10.76830196 0.57566112 6.24304342
-11.67498779 -0.75991559 5.17528915
-11.52561092 -0.55036730 6.54448414
-11.50549316 0.57378614 6.65728569
-10.24073601 -0.09475194 5.58540916
-10.23845959 0.57533711 6.26290512
-10.49098969 0.55243093 5.90761185
-10.37475109 0.50071627 5.86145878
-11.11215591 0.26348072 6.49316502
-11.34440517 0.36392760 5.65174580
-11.33997345 -0.14353663 5.57155657
-10.17343903 -0.64964241 6.35627890
-11.13853741 0.09210504 6.48200369
-11.33615112 0.65775043 5.44784451
-10.79913616 -0.19279252 6.67189407
-10.80604362 0.01543008 7.06768894
-11.54200172 0.66971958 5.10294676
-11.35627365 -0.26730427 5.40436745
-11.52436447 -0.63124770 6.48061800
-11.27024937 -0.59066004 5.25920630
-11.50283146 0.72102672 6.47893095
-11.42545795 0.25007480 5.98300362
-10.20283031 0.73260570 5.45538378
-10.85405350 -1.03671563 5.99168444
-10.72880459 -0.20897648 6.66051960
-10.31748581 -0.60955614 5.25339270
-11.38492203 -0.28393883 5.36663389
-10.29947758 -0.18022163 6.34906721
-9.95010662 -0.73413223 5.08511972
-11.19502068 -0.03359361 5.43673086
-10.85347748 -0.19674225 6.80612946
-10.88907909 -0.08372629 6.93446684
-10.15632725 0.54770225 6.31920242
-10.21706581 -0.31862524 5.51681805
-10.39852142 -0.45740837 5.28419304
-11.56829929 0.90281361 5.04456091
-10.40809822 0.61409032 5.32169628
-9.88068676 -0.91224122 6.90838909
-10.52658939 0.59556025 5.67117882
-10.89797401 -0.65247524 6.20411110
-11.02083778 -0.32024160 6.50692844
-10.05644703 -0.84598184 5.12661648
-10.43897724 -0.61347389 6.27378845
-11.39011192 -0.30846667 5.54438639
-10.88229275 0.70776165 6.11313534
-10.88367367 -0.12606488 6.78131247
-11.27172089 -0.36770830 5.26358652
-10.58308697 0.37362623 6.49747467
-9.90653038 0.03433558 6.09983635
-10.49129772 0.59932607 6.42155695
-11.53249168 0.55345225 6.51070976
-11.01577377 0.63021141 5.73816204
-10.12207031 0.54237509 6.38503218
-11.61050606 0.87187219 5.22123194
-10.18575382 0.75516617 5.29462433
-10.69883060 0.74216312 5.74295664
-10.28696823 0.29239008 5.41045856
-10.47344017 -0.61080194 5.63958597
-10.99481297 0.79657209 5.93024397
-11.08315086 -0.59338528 6.47809839
-10.08386803 0.85781944 5.18660402
-10.81725311 -0.09098434 4.94996691
-10.87706947 0.05804801 4.92058945
-11.30349159 -0.70491683 5.36825180
-10.00123215 -0.84708309 5.03923416
-10.15711880 -0.49914590 6.31654453
-11.43016911 0.64716429 5.53213263
-10.71611881 0.42190689 5.45318651
-10.30507660 0.67222953 6.66743898
-10.26872730 0.52513701 6.21133041
-11.37697601 0.21036857 5.57830048
-11.35212326 0.55243301 5.62561417
-11.61970901 0.14420484 6.00907421
-10.91356468 -0.61445010 6.22126722
-10.60285759 -0.03577719 6.73996353
-10.85636425 1.10940313 5.95111513
-10.83297539 0.41877472 6.38934422
-10.86283684 0.18104814 5.14703751
-11.42944050 -0.54788083 5.18712282
-9.93895531 0.77827823 6.69731140
-10.64567852 -0.26047546 6.51242590
-11.30402088 0.37238428 5.32493973
-10.31163883 -0.62200254 5.55442333
-10.39776897 -0.45994544 5.93564653
-11.68999386 0.88486981 6.92207813
-9.92755985 0.76634771 5.08538103
-9.98342514 -0.16834585 5.84501505
-11.00625420 0.32653245 5.36327219
-9.94276619 -0.89483815 5.00661278
-11.38221264 0.29865143 5.53464937
-10.16171837 -0.48919505 6.35702991
-10.91216469 -0.80406213 6.04132843
-10.51305676 -0.09574095 6.49568987
-10.39416695 0.49994558 5.98559761
-10.20588303 0.46383974 6.58974075
-11.43741989 -0.68203443 5.42911673
-11.46412945 0.77373415 5.10492134
-10.19688225 0.23731770 6.11716366
-10.24393082 -0.36219347 5.66261864
-10.28334808 0.25910768 5.39630985
-11.41842175 0.47545058 5.57443428
-10.28548336 -0.43228897 5.74638176
-10.40919685 0.40637279 5.32776451
-10.13949490 -0.70936424 6.45507717
-10.94404984 -0.26252514 6.58051634
-10.95145035 0.73637110 5.75666809
-11.00735378 0.39284575 5.41828442
-10.74861526 -0.07596091 7.01216364
-10.33417511 0.49706227 6.09138441
-10.30134392 0.23732099 6.44896173
-10.20348454 0.27991417 6.38801241
-11.24082661 -0.04157656 6.39255476
-10.64903450 -0.56714070 6.27797270
-10.80991459 1.07908404 5.84385443
-10.95539093 0.88876510 5.90347958
-10.00113010 0.72676069 5.28295040
-11.19814301 -0.61419892 5.30081797
-10.14914989 0.76940167 5.17583656
-11.49093819 -0.71327192 5.13544512
-10.01634407 0.65302229 6.74579048
-10.90227604 -0.49951750 5.50774479
-10.23887825 0.45337439 6.23494673
-10.43733120 -0.06887648 6.43765545
-11.00504112 0.19947943 5.27176619
-10.03448677 -0.80233663 6.82563829
-10.08643150 -0.88505799 5.14629650
-11.21501160 -0.62222916 5.36061668
-11.38183117 -0.35996643 6.34957361
-11.68156433 0.98587430 5.05149937
-10.92511082 -0.46027416 6.41750336
-10.87828159 0.86732852 6.07467270
-10.64517593 0.58470303 5.66150713
-11.05736160 -0.60546070 6.08232260
-11.50432014 -0.77007174 5.35254478
-11.30033207 -0.66349643 5.45410824
-10.60667229 0.79331958 5.88486147
-11.49127865 -0.75199282 5.33130932
-10.41869736 0.60325682 6.24622202
-9.95067692 -0.11401139 6.05558300
-11.02571487 -0.36620077 6.52628708
-10.60345364 -0.84443939 5.97222328
-11.10961056 0.60278887 6.23335552
-10.19341660 0.40258893 5.56135607
-10.10745430 0.54387671 6.62710571
-10.27266884 -0.18388869 5.54469776
-11.47230148 -0.70180893 5.36575603
-10.23896122 -0.72540104 5.34425163
-10.06173420 -0.14186087 5.72357559
-11.35642624 -0.30180132 6.50589371
-10.31419086 0.62994784 6.61472988
-10.78587246 0.98756373 5.80788898
-10.78399277 0.11192519 4.88304281
-11.36666107 -0.33604124 5.55234146
-10.23672962 0.70624173 5.37351608
-11.32224846 -0.44936699 5.29220772
-11.47011471 -0.78687847 6.61351013
-10.57671356 -0.72681898 6.01893330
-11.34144211 -0.33499378 6.51350498
-10.20098972 0.57501662 6.33508635
-11.01617432 0.65800381 6.02590895
-10.13611412 0.50770360 6.38434458
-11.58317661 -0.84188247 6.79794216
-11.29928112 0.65082163 6.34088659
-10.52927113 -0.57468468 5.96781778
-11.56218243 0.23541856 6.00636721
-11.19608212 -0.57071137 5.33514214
-10.97939777 -0.56352174 6.28492498
-11.20683193 0.49567091 5.78160763
-11.55381393 -0.06204893 5.72375059
-9.82707787 -0.95200473 6.89480591
-11.54604530 0.56792915 6.58042574
-10.66313171 0.70033073 5.76309633
-10.36623859 -0.31951156 5.32211065
-11.52303505 0.64951557 5.39758587
-10.32749271 -0.13205394 5.45402670
-9.99496841 -0.83953249 6.85568953
-9.90212440 0.77889860 6.71109962
-10.34121037 -0.44532067 5.92739487
-11.11158371 -0.61622149 6.39168930
-11.58501720 0.13658470 5.77558756
-11.12957573 0.11992580 6.49215078
-11.38611221 -0.49301365 5.24787664
-11.17317581 0.52333772 6.56333828
-11.61718369 0.17759134 5.88356113
-10.92910290 -0.94357091 5.87747097
-11.36477089 0.19021286 5.47991514
-10.89655209 -0.64861917 6.15101528
-11.34548092 0.35585755 5.87277365
-10.31191826 -0.55265307 6.19820881
-10.12812519 -0.18289965 5.78071594
-11.25378418 0.50119966 5.28616571
-11.42123795 0.02440333 6.22707224
-10.87973785 0.71181381 6.15284491
-9.77590370 -0.88297087 4.99478960
-11.42846298 -0.38035285 6.44821548
-11.63063908 0.75982761 6.78899527
-10.93322945 0.35970858 5.40206575
-11.30136108 -0.68505192 6.47348118
-11.21500206 -0.51172364 5.78423738
-10.60759640 -0.22188991 5.32941723
-10.22294521 0.51441580 6.19301033
-10.19761753 0.47443056 5.60702944
-10.71699047 -0.67990834 5.72315598
-11.31181049 -0.73139602 5.35378790
-11.26700687 0.36711225 5.29735661
-9.92243767 -0.76302326 6.67283344
-11.41639423 -0.75222903 5.33334208
-11.35714531 -0.36374030 5.71393299
-10.05716324 0.56792241 6.58536911
-11.10517502 0.57544756 5.80624104
-11.53893852 -0.61945462 6.58123541
-11.15572739 -0.54650581 6.05869532
-10.93174076 -0.15972507 5.18228865
-11.60025597 -0.14649601 6.07727480
-11.64462471 0.98994017 5.02755594
-10.25616550 0.36256689 6.14736891
-11.31369781 0.47429141 5.71449947
-10.18121052 0.59917176 6.34658766
-10.26421070 -0.39774731 6.56031179
-10.44248676 -0.55665225 6.17853069
-9.91672802 -0.18182679 5.91620684
-10.75898647 -0.59812331 6.23469734
-11.52085495 0.70436817 6.44605064
-11.43188953 0.20252518 5.71340322
-10.79891491 0.29940602 5.36338186
-10.67489910 0.01601716 4.96494102
-11.07402802 0.36409378 5.34587669
-9.80328369 0.06047640 5.84616041
-10.59414101 0.54508996 5.55643892
-11.41091442 -0.18395403 5.69856453
-10.77685070 -0.54618317 6.28067541
-11.15172005 -0.59351546 6.37928867
-11.05413532 0.63146436 6.07894278
-11.31014919 0.13312224 6.32823706
-11.38732815 0.26009655 5.99034548
-10.10409260 -0.59899461 5.45331049
-10.30187798 0.68634814 6.56732750
-10.19952393 0.20919007 5.69266748
-11.61813545 -0.14398220 6.06707859
-11.24764919 -0.02645133 6.39623785
-10.65297031 -0.18860403 6.71465302
-11.38937664 0.10561930 6.19534063
-11.10427094 -0.05683095 6.53442907
-11.48470879 -0.53340399 5.46082449
-10.13506794 -0.21675716 6.04319763
-9.99330044 -0.02842928 6.12750149
-10.61299133 -0.08748445 6.66351700
-10.84617805 -0.30039519 5.35624504
-10.41547775 0.25677434 5.35523129
-11.04671288 -0.71546835 5.93934679
-11.26007557 -0.51405066 5.26183367
-11.21827507 -0.62195647 5.50350666
-10.71732235 -0.15652010 6.82262564
-10.71218204 -0.11705058 6.90229607
-11.02693176 0.18885188 5.23834896
-9.95132160 0.90614909 6.76136494
-10.19131374 -0.21643539 6.12615204
-11.69898510 0.93637812 5.07229710
-11.40705109 0.47499934 5.64382029
-10.05952072 0.49652514 5.31739330
-10.23873997 -0.23033287 5.63731146
-11.52183628 -0.80460286 5.29826546
-11.42666912 0.34856495 6.38013601
-10.71300983 0.81672734 5.73369884
-10.77148056 0.81992960 5.74752760
-10.28619671 -0.67951298 5.32786751
-11.00561619 -0.23681772 6.59054756
-10.26180363 0.45342121 6.18405008
-10.98169041 -0.44082782 5.42063475
-11.73528862 0.20290697 5.92855692
-11.61507511 -0.65502477 6.75224781
-10.30603886 0.15440211 6.33751011
-10.52089500 0.42761499 6.50665617
-11.54455471 0.18811779 6.00014925
-11.02131176 -0.54903948 5.47625780
-9.87984371 0.88358206 5.12896490
-10.65567589 -0.35455745 6.45033789
-11.25860119 -0.66100693 6.48131561
-11.32865238 0.60615015 6.65559149
-10.42226219 0.60137171 5.63813686
-10.90114498 -0.58716512 5.60519314
-10.55598545 0.17685917 5.35215139
-10.87850857 0.14948188 6.74194717
-11.52720451 -0.85699135 5.05448389
-11.32868862 -0.68397760 6.41020298
-10.19641590 -0.40365547 5.66492605
-11.10359383 0.56302673 5.61613750
-10.02102280 -0.65518785 5.29010487
-10.38064861 -0.60623544 5.61802816
-9.89361191 -0.10268134 6.08238745
-11.53337288 -0.79003656 5.06073284
-10.15307713 -0.65345347 6.75470543
-9.88756084 0.13715291 6.01785278
-9.97218037 0.61959040 5.27025175
-11.00306225 0.60955495 5.75195599
-11.15977001 0.57892513 6.19259453
-10.04919529 0.85158920 6.81485462
-11.17302895 -0.48806658 5.30134916
-9.86379433 -0.94338459 6.82820654
-10.11658478 0.47181201 6.55530739
-11.25325680 -0.65121818 5.45523500
-10.12179375 -0.22003761 5.82280064
-11.22795486 -0.18902506 6.45697880
-10.30164719 -0.62309039 5.46081448
-10.79944801 0.79919082 6.12632370
-10.61561680 -0.06138758 6.80279303
-10.05712128 -0.64623177 6.51905394
-10.43223381 -0.10687432 5.40648842
-10.46056271 0.53965473 5.35510540
-10.86731052 -0.01545920 6.98890209
-10.55125809 0.59696305 5.75741673
-11.38425159 0.20212044 6.18533278
-10.86934948 -0.56216431 6.27817059
-11.17483807 -0.61516386 5.48797750
-11.11675262 -0.52849990 6.52531385
-11.19682312 -0.33362943 6.53666449
-11.21261406 -0.68899298 5.38075495
-10.71010494 0.56251836 6.23565054
-10.00081158 0.67491275 6.60241985
-10.64005375 0.36198777 6.48162651
-10.35106945 -0.58342105 5.50859308
-10.45751572 0.26161721 6.51971006
-10.42058659 -0.54321420 6.54998302
-10.64484787 0.33870140 6.45926762
-11.35834980 0.29480714 5.91779995
-10.13857841 0.48171738 5.28333378
-11.19752216 0.42572016 6.55211639
-11.56702614 0.83794826 6.61228848
-11.54337788 -0.55547315 6.57790518
-11.17122555 -0.57523555 5.31407213
-9.96414471 -0.18831129 6.03236628
-10.91068935 0.74659908 5.75741434
-10.54530716 0.08035251 5.35350418
-10.44772339 -0.15891354 6.48214197
-11.09885883 0.32338503 6.48971653
-10.25808144 0.25438616 6.33242130
-10.07186699 0.20554461 5.78496027
-11.46348190 -0.14007066 6.15971327
-11.67063332 0.91586632 6.84003353
-10.71531582 -0.89166647 6.06707621
-10.60948467 -0.55793005 6.27782822
-10.45297146 0.58637065 6.47390556
-11.18381596 0.23291904 6.52787352
-10.18919849 -0.25867394 6.07703018
-9.89624119 0.02176417 6.11905813
-10.07308197 0.58316863 6.42976522
-11.24094200 -0.59310097 5.58333540
-10.28944492 -0.14928685 5.51336288
-10.03123283 -0.85704297 5.03760862
-11.00562000 -0.37573582 6.47642803
-10.02035141 0.80379701 6.81688118
-11.40355587 -0.04710374 6.22114658
-11.02019501 0.62449014 6.06065941
-10.96959305 0.76938117 5.88445902
-10.70543480 0.86651343 5.78599262
-11.20562840 -0.60332525 5.34899426
-10.59107018 -0.40571263 6.48216248
-11.50988865 0.72821939 5.36796522
-11.32240772 0.42503905 6.13753366
-9.74259377 -0.09746178 5.89306498
-11.51792240 -0.62863088 5.14041471
-10.79271126 0.00732916 4.74956131
-10.21073818 0.37814313 5.32943535
-11.35645008 -0.32956895 6.52123976
-10.89478207 -1.06667674 5.98953485
-11.34439278 0.36949009 5.75698376
-11.22453785 -0.01962461 6.42870665
-11.36710548 0.34123629 6.46329308
-10.42696667 -0.61740041 5.60961914
-11.20823383 0.58668596 5.30592108
-10.61206722 0.62237555 5.73358345
-11.33589840 0.14724757 6.25085878
-10.65755463 0.52409321 6.37568474
-11.46425343 0.06219365 5.70241785
-10.17226791 0.34187376 5.39724302
-10.03485584 0.10137317 5.75284004
-11.61055183 0.89094883 5.01602173
-10.90451241 0.17050014 5.19604492
-11.68663406 -0.96432579 5.04436731
-10.02700329 -0.87904358 5.06580114
-10.53492928 -0.56442952 6.43043900
-10.39252949 -0.15872155 5.40782118
-10.86184502 -0.09955827 6.92088795
-11.08179092 0.12005124 5.34989023
-10.44596004 -0.49460167 6.55046320
-10.72252655 0.11086161 4.90976572
-11.26260948 0.58684331 6.17370844
-11.70528507 0.88851678 5.13507557
-10.73700047 -0.09486336 7.01461172
-10.61281395 0.05323672 5.11419296
-10.05531597 -0.70789534 5.07537746
-10.01373482 0.17913555 6.06222248
-11.06959438 -0.49121079 6.49314022
-11.11258221 -0.55205566 5.54872465
-11.38188553 -0.35341644 6.55261135
-10.31842899 0.07271192 5.48090935
-11.48031521 -0.22459871 5.91164255
-10.93207741 -0.03683409 6.83294630
-10.22132301 -0.29516762 6.28363657
-10.34976768 -0.62496549 6.34044743
-10.70561981 -0.03185292 6.88373280
-10.86951447 -0.37799832 6.41843224
-11.25440311 0.50836712 6.15528822
-10.36738300 0.65365446 6.57497311
-10.41528320 0.07957774 5.44575500
-10.70679092 0.75368834 5.73638201
-11.66931629 -0.87575525 4.97798920
-11.02462769 0.47824362 5.41626549
-10.18430710 -0.74878359 6.67559767
-10.73415565 -0.75096339 5.74638891
-11.29620838 -0.61459368 5.55319977
-10.14818192 0.75416982 5.34662676
-9.82045364 -0.89509088 6.88247108
-11.58609104 0.20786504 6.01130152
-11.32896423 0.44786984 5.75717688
-10.20705700 0.28200281 5.59544516
-10.05740356 0.60400033 6.69355106
-11.54948521 0.14278840 5.79800510
-11.16539478 -0.21469940 6.47093916
-11.59227848 0.02813615 6.11094522
-9.93972874 -0.80613059 6.84061575
-10.11757278 -0.71032345 5.36805487
-10.98719597 -0.37044817 6.46085453
-11.67800903 0.10941833 6.02887487
-11.32190609 -0.55440629 6.62307119
-11.41371918 0.08855327 6.17618322
-11.51701736 -0.51923501 5.38727188
-10.87489223 -0.09500065 6.93385983
-10.89604855 -0.44391412 5.46447754
-11.39972019 0.38160843 6.52613258
-11.21507454 0.64181256 5.44733763
-10.16136742 0.34461811 6.32616711
-11.38662052 -0.43955439 6.19453382
-10.20832825 -0.31572312 6.29412413
-10.70452023 0.34173352 5.40826464
-11.44891357 -0.80905300 5.24499750
-11.86568737 0.05487845 5.94989252
-9.86041451 -0.08655236 6.02137852
-11.02044106 -0.51599455 6.45130920
-11.23650742 0.58216769 5.61011028
-10.59932327 0.04265677 5.11089277
-10.81382847 0.35153893 6.49999237
-11.00921154 -0.56357235 5.57079029
-11.32565403 -0.06526601 6.30150461
-10.21856785 -0.50747722 6.64492416
-11.29987812 -0.17006172 5.52657318
-11.31086063 -0.40338168 5.88669825
-10.70325947 -0.21846205 5.24461555
-10.69018841 -0.26088861 5.33689499
-10.65550423 0.68648040 5.75192595
-11.73559093 -0.84938490 6.80031157
-10.00220585 -0.09814442 6.08076954
-11.61628532 0.79004669 5.24998474
-11.73572159 -0.83713156 6.84298563
-11.22678757 -0.64977252 5.33680248
-10.89750385 0.06049864 4.96504784
-10.76858425 -1.10646653 5.89437723
-10.57776737 -0.22891964 6.54724836
-11.50359917 0.61434054 6.72017956
-11.24575901 -0.52611816 5.77357864
-10.36851788 0.12985404 5.44058752
-10.76282501 -0.68855685 6.16321564
-10.54948902 0.59417570 6.28573036
-11.26494217 -0.66097826 6.47969770
-11.36375523 0.30258098 5.93509293
-10.46338177 -0.50644428 6.52592134
-9.84574795 0.95495725 6.93216705
-10.39530849 -0.47797582 5.34536600
-10.90152359 -0.84347457 5.80847645
-11.70063305 -0.93475753 5.09882832
-10.97860813 -0.47111222 5.43903112
-10.95266819 0.58750319 5.63757849
-11.44865036 -0.49332550 6.62442636
-10.30023956 -0.47814968 6.11962128
-11.57585430 -0.88154268 6.66922855
-10.24630260 0.21126980 6.37335730
-11.31309128 -0.15826409 5.50549555
-11.30553627 0.68427640 5.29954815
-11.00140095 0.61322230 5.71751499
-11.05626678 0.58090806 6.25732040
-11.00056362 -0.56173354 5.65926504
-10.14942741 0.42505130 6.54293823
-9.99678135 -0.18291040 5.94748545
-10.78063107 0.60972130 5.64657688
-11.01766205 0.58951020 6.27804899
-11.64455128 -0.87176496 5.16920900
-10.49249363 0.04555360 5.37023258
-11.37375355 -0.29860550 5.73696947
-10.61590767 0.55817395 6.27697706
-10.45288181 0.51755071 5.34653378
-11.40189743 0.61254662 6.70325613
-10.05889988 -0.85071361 6.69542599
-10.25136280 -0.28282234 6.42990780
-11.34853840 -0.58944184 5.21039486
-10.41140652 -0.59182674 5.65676117
-10.06268406 0.56531435 6.62252426
-11.45983505 -0.63998479 5.16190577
-9.98035049 0.65889215 5.12751770
-11.46953583 -0.74297845 5.41025257
-10.65438652 -0.85408163 5.97621870
-10.43185902 -0.55127025 6.25401068
-11.26456165 0.27114707 6.47807884
-11.34701824 -0.40552533 6.13430023
-10.26572037 -0.52344662 5.71412611
-10.75400829 0.13025452 5.02766514
-11.73851395 0.02340531 5.79462099
-9.73435497 -0.02395547 6.02622700
-10.01837826 0.68439180 5.11847782
-10.79716492 1.07751405 5.97777271
-11.44365025 -0.48807833 6.61599445
-11.24978828 -0.52336854 6.59478283
-11.38320637 0.58112895 6.31311750
-10.08271790 0.01985465 6.17613792
-10.83905220 1.06845093 6.01841497
-10.50332546 0.41560659 5.34177399
-11.54011631 -0.87951207 5.13333082
-9.80701351 -1.00243521 6.92832375
-10.72410965 0.81702548 6.09065199
-9.94100571 0.85566115 6.85919189
-11.63591862 -0.70963901 5.22272682
-11.62113953 0.73395431 6.63163471
-10.31606865 0.67719787 6.48421192
-11.56605434 -0.56516892 5.29767132
-11.65791702 -0.72800869 5.08952570
-10.97224998 -0.70106125 5.74717617
-11.53914642 -0.15463397 5.77822018
-11.39468956 0.32025611 5.97130680
-10.61036968 0.39101091 5.39715242
-10.64576244 0.07205736 5.05910110
-11.43305302 0.68096232 6.38813162
-10.54307175 0.58287185 6.42777634
-11.63684464 -0.70267338 5.13890266
-10.98130798 -0.17180398 6.63282013
-11.37237644 0.69088364 5.17106152
-10.64345741 -0.81790978 5.82764339
-11.43435478 0.52820790 6.66544294
-11.37882328 -0.68163431 5.19972229
-10.27899456 0.64994901 6.33206701
-10.90092850 0.17385687 6.69861984
-11.76344872 -0.11017673 5.98650169
-9.88951874 -0.83597153 6.70948267
-9.75625229 -0.07951876 5.90662432
-11.17959976 0.49204102 5.32677269
-11.70393276 0.09877589 6.05675745
-10.50242805 0.54401940 5.46832561
-10.98436737 -0.18227336 6.66894197
-10.15732002 0.24237640 5.79706907
-11.30179596 -0.42193651 5.30886889
-10.40804100 0.59493911 6.56781244
-9.84381104 0.97319227 6.84933949
-10.10790825 0.72998124 5.35995722
-10.81365776 0.42868224 5.45028782
-11.76823521 -0.92317492 5.03512144
-10.37291718 0.40017673 6.54933596
-10.29393291 -0.25633502 5.44247532
-11.51213455 0.20459507 6.04168558
-9.94242382 0.12751228 5.83739471
-10.27671146 0.13038945 5.57195091
-10.16222668 0.38645962 5.36754131
-11.38667393 -0.20464827 6.21645880
-10.33832073 0.27858824 6.52094555
-10.53851700 -0.54488522 6.45499945
-9.99791527 -0.03855059 5.73325634
-11.43843365 0.21264125 5.75398970
-11.21163082 0.50913137 6.07954168
-10.12139702 0.25931683 5.88304138
-11.18504429 0.64928991 5.47301054
-10.52899837 0.59763902 5.90918303
-10.46407032 0.15681866 6.47073221
-11.75429535 0.91041851 5.09061146
-10.82987213 -0.58370036 6.26472998
-11.89240265 -0.06686741 5.96448517
-11.63944435 -0.69159913 5.23065472
-11.27202320 0.67951936 6.46190548
-10.32281208 -0.42801741 5.29650497
-10.97196770 0.18432666 6.64993954
-10.54374123 0.51159614 5.40092564
-10.37750721 -0.04660943 5.41408014
-11.46132469 -0.48692924 5.45357418
-10.00853920 0.71160966 5.29400158
-11.37532520 0.34540996 6.21213531
-9.98328876 0.03782228 6.10931778
-10.65587330 0.23474434 5.26123142
-10.77240086 0.19039930 5.10368347
-11.72992992 0.95035613 5.06792164
-10.99882030 -0.54407054 6.27182388
-10.79127502 -0.06070204 7.05051708
-10.63318157 0.56734395 5.59862900
-11.50837898 0.23972651 5.87750912
-11.66549397 -0.78403687 5.12223911
-11.24022484 0.46562272 5.28542900
-11.12118053 -0.47450441 5.35628557
-10.71942043 -0.88803250 6.07533836
-11.49918175 0.80493772 5.30927181
-11.54627800 0.53029925 5.30003691
-10.35848427 -0.32034060 6.52946091
-10.98367882 -0.69322205 6.06674862
-11.75776482 -0.95711797 4.99064064
-10.11285496 -0.73277581 5.38159990
-10.50250244 0.12562715 5.33154058
-11.35379314 0.11805041 5.62312746
-11.35286999 0.41945618 6.16571045
-11.33432198 -0.60435337 5.56949997
-10.27901077 0.12275753 6.31091309
-10.00474262 -0.89997101 5.10607815
-10.64468288 -0.94972038 5.91673088
-11.23173428 -0.61296117 5.26137304
-11.27653503 0.46084532 5.95742941
-10.89822578 -0.00356792 6.89161062
-10.45038223 0.61662644 6.43057442
-10.84474087 0.14392810 5.05280828
-10.69958305 -0.12188040 5.05502415
-10.27717590 -0.36202142 6.06173038
-10.33710957 -0.30501696 5.32516861
-11.75926781 -0.88679785 6.78110552
-10.32521152 0.21542305 6.49234629
-10.68883133 -0.15416692 6.71974373
-9.87488651 0.08978781 5.83781624
-11.70825672 0.84132463 5.14727545
-11.50317097 -0.52996069 5.28110361
-10.61037064 0.56866664 6.39886093
-11.36168575 -0.17766643 5.62005615
-11.05980110 -0.45305464 6.53446627
-10.27657890 -0.70405674 6.43808746
-10.23020172 -0.30001435 5.90413094
-11.57859898 0.68572658 5.13715076
-10.98110008 -0.03004573 6.72479248
-10.24200344 -0.23359400 6.23880148
-11.48052883 0.71112573 5.40982294
-10.40230751 -0.63029486 6.37508821
-10.14435577 -0.46301189 5.27848196
-11.57228851 -0.67480397 5.31210709
-10.91979980 0.13000345 6.73936558
-10.59584045 -0.01960354 5.11918497
-11.03997326 0.58225846 6.19945097
-10.06322002 0.53717196 5.33554363
-10.24700546 -0.72163153 5.32551765
-10.07179832 0.21379687 5.93062592
-10.42181969 -0.36957759 6.57960033
-10.50178337 -0.56314415 6.13377333
-11.40349770 -0.45407099 5.40037155
-11.10781670 -0.56776732 6.46973658
-11.31771660 -0.54885596 5.63404703
-10.69962692 -0.91197902 5.86671257
-10.16696262 0.38458338 5.47511005
-11.26960945 0.71298045 5.33911371
-10.54537678 -0.58737171 5.57654285
-10.21742725 0.64522928 5.53010893
-10.67634869 0.11066388 5.10383034
-10.45308685 -0.33555976 5.35798264
-10.70823765 -0.35322812 6.48473167
-11.27940178 0.60007453 6.23710108
-10.36779594 -0.59958833 6.55215788
-10.73574448 -1.05625510 5.85401821
-11.20998001 0.00857603 6.42939806
-10.18921947 -0.76099324 6.70589495
-11.51699734 -0.85559589 5.19898415
-11.30245781 -0.35494542 6.55050278
-10.17727661 -0.64664674 5.47685671
-10.05358315 0.70132798 6.49212933
-10.97089958 -0.52401692 6.32145071
-10.79001522 0.92870349 5.78125668
-10.02701950 -0.10814144 5.74509144
-11.20322514 -0.11984636 6.46579599
-11.42316055 0.27409291 6.01223612
-10.15784740 -0.51044130 6.36489296
-11.15934944 -0.53823227 5.76636219
-11.59878159 -0.76036471 5.05153799
-10.27179623 0.27468035 5.41782665
-10.25143242 -0.50844866 6.17356682
-10.35193825 0.69477999 6.50448132
-10.42117691 0.29844612 6.51187897
-10.01100540 -0.64809096 6.59562922
-10.97272587 -0.53127438 5.50033426
-11.10920429 0.48285577 6.50826216
-11.55621338 0.84289753 6.67395401
-11.06448364 -0.56346166 6.48201561
-11.12280464 -0.08723983 6.50501680
-10.19271946 0.57386321 6.68674850
-10.59286976 -0.55142915 6.24757004
-9.87197018 0.97209412 6.81611443
-11.57320690 -0.74360675 5.08160639
-9.89362621 0.81746459 6.73682117
-10.99263000 -0.55874819 5.61171675
-10.94991302 -0.59761024 6.21185303
-10.66061592 0.42953494 5.40899038
-11.52202129 -0.67684042 5.43256903
-9.88247299 -0.95867485 4.97261095
-11.36331081 0.45553401 6.26947069
-10.53630066 0.60315186 5.55230045
-11.26324940 -0.68353701 6.42182255
-11.60563278 -0.00265088 5.73344898
-11.61884785 -0.94170421 6.86023474
-11.50615311 -0.66357827 5.10860157
-11.30762863 -0.68289644 5.24721336
-10.61814690 0.82279193 5.90348196
-9.98949337 -0.66173446 5.16130447
-10.87840462 0.11144097 4.94620037
-10.37108517 0.64204562 6.55457306
-10.36529160 -0.44991612 6.57401228
-10.79076862 -0.49517453 6.29459572
-10.55957699 -0.27016318 5.35950184
-11.51100349 -0.56666261 5.25206709
-10.19981956 -0.47685781 6.30958128
-11.34428406 0.51657248 5.66973209
-10.06410789 0.80207241 6.57465744
-11.37321377 0.34170207 5.57294464
-11.16865158 -0.49903283 5.31087923
-10.23900795 0.35132381 6.05245972
-10.99697971 -0.11936358 6.61701250
-11.32301235 -0.10897250 5.60109234
-10.54919147 -0.67724180 5.88517284
-11.63051796 0.77664596 5.01964664
-10.72846985 -0.19853288 6.77996683
-9.97431278 0.16814928 5.98546743
-11.51592064 -0.81882614 6.60619450
-10.27597046 0.33234411 5.92815685
-10.70965290 -0.65502131 6.18584204
-9.94450951 0.07120091 5.76676464
-10.77178860 -0.43381941 6.44291353
-10.04642296 -0.71340746 6.54957962
-11.36065388 0.50274879 6.62271452
-10.99398422 -0.51540142 6.34748030
-10.18176460 0.73564339 5.33422232
-10.67547131 0.19196299 5.23615026
-10.24593544 0.61014211 6.66140652
-11.62300682 -0.05228895 6.12454510
-10.25310040 -0.42209938 5.27790451
-11.15740585 -0.54645729 6.01242065
-9.95066261 -0.67731321 6.75190544
-10.77195454 -0.69133008 6.15321922
-10.32892799 -0.38893026 6.58414745
-9.81913090 -0.88276470 6.82832670
-11.69550037 0.13441737 5.91650009
-11.03373146 0.51018053 5.47822571
-10.03792477 0.64108342 5.32604647
-11.80243111 0.96700901 6.85503626
-10.14368629 0.21353441 6.03009033
-11.52599525 0.70363981 5.36044025
-10.30765533 -0.64586306 6.61717987
-9.88564014 -0.10331041 6.05026197
-10.13667297 0.42198393 6.45789051
-11.49667835 0.72367024 6.78525782
-11.66947556 0.87246758 5.03199673
-9.87360954 -0.11344959 6.02063227
-11.16274834 -0.59243226 6.46528339
-10.74134064 0.98280001 5.80505037
-10.71573448 0.36162323 5.44214487
-10.00999451 0.65129566 5.25130177
-11.63068008 0.15834258 6.00291634
-10.26056290 -0.17245321 6.31604910
-11.34511280 0.41333055 5.71265745
-10.93067741 0.01313110 6.89086628
-10.21467018 -0.06665325 5.59146261
-11.23267746 -0.01473451 6.42936039
-11.59299946 -0.89237702 5.17876244
-10.37239456 -0.49627090 6.02158737
-11.12741089 -0.31854045 5.34726191
-11.57567692 -0.89479560 5.18722010
-11.30375004 -0.68525779 6.39294147
-10.21606350 0.35423496 6.48767853
-10.52504826 -0.59900862 6.01346922
-9.88755035 -0.80512941 5.01283646
-10.43205643 0.51304579 6.07729578
-10.19657516 0.53978580 6.28690147
-10.29114628 -0.41592231 5.83946276
-11.33131981 -0.40249881 5.27740812
-10.75720787 -0.28457940 5.28073978
-10.26436043 0.16256866 5.50183296
-10.74788666 -0.46762398 6.39810276
-11.37834358 -0.73572958 5.22546005
-10.51247692 0.11494542 5.25531149
-10.19933605 0.83214831 6.67550468
-10.63310051 0.10435224 5.08361053
-10.17542458 -0.24856642 5.84681988
-10.78005981 -1.08456182 5.85969543
-10.85158825 0.88387829 6.07291651
-9.91217422 0.95367450 6.84796381
-10.24482536 -0.16121162 6.27045298
-10.13306999 -0.08603700 5.66792202
-11.00838757 0.05397984 6.69276142
-11.37564945 -0.28311479 5.49301529
-11.20384789 -0.64535600 6.43441963
-11.13273048 -0.00494827 6.46144533
-11.16510391 -0.38880590 5.34909964
-10.36666298 -0.66144365 5.42801619
-10.33445740 0.14015514 6.40295362
-11.62023735 -0.78060418 5.23893833
-11.86416721 0.09722824 5.89634562
-10.42905998 0.54575104 6.54481936
-10.55882549 -0.55629373 6.40168190
-10.39075279 0.57050514 6.21358871
-11.70403957 0.75462937 6.79112864
-11.36463356 -0.75283027 6.65335989
-10.51571560 -0.56486422 5.58988905
-10.81447887 0.58621544 5.69108963
-10.75257397 -0.23786147 5.19147396
-10.97739792 -0.41276303 6.49798107
-11.43808270 -0.43144640 5.50107861
-10.41665459 -0.20957039 5.36431122
-11.37668419 -0.27780801 6.28275251
-11.31661510 0.35648498 6.51390457
-10.72571754 -0.15283155 6.72947454
-10.92831230 -0.89957452 6.04878616
-10.37156773 0.33939123 5.33147430
-11.07890129 0.11044209 6.56452608
-11.02668571 -0.52621049 6.35840130
-10.34215450 0.11823189 6.42128992
-11.32551956 -0.65871757 5.46986485
-10.90518951 0.30519444 5.38173676
-10.73940182 -0.33313417 6.44388962
-10.83280468 0.42073935 5.44539118
-11.07395935 -0.53910846 5.89401722
-10.47252369 -0.56725973 5.80871201
-11.85823822 -0.06018825 5.97124386
-9.97497368 0.68861806 6.67325401
-10.54692078 0.55957949 5.45946836
-11.38856316 -0.52744049 6.26033497
-11.43286324 0.75300729 6.50451756
-10.97400284 -0.91493183 6.01697731
-9.96856213 -0.80722666 6.65362406
-11.70696449 -1.01571620 4.95456028
-10.57362175 -0.16768725 5.32701206
-11.33441544 -0.54037744 6.62540722
-11.13484859 -0.58600509 6.28628349
-11.23232269 -0.56802714 5.65630341
-10.69624043 -0.02912649 6.99313927
-11.10187721 0.55611074 5.39577150
-11.43250275 0.57043612 5.53385305
-10.29455662 -0.44338661 6.58180428
-11.74869537 -0.91757035 6.84743595
-11.46003628 -0.73097301 5.13336515
-10.29251575 -0.58449173 5.61907053
-11.44618225 0.11843253 5.70739794
-10.38893890 0.56469429 5.71232033
-10.08989811 -0.64874631 6.43270969
-11.29970837 0.42055723 5.94504499
-10.97175407 -0.35372928 5.39042282
-10.27994061 0.53535306 6.61475468
-10.93324566 0.19437015 6.61288357
-11.69246864 -0.07750227 6.08141851
-10.65538025 -0.30430993 6.53650951
-10.50177479 0.08185997 5.33899689
-11.35002041 -0.44975218 5.77743340
-10.65109348 -0.18952385 5.26945686
-10.93979740 0.72846991 6.10268879
-11.02467918 0.71544021 5.88700581
-9.85712624 -0.94672316 5.10428143
-10.55920696 0.60780537 6.34865808
-10.77666950 0.36199266 6.47487831
-11.15905190 -0.60070449 5.46090555
-11.32055569 -0.62508607 5.26227760
-10.11175251 -0.52502131 5.47944880
-11.33945751 -0.36458328 5.33747959
-10.21743202 -0.54750812 5.14404964
-11.37092209 0.33731937 6.22148848
-9.86330128 0.87863201 6.86918020
-10.50402355 0.58211458 6.36870193
-11.42781925 -0.52042305 5.21120167
-10.70305061 -0.05936234 6.93121004
-10.21313000 -0.29965231 6.09691334
-11.07775307 0.59306240 5.85238838
-10.60727596 0.35271958 5.38369465
-10.77300358 0.28518865 6.56340075
-9.93447399 -0.16920811 5.99128819
-11.51555443 0.19134288 6.03004932
-10.15804768 0.51376820 5.55077505
-10.32974339 -0.61988741 6.61834860
-11.26206398 0.50540322 5.80422544
-10.80687904 0.39727163 5.43624830
-9.82451439 0.93679035 6.94328737
-11.51008797 0.71100211 5.09726429
-10.69413280 -0.60291582 5.66772938
-10.72325706 -0.49808732 6.39487076
-11.53848457 -0.54648310 5.31401300
-11.47283649 0.24653919 6.03510714
-11.36848068 0.74014026 5.20205545
-11.71617413 -0.81811279 6.82606220
-10.74280167 0.75539321 5.77010155
-10.19071770 -0.46772647 5.29133606
-11.36340714 0.53466076 5.60217810
-10.77699280 0.00343506 7.06133986
-11.11530209 -0.58794975 5.56030750
-10.27344990 -0.69419521 6.45621347
-9.93233871 -0.79116476 5.09345388
-10.10722351 0.50659364 6.58030415
-11.29599667 -0.15097326 5.49271488
-10.31659222 -0.70392781 6.48892927
-10.22914028 -0.33622164 6.16364861
-10.57186222 -0.69759005 5.85609245
-11.36525536 0.69424921 5.18724537
-11.17171001 -0.37658978 5.35847092
-10.57460976 -0.01679992 6.73857594
-10.70676327 -0.05291409 4.89970160
-10.76949787 0.19783351 6.70016289
-11.44364262 -0.64252853 5.48766279
-11.29423618 0.63248539 6.30629158
-11.55132771 0.76265347 6.57103729
-11.30255699 -0.61816418 5.59011793
-11.34585381 0.48466086 5.67699909
-11.55653858 -0.72497874 6.53399801
-11.25623703 -0.45185164 6.00767946
-9.92780972 0.84466285 6.66388750
-11.42820072 0.17460135 5.73320866
-11.31391048 -0.70614916 6.38329840
-11.03540802 -0.65566415 5.87728882
-11.45371056 -0.43509009 6.49352360
-10.15531921 -0.38399655 5.38433456
-11.52795792 0.79051679 5.09967756
-11.15663052 0.61340338 6.37052822
-11.39591122 0.34922442 5.48297119
-10.12737942 -0.39917403 5.40415621
-10.25496387 0.54177791 6.22142410
-10.33745003 -0.49412969 6.61938190
-10.29569054 -0.32651678 6.55229759
-10.65981102 -0.14021698 6.68759918
-10.16755962 -0.41830724 6.37557316
-11.35133743 0.12742260 5.65231180
-11.52738953 -0.87074822 5.14256144
-10.50836754 -0.55974579 6.29739428
-10.44156075 0.18165235 5.41038942
-11.57649708 0.63935226 5.30114079
-10.74654865 0.87132466 5.78894567
-10.87936687 -0.88692367 5.79677296
-9.86843681 -0.83112901 5.11036396
-10.27931404 0.23907046 5.40166759
-11.43013477 -0.21385238 6.07435417
-10.15967274 0.48257262 6.50662899
-10.52344704 -0.02027499 5.32857752
-11.36409473 -0.24812402 5.53291416
-10.49948883 -0.56972623 5.94778776
-10.87192822 0.31065163 5.32083321
-10.29615688 -0.49076217 5.72585344
-11.10273743 -0.36693537 6.51039696
-10.30693436 -0.66337520 5.23860788
-10.55603123 -0.54645801 6.43134785
-10.21138000 -0.54345387 5.63993788
-9.98565578 -0.16423176 6.05213976
-10.72481632 0.10361474 6.89510632
-11.72271156 0.00795211 6.09089994
-10.87700653 0.83529973 5.79316711
-10.36023521 0.04120772 5.47001982
-10.22959518 0.65621561 6.35030317
-9.87403297 -0.92644221 6.79573965
-10.53295422 0.25018492 5.33442736
-11.32752132 0.51693374 5.70267630
-9.81886196 -0.96313304 4.99996853
-11.36485100 -0.29329211 6.30975485
-11.04292583 0.22904475 6.52604818
-10.76917839 -0.11917279 6.93130159
-10.21713543 -0.29292122 5.81313133
-11.39647865 -0.75259203 5.16266489
-11.35260296 0.35006115 5.77665234
-11.21035957 -0.64169192 6.37731314
-10.37222767 -0.01411147 5.45403767
-11.40866947 -0.44186190 5.24960232
-11.45588493 -0.71864015 6.44755602
-10.24674511 0.43637952 6.17405367
-10.70393562 0.17760703 5.20685959
-10.30700588 0.63985610 5.48455048
-10.30127811 0.19019149 5.46517038
-11.33864594 -0.20964406 5.55487776
-10.07618237 -0.60014713 5.19330549
-10.74116611 0.22039652 5.23331165
-11.10244751 0.36545983 6.50289059
-10.51900959 -0.03668464 5.34470797
-11.08736229 -0.09957740 6.57335234
-11.52240753 -0.69843227 5.39024830
-11.33124161 -0.47701773 5.23563385
-10.27658176 0.36095545 5.97421217
-10.13838100 0.79815614 5.23472500
-10.01311302 0.69292766 6.52796221
-9.90678978 0.95671809 5.01840878
-9.96973228 -0.92773068 6.77999640
-10.15194321 -0.50939316 6.39381599
-10.17122555 0.77732760 6.54273319
-11.16446877 0.51747823 5.90398550
-10.05523205 -0.02191884 5.71192217
-10.70422077 -0.54198998 6.28009415
-11.27743244 0.23499607 6.43641949
-10.99541187 -0.51437944 5.47582483
-11.21879768 0.15956841 6.41188860
-11.19698620 0.47660521 5.27756023
-9.79631138 0.95308882 6.84724045
-10.24042606 0.64823747 6.70143175
-11.05037689 0.63294727 5.81894016
-10.06206131 -0.77655435 5.35328722
-11.49745560 -0.53627181 6.48923254
-11.04100037 -0.56699687 6.35650826
-10.17637062 0.41426522 5.55525923
-10.30121231 -0.16274780 5.47755146
-10.24604607 0.39009765 5.33285093
-10.92498589 0.05221383 5.02365112
-9.89070511 -0.04605857 6.09159374
-10.13420582 -0.74672300 5.29617405
-11.57442856 -0.91026688 5.11380863
-11.08878326 0.38893086 6.51045418
-11.88762951 0.04426542 5.94708300
-11.57328033 0.68581790 6.76984787
-10.99379063 0.07116400 6.85298729
-10.11685276 0.78665173 6.75089073
-11.48332310 -0.48681557 6.53990459
-10.91147518 0.25352898 6.54094267
-11.12297726 -0.06968716 6.45483732
-10.12255859 0.24469832 5.83066368
-10.62893963 -0.07851974 6.67035198
-11.79732990 -1.00989854 4.97387266
-11.37836838 -0.32532051 6.13433695
-10.46723366 -0.14231743 5.37853527
-10.66539001 0.53899163 5.55814791
-10.20558357 -0.27613997 5.69331026
-10.88340092 0.74665260 6.13012743
-11.66431904 0.83284736 5.19316292
-10.37569809 0.56172258 6.25794697
-10.02995491 -0.74770838 6.80829906
-10.59746742 -0.36511692 6.50427246
-10.85689545 0.84626758 5.77072001
-11.62497044 -0.87193662 6.65920830
-11.34535217 -0.74068797 6.67400932
-10.82971478 0.74864155 5.73688507
-11.54227257 0.65483350 5.38034534
-11.14647770 -0.22147864 5.37264490
-10.60827732 0.21670616 5.28310490
-10.78877735 -0.22014177 6.68472958
-10.97854042 0.14600569 5.19713497
-10.22911549 -0.53376514 5.63559103
-10.82013130 -0.24604134 5.24779224
-10.03826332 -0.77177829 5.29785347
-11.09574318 -0.59805441 5.82907343
-9.64366436 -0.01088478 5.91419649
-11.63592911 0.12313688 6.07592249
-10.86298752 0.74788481 6.11643267
-11.25912094 0.30357450 6.51148319
-10.00996590 0.63312370 6.66024590
-11.48779297 0.67652190 5.42514420
-10.40866756 -0.47921720 6.56485462
-11.37682915 -0.31385800 6.22130394
-11.00429726 0.14981547 5.21623898
-10.71737194 0.12917519 5.09905624
-11.11813259 -0.59733677 5.86292791
-11.58342361 -0.63080001 6.72043324
-10.35035801 -0.49017310 5.76666355
-11.64900398 -0.69931000 6.68253326
-10.49073124 0.59871399 5.55267429
-9.82687473 0.88478190 5.01444721
-10.70976162 0.23083328 5.26815796
-11.72540379 -0.00922037 6.09076548
-11.42708969 0.63542980 5.15997744
-11.22859097 0.09730402 6.44198656
-10.73344421 0.47643682 5.54174042
-10.22711086 -0.20726496 6.32762766
-10.84678078 0.69866407 5.67067623
-10.11320782 -0.67738330 5.45132303
-10.42764187 0.23769841 5.38633442
-10.22549820 -0.28559238 5.76172209
-10.80626297 -0.53417844 6.32287645
-10.84297752 0.27257776 6.54036760
-10.68243694 -0.18570986 6.64104128
-11.16277695 0.61330080 5.38034821
-10.28956985 -0.56046540 5.61818981
-11.46443176 -0.64517975 6.71964836
-11.30395889 -0.32913870 5.32454634
-11.39241886 -0.15436919 6.19562578
-10.21094418 -0.27491358 5.74236631
-10.23529434 0.57795542 6.65534830
-10.65289879 -0.06188159 5.05262613
-11.50247574 -0.77201504 5.33186007
-10.25831223 -0.29815620 5.83817911
-11.42271709 0.62217653 5.51848078
-10.39174461 -0.62924808 5.53924417
-11.58867550 0.67117226 5.23250818
-11.73172951 -0.93994731 5.04453468
-11.75878620 -0.85009378 6.87536240
-10.35637856 0.66511554 6.43172312
-11.69875622 -0.97770888 5.05995035
-10.62647629 -0.80409509 6.02705860
-9.99927330 -0.71582019 6.63348913
-11.29196644 -0.00876630 5.51641607
-10.39870453 0.47221786 5.99767780
-10.28716660 -0.61151105 5.20729780
-11.47723484 -0.16117428 6.17466974
-11.47344494 0.77120930 6.51194382
-10.13768101 -0.72639579 5.38737440
-11.30666637 -0.73964041 6.49266434
-11.14562225 0.56535876 6.17511702
-11.61899376 -0.16201018 6.05161667
-11.33778191 0.38280621 6.13783073
-10.82936954 0.06628244 4.85220718
-10.78054905 -0.88476670 6.08012772
-9.86767769 0.82776487 6.84793854
-10.94833946 0.85197783 6.01241970
-10.91110229 0.09742739 5.00596142
-10.92764187 -0.00936755 6.96174049
-10.93234921 0.89678878 6.00209093
-10.11701107 0.51321721 6.51590395
-11.35872650 0.42238170 5.26689100
-9.87103367 0.80424178 6.73744249
-11.39927387 -0.39668426 5.62225533
-11.46812248 0.53131276 5.51154089
-10.85786438 -0.19436938 6.68144417
-9.96800804 -0.16960672 5.86547375
-11.52265072 0.73504871 6.49586535
-10.38236618 -0.56290424 5.65712166
-11.55576706 -0.90926391 5.09259558
-11.34621334 0.29156399 6.08930969
-10.17471790 0.53326970 6.31548357
-10.41265678 0.62929255 6.40398788
-11.74862289 0.04564194 6.08596182
-11.25859070 -0.66688883 6.45526600
-11.32793331 -0.24667847 6.46077061
-10.28271866 -0.41930085 5.77430439
-11.79231834 -0.96506876 4.92398882
-10.07147598 0.54070723 6.47127914
-10.21670437 -0.20560116 5.63096523
-10.28976250 0.17474361 6.39016581
-11.07867718 -0.60309350 6.16237974
-10.22677422 -0.74189383 6.67617893
-9.98707962 -0.86200076 5.21997309
-10.85688591 -0.20675026 6.66241837
-11.18330288 0.54802161 6.16714478
-10.61325264 -0.61792964 6.15015936
-10.27208042 -0.69123089 6.49505711
-11.48659897 -0.23631884 6.06444263
