0.67768306 0.83406723 -0.74636459
0.98183656 1.01064169 -0.75394803
-0.17743574 0.56988138 0.72604215
1.01103127 1.03547978 -0.03458421
0.08422255 1.50864887 0.47020310
-0.96305466 0.91047847 -0.18745129
0.26059499 1.28026891 0.11528883
-0.19879584 -0.23215455 0.75509799
-0.73246938 -0.33799356 0.44104823
0.09908312 0.00984600 -0.51362759
-0.95709032 0.26076415 -0.49173406
0.41523445 1.26516557 -0.59623581
-0.00889554 1.48458910 0.56558049
0.80505168 1.24717259 0.00416514
0.07872585 -0.48238409 0.69451648
0.35513598 1.23965716 0.25416365
-0.06379768 -0.52524483 -0.18550007
-0.65816170 -0.49816221 0.58372134
0.99352229 0.96962965 -0.13678828
-0.74737871 -0.07506740 0.32876080
-0.62505174 1.48166919 0.53257507
-0.80286837 1.24398327 0.10401549
0.21415906 0.23391393 -0.63909996
0.29053435 1.07766712 -0.74310446
0.66505480 1.09849691 -0.76153404
0.23504180 1.25660002 0.17714575
-1.02276051 0.82525826 -0.35768944
1.00774240 1.01797903 -0.50411940
-0.72892773 1.46809924 0.75074142
-0.75448275 1.47764385 0.19949614
-1.01525903 1.04097223 -0.42392635
-0.51893896 -0.21718615 -0.24082907
-0.98636895 0.98090047 -0.68922061
-0.73562491 1.13513994 -0.76911592
0.57580489 0.60168386 -0.77217096
-0.15986302 1.50095320 0.26980796
-0.20330243 -0.14908671 0.75271934
-0.11196443 1.25566578 -0.57965887
0.82533985 0.24527645 -0.19806851
0.37523505 0.00605163 -0.49012259
-0.74692923 0.11927658 0.73154485
-0.28752831 0.69629472 -0.75559908
-0.73678637 0.62528008 -0.75926918
-0.16146572 0.92177391 -0.75107199
0.27082330 1.30122471 0.38543871
-0.21844301 1.50148988 0.37261608
0.23661789 -0.06823224 0.30541804
0.72491211 0.98238921 0.20821962
0.17547055 1.24353313 -0.30870059
0.26802066 -0.01755244 0.03006953
-0.40484774 0.88763165 -0.76896727
0.25714791 -0.10665262 -0.17008869
1.01602745 0.66962236 -0.70871973
0.12007169 0.22595730 -0.49730980
-0.54066747 -0.49150527 0.76031297
-0.99935263 0.76370955 0.22243315
1.01592314 0.78777736 -0.12862979
0.51307774 1.23562384 -0.59883946
0.47882274 0.12645867 -0.10901484
-0.09959536 0.60956085 0.75897455
0.10256188 -0.42487264 0.74856323
-0.72907031 1.09681332 0.76277208
0.49984205 0.21302205 -0.36513191
0.58822060 1.24270296 -0.32311243
-0.74992329 -0.22722161 0.09580719
0.98859268 0.51429558 -0.29131189
0.03915597 1.51710093 0.00247486
-0.97513080 1.14251983 -0.22705497
-0.21521294 -0.48381692 -0.11033618
-0.49301323 -0.50730419 0.23626928
0.30109859 0.80509627 0.48208132
0.38783750 1.25321269 -0.05194600
1.01491725 0.84257281 0.11914048
-0.44734755 1.49408531 0.20913340
0.22578943 0.68693328 0.63689071
-0.22610490 -0.48473853 0.10123429
0.65047854 0.27389789 -0.00535710
0.99178481 0.47038218 -0.61004984
0.35477921 1.23348451 -0.59139997
-0.99614215 0.35412261 -0.55958134
-0.23138103 -0.48774612 0.73662901
-0.81682825 0.25152427 0.03004061
0.13830943 1.50546944 -0.23319991
0.23519254 0.17327330 0.60673606
-0.02705875 0.66170806 0.75178093
0.72139615 1.10948861 -0.75307953
-0.02088666 -0.51007915 0.28053349
-0.69818592 0.12608156 0.73164600
-0.63841730 1.49993062 -0.06151190
-0.74005926 0.47579160 0.70750940
-0.36629686 0.00360632 -0.22601046
-0.74909467 -0.46376801 -0.22358394
-0.67054302 0.63492614 0.74723023
-0.57373196 1.48537493 0.45171243
0.24737005 1.32915759 0.41599178
0.10600588 1.53550506 -0.00774428
-0.12662812 -0.51880980 0.59823591
0.26947051 0.01162082 -0.44105315
-0.66581696 0.52336961 0.74251491
0.26663569 -0.08726317 0.65092099
1.02671850 1.07559729 -0.58127296
-1.01751053 0.92659259 0.14249636
0.26831648 1.42162430 0.07413466
-0.98319024 0.97213078 -0.12827316
0.53247726 1.26565385 -0.22212860
-0.79206276 0.27417952 -0.33369327
0.50421572 0.12593243 0.48416752
-0.02016286 0.51257908 0.77706593
-0.23535556 -0.50925410 0.51892233
0.83504301 0.53632998 -0.73228824
0.85037822 0.24755758 -0.36738816
-0.79124373 1.12752795 0.25150704
0.62987572 0.89622080 0.25933385
-0.51999962 -0.47404873 -0.26110563
-0.99465913 0.80561340 -0.70450556
0.51654339 0.25612509 -0.00251297
0.26701090 0.02954057 0.52190202
0.02455817 0.16536215 -0.50046909
-0.73334098 -0.25925517 -0.06763077
-0.86535341 1.24990463 0.00039288
0.53339636 0.53675020 0.22803153
-0.20319693 1.49349952 0.19578990
-0.75733548 0.02252614 0.19702871
0.13005529 1.14558721 0.74540555
-0.86176360 0.81724203 -0.76715392
-0.50724643 0.08612558 -0.28223434
0.99065477 1.21513498 0.01248912
-0.77498782 0.96173811 -0.76233721
-0.56049639 0.62167406 -0.74918592
-0.03981015 -0.00003004 -0.41300124
0.72770655 1.11149120 0.23615751
0.41702104 -0.00142843 0.11570618
0.83675706 0.85018450 -0.75041974
0.59576178 0.26015061 -0.67785037
-0.54110527 0.19550562 -0.25563103
-0.38225013 1.16103864 0.75821555
-0.83106405 0.23481539 -0.73531759
0.45004582 0.23591083 -0.53159600
0.97629094 0.88225496 -0.57985932
-0.20931709 0.57269335 -0.74145269
0.08863109 1.14296842 0.71732092
-1.00455785 0.58185738 -0.21314943
-0.73973483 -0.37964153 0.54128087
0.71717638 0.23516372 -0.24479733
0.24375834 -0.51427770 -0.07243649
-0.64493346 -0.49753743 -0.10558076
-0.43220586 -0.50782311 -0.00626363
-0.73781151 1.48697734 0.05126764
0.71818960 0.68293166 0.25454718
0.42566589 -0.00998747 0.20273894
0.47765729 0.12841159 -0.40638614
-0.33938354 -0.00486350 -0.44431457
0.26370326 -0.46231210 -0.16555202
0.11465441 1.50285673 0.65557796
0.07961830 1.50346708 0.06095661
-0.57250041 1.34280539 -0.27182078
0.24902180 1.29618704 0.17006692
0.24773964 0.46611556 0.64119005
0.23272227 1.17097712 -0.75102061
0.24621771 -0.44288427 0.15876919
-1.01274168 0.60243076 0.16065615
0.85893112 0.24304789 -0.72454864
0.17871352 -0.04595172 -0.26984736
-0.02782967 1.40189719 -0.23793867
-0.74150521 0.10505149 0.26253867
-0.07580681 1.25757706 -0.46300092
-0.77146560 -0.23764479 0.55275899
0.99281609 0.88505226 -0.66177815
1.02987146 0.62985843 -0.23592952
-0.67732435 1.48779106 -0.24608956
-0.50371075 1.15238285 -0.75513959
-0.43644142 -0.00520903 -0.28281373
0.53938502 0.62881595 0.24817652
-0.90391093 1.25366950 -0.10153677
-0.02219304 0.43238127 0.75408596
0.29762328 1.27722454 -0.44962832
-0.71682197 1.14148998 0.71486396
-0.98642230 0.29499453 0.03527710
-0.02121077 1.33899117 0.76071644
-0.77383584 0.91729784 -0.76686972
-0.94317013 0.24410275 -0.20514524
-0.15524063 0.37835750 0.76615906
-0.69832033 0.35772073 -0.75302207
-0.74237305 -0.03191864 -0.01355525
0.61327457 1.25180447 -0.45437744
-0.39512038 0.63973188 0.76438522
-0.96695495 0.23257393 -0.64486241
-0.55554587 0.31182986 0.76573169
-0.76640958 0.59528822 0.43072292
0.27470773 0.10169312 -0.49714553
0.76963967 1.25290537 0.08974995
1.00826752 0.45950499 0.20048624
0.49824408 0.10890278 -0.14200433
0.18958531 0.81815004 -0.75437939
-0.76222873 1.08610606 0.66964746
-0.66337168 1.49491429 0.36565137
-0.32412410 1.50403249 0.25807172
0.80753899 0.25266623 -0.71333319
-0.86898583 1.25987577 -0.53601873
0.04021770 0.98465741 0.75174671
-0.00607413 1.02876556 0.75089425
-0.28993985 1.49704456 0.05282263
-0.85310334 0.65856683 -0.77365398
-0.57414424 0.24152613 -0.46737656
0.54734939 0.24273515 -0.11116876
0.10672947 0.67382598 0.76946670
-0.35506746 -0.23283356 0.73827565
0.35988158 1.00989747 -0.73315960
-0.86437058 0.55506766 0.26250464
0.25503200 -0.35617751 0.71752161
0.24694391 1.44312656 -0.23264083
-0.62018353 0.42793888 -0.75843799
-0.03454938 0.28038475 -0.66438639
-0.23937269 0.95245922 0.76487213
-0.01765851 1.26434410 0.73337728
-0.49870309 0.38014624 -0.73290706
0.24663846 1.12914085 0.31267241
0.21382038 1.41155994 -0.25315377
-0.56063777 0.78596002 -0.74213278
0.79080290 1.07230330 0.23334511
0.74756438 0.69680631 0.21726097
-0.35446465 0.80521059 0.74632198
-0.18706998 1.49780869 0.41692570
0.25333628 1.02638364 0.60225624
-0.13281678 1.24931252 -0.75369608
0.25119290 -0.47661239 0.77935874
-0.49413738 -0.47272390 0.73822719
0.26108065 -0.09427714 0.11612635
-0.71840203 -0.49343359 0.46629134
0.99954545 0.95062780 -0.27567768
0.23889303 1.44823945 0.72325063
0.26288933 -0.48569119 0.43526992
0.24846712 0.24249551 0.50375718
0.49855304 1.23816681 0.24392340
-0.65444523 1.33968496 0.75643092
-0.98878020 1.26444221 0.11160401
-0.35833055 0.19469005 0.75341302
0.19323400 -0.49627262 -0.12982346
-0.78343183 1.35627770 -0.09395417
0.46227592 0.83162004 -0.73020679
0.12962765 -0.00210667 -0.35163835
0.78456324 0.23783639 -0.55878168
0.99960083 0.62841880 0.15511340
-0.31647635 1.01367402 0.76371175
-0.74838144 -0.27429205 0.19103305
0.23681551 -0.23769957 0.27894586
-0.25669020 -0.39620680 -0.27058980
0.21388830 -0.09983194 0.74586809
0.23865645 -0.47379953 0.33558816
0.05125830 0.61274016 0.74595350
0.24132349 0.52970022 -0.76245064
-0.48752823 0.31852537 -0.74541938
1.00905681 0.42238110 -0.03960260
0.37203780 1.25410104 -0.37251830
0.24540210 -0.43538833 0.67505550
-0.42692718 0.60307312 -0.75405651
0.40737560 0.88178176 0.51295620
-0.67885005 1.48860502 0.47761419
0.60639954 0.23232523 -0.70754123
-1.00970006 0.52178788 -0.64306688
-0.28685468 1.51441038 0.74910378
0.53912002 0.23551825 -0.70811081
-0.89279985 0.48943728 0.25335437
-0.51254946 0.23039937 -0.42857826
0.24493083 0.28375256 0.70465899
-0.25460461 0.25195026 -0.67586976
-0.72987264 -0.06368649 -0.12422653
0.65591800 0.76091158 -0.77203035
0.58549780 0.89059901 0.25307280
-0.15062933 -0.50672030 0.10493761
-1.01745939 0.26771832 -0.31451824
0.16695325 -0.51606452 0.02596834
0.55397469 0.24397412 0.00757422
-0.49139506 1.49882853 -0.26312181
-0.71780950 0.24425131 0.73971325
-0.76163167 -0.48006064 -0.25119710
-1.00033069 0.33940947 -0.43340972
0.60016870 1.23911476 0.04386998
-0.26964182 1.52032876 0.75742322
0.48720682 0.08911970 0.26301911
0.24739085 -0.33587813 0.16414869
-0.11971841 1.50349534 0.23821977
1.01623118 0.91968572 -0.34700114
0.58703947 1.24248254 0.08543777
-0.77123737 1.43750644 0.64547515
-1.00826275 0.76248515 -0.07881159
-0.98224741 0.60236162 0.19586633
0.25634333 1.11744118 0.58080482
0.97421980 1.23144722 -0.12034855
0.22858240 -0.35468256 0.27055618
0.11477692 -0.50904107 0.68244582
0.99054617 1.22348738 -0.27525464
0.45033503 1.23737562 0.01159981
-0.75435817 -0.43239069 0.18491417
0.72376847 0.79663241 0.23876891
0.98010129 1.02542496 -0.16339594
-0.98732316 0.70328981 -0.20649755
-0.52814877 1.50187087 0.02701449
0.30260825 0.56546807 -0.76334757
0.99709725 0.37965691 -0.09042100
0.25511125 -0.45180351 0.68715054
-0.82045114 1.15477538 0.25759569
0.80776972 0.96454823 0.24629827
0.01021339 -0.09182769 0.76493150
0.98697984 0.93699789 0.03774317
0.83708000 0.45033664 0.27633685
0.28708309 0.79524052 -0.74547136
-0.98577672 0.27982664 -0.57665789
1.00490069 0.52669138 -0.35902470
-0.75508308 0.65914357 0.35342291
0.25757456 -0.29272181 0.13789733
-0.99573684 0.82663590 -0.28749079
-0.79272962 0.37340745 -0.74717689
0.15523764 1.28156424 -0.49170113
0.22446676 -0.01475620 -0.47360748
-0.59164214 1.48888922 0.70385569
-0.76922113 1.29340363 0.19773217
0.61153811 1.20425558 0.26074931
-0.74554187 0.28333941 0.31335443
0.99465519 0.98023641 -0.57680482
0.02041136 0.93402231 0.74445313
-0.98902845 0.83362901 0.24340421
-0.75285178 0.19860929 0.15357423
0.83971417 0.49431795 0.24879713
0.02131795 0.12913054 0.77764857
0.35349837 1.01372480 -0.76140177
-0.77291673 0.20268095 0.37268975
0.51684397 0.84061837 -0.75144523
0.23920232 0.13319668 -0.51828074
1.00010312 0.46289760 -0.38547570
0.39687854 1.05875289 0.24869797
-1.01036930 0.54375947 -0.41577917
-0.13013779 0.47750813 0.74707490
-0.56541830 1.49886155 0.18291619
0.26989987 0.27338004 -0.72226149
-0.77283174 0.05589172 -0.01188726
0.84566718 0.53148884 0.23680045
-0.75487775 1.07394743 0.29430407
-0.00544199 1.23053193 -0.42169437
-0.68707132 0.23945844 -0.45070377
0.64637947 0.26291966 0.05160893
0.34461737 0.61817217 0.50429612
0.94045460 1.14680386 0.24057980
-0.00327472 1.43453395 -0.27808079
-0.44348133 -0.49968338 0.69476002
-0.90863132 0.25148183 -0.43305889
-0.61331624 1.31777120 -0.24121438
-0.69723809 0.86906767 0.77469587
-0.74609464 0.45826942 0.53959805
0.49777389 0.82872832 0.32644248
-0.83261788 0.43830901 -0.74509650
0.99233645 0.85060120 0.03393492
0.12190267 1.50105584 0.20562424
0.25573674 1.49091458 0.32900664
0.68546975 0.26276794 0.07135147
-0.54986501 1.48349023 0.49143940
-0.30921778 1.49897122 0.61681700
0.71467507 0.28108770 -0.64313483
-0.09014709 1.33417130 -0.23230492
-0.73630702 0.07889515 0.39972752
0.84043670 1.09232092 -0.74845976
-0.76393861 1.23847437 -0.61346585
0.68073267 0.75082123 0.21659140
1.02616501 0.78569913 -0.41383657
-0.45043030 0.63806534 -0.77133709
-0.45290083 0.92373639 -0.76353228
0.51390433 0.03749302 -0.26895556
-1.00229609 1.08531260 -0.60780239
-0.99638718 0.67844689 -0.21731973
1.00566614 0.94158912 -0.06835262
0.42154604 0.26661432 -0.60296232
0.47323659 0.24148336 -0.68733895
-0.75145602 1.47316885 0.47487912
-0.75615013 -0.43058306 0.34593344
-0.74068218 0.96760195 0.75759649
0.26057720 1.02168131 -0.74102020
-0.08788219 1.25430536 -0.24558075
-0.47572276 -0.50100350 0.02890912
0.37118033 0.24378619 -0.70589530
0.36908284 0.01342553 -0.23333499
0.25509614 1.33604944 0.01636704
-0.74649787 1.22128069 -0.37658125
0.94291979 0.74216193 0.25750628
-0.36669716 1.10080290 -0.75049865
0.28829026 1.02215350 -0.73900938
0.38456646 0.00762725 -0.40139845
-0.99951535 0.78584385 -0.19021145
0.40065950 0.98953402 0.26503280
0.96638495 0.81375128 -0.74032801
-0.50562316 -0.40955806 0.75283837
-0.50927699 -0.50263822 -0.13494982
0.31854433 1.24716425 -0.67455250
0.16849470 -0.45282221 0.74602163
-0.51562864 -0.47744113 -0.27625132
0.23913389 0.08985376 0.60589391
0.76566577 0.50687873 -0.74582160
0.24990208 1.36040759 -0.09623235
-0.74086481 -0.44696784 0.14783804
-0.74674129 -0.15212291 -0.15232329
0.49187225 0.14741686 0.21487714
0.25082400 0.00570893 0.73336142
0.99369979 1.19252002 -0.40504453
-0.25691915 1.28657603 0.73466408
-0.75234342 1.42799544 0.16411303
0.02853430 0.02314350 -0.48861706
-0.98929685 1.01413262 -0.67580646
-0.74729979 0.44999999 0.44800135
-0.75809675 0.33816832 0.24678735
-0.99861550 0.44503158 0.16319531
-0.73908257 1.05155969 0.56904846
-0.49310908 0.11276358 -0.32299182
-0.21997410 0.28124583 0.74591440
0.45337719 0.25938213 -0.76101238
-0.34782997 1.51835918 0.07109565
-0.57830483 -0.43322223 0.75967199
-0.99828517 0.83195293 -0.04900173
0.13709891 0.25228155 -0.61775106
0.99377108 0.34367681 -0.73015618
0.99546248 0.76923454 -0.23735316
0.99533165 0.76608276 0.05797662
0.73904032 0.74072230 0.22855724
-0.34076855 0.02264190 -0.37074277
0.22173400 -0.04428959 -0.24895722
-0.55682015 0.66293520 -0.72074217
-0.74141926 0.42555863 0.35070395
-0.75666624 1.26679087 0.32156381
-0.19882472 1.05697799 0.75968677
-0.41305175 -0.50684142 0.64611369
1.01829541 0.71977937 -0.24774286
-0.97358304 0.85573137 -0.47113252
-0.18548109 0.19867036 0.72336978
0.25469327 0.52636296 0.72294354
-0.08965474 -0.01220179 -0.37393203
0.52216119 1.25268555 -0.00415260
-0.38348943 0.22040215 0.75389600
0.57143468 0.24013841 0.22946715
0.57603240 1.24331796 -0.54358006
-0.48200369 -0.12139702 0.74242967
-0.35552502 -0.27144223 -0.24118288
-0.73601633 0.95769000 0.42970046
0.53307045 0.78960454 0.22005536
-0.77479321 0.96707773 0.67488891
0.19231997 1.48176587 0.28472868
0.80251169 1.14466643 -0.78019077
0.39474598 0.00328085 -0.52518374
0.13058668 -0.50418079 0.48087338
0.26339248 -0.42707473 -0.13479753
0.26992151 0.25905171 -0.68594325
-1.01377606 1.15884161 0.11524107
0.27264395 -0.49424791 0.15445833
-1.01260388 1.23676467 -0.10592591
0.49337506 0.60345602 -0.75006455
0.49083570 0.78577358 0.33053705
0.91095656 1.22612655 -0.09356351
-0.75999308 1.14924490 0.58877909
0.68663031 1.24414825 0.21386178
-0.00649703 -0.47414279 0.19354746
-0.72531384 0.54690582 -0.76565433
0.78409356 1.25157714 -0.48879108
0.54465628 0.59242851 -0.74178833
1.01497424 0.73942065 -0.35202867
0.95883781 0.82127130 0.24695785
0.91622841 0.82704955 -0.72072113
-0.36290216 -0.49618596 0.47027016
0.68321890 0.99678779 -0.76671082
0.06046622 1.48603749 0.21296015
-1.00757027 0.65683931 -0.46720478
0.45378762 0.01357147 -0.47304288
-0.72650987 -0.40940040 -0.07564958
0.30655518 1.00034642 0.42859244
-0.53123498 0.88328183 -0.75069290
0.97561288 0.89318109 -0.01910144
0.97866708 0.27915996 0.16376834
-0.76976275 1.31552684 -0.05389681
0.94324404 0.88173783 -0.74107468
-0.74345905 0.85423350 0.34077898
-0.23740314 0.52958363 -0.76194113
0.26194370 1.01808381 0.24971186
0.19298138 1.26393676 -0.53600907
-0.34130421 1.12911665 -0.76351684
0.22707236 -0.23289597 0.73482329
-0.87515867 1.26289999 0.25352404
0.31665090 1.15182483 -0.74905264
-0.98722380 0.26014626 -0.23971052
-0.95771527 0.65049714 -0.20973454
-0.62760603 1.12980962 0.73377579
-0.97629547 1.06515312 -0.75828367
-0.61428761 1.49709964 0.27488300
0.88663214 1.23903179 0.23269387
-0.81753284 0.25846446 -0.27167413
0.07175265 -0.51244974 -0.13243069
-0.75978929 1.42973566 -0.06768744
-0.73640049 0.89503640 0.71533376
-0.49904415 0.28507635 -0.64133745
0.30342990 1.25195742 -0.24415195
0.52089655 0.17472827 -0.39922059
-0.02411649 -0.34557444 -0.26343071
-0.08462509 1.50925398 0.30470091
0.09624486 1.24321961 -0.28701022
-0.59473813 -0.07958740 0.74031585
0.58997190 1.23631656 0.26205990
0.99106878 0.53257990 -0.70300025
-0.61765188 1.49107289 0.06840319
0.59802973 0.51878738 0.25280246
0.02446040 -0.40639818 0.73969984
-0.61634737 1.26155305 -0.70706266
-0.70590240 -0.11541313 0.75998884
-0.07269626 0.52985746 -0.71971840
-0.75018895 0.72622299 -0.74081451
0.98062783 0.72963154 0.24646051
-1.03541493 1.03229260 -0.00292948
0.47941458 0.13846153 -0.35114035
0.23064964 -0.47847891 0.70646769
0.66794705 0.86703616 -0.73729837
-0.74973929 0.27466887 0.51763982
1.00012195 0.56470823 -0.47431916
0.46046093 -0.00850081 0.19748306
0.28095204 0.95357019 0.65374964
0.33632293 0.09427661 0.51456261
-0.96454066 0.96503019 -0.05806697
-0.14308737 1.08853054 -0.75251687
0.68507302 0.83872998 0.25261277
0.17121911 1.51715875 0.15264966
-0.57614964 0.41033852 0.76019239
-0.87206733 1.25021315 -0.35262984
0.50134379 0.12623918 -0.19885184
-0.66170204 0.42311281 0.72396487
0.12457899 -0.25189227 0.73380941
0.74605930 1.26911414 -0.29554260
0.99876302 0.78411466 0.21314825
0.78937340 0.24594006 -0.63699245
-0.64800316 -0.27698523 -0.26726812
0.11618137 -0.01390153 -0.30011022
0.53981119 0.73694444 -0.74799150
-0.76001531 -0.37684983 -0.15537557
-0.00468306 -0.50037980 0.37980920
-0.64286852 -0.44994557 0.76166451
-0.62761700 -0.49262220 0.12726195
0.99545181 1.22415221 0.16547687
-0.76028711 -0.14896673 -0.19139531
0.98371100 1.11772847 0.16689107
-0.74807525 1.38134718 -0.17216042
-0.03608691 -0.36440247 0.74959284
-0.73358148 1.49896944 0.39183077
0.24501924 1.36369646 0.22280891
0.23767121 1.25297546 0.65116680
-0.50056332 0.02272716 -0.44994652
-0.53784716 1.49092221 -0.07099270
-0.02020983 -0.20666409 -0.25009075
-0.99934483 0.53462875 -0.50307286
-0.97430474 0.42915335 0.13486540
-0.54429680 1.40815330 0.75152469
-0.55690444 0.26059803 -0.69186127
-0.43594146 -0.52399111 -0.20080261
0.03721182 0.27287987 0.73271668
-0.51844478 0.00545666 -0.48762435
-0.39457738 1.47915387 0.39665541
0.26250249 1.42420101 0.47212809
-0.21831805 0.15755412 0.75840932
0.96756917 0.90984660 0.25566188
-1.03614271 0.24674037 -0.19214393
-0.89850187 0.23762318 0.03195108
0.99493933 0.85727829 -0.00652427
0.09955538 -0.42934358 -0.25369236
1.00558531 0.95797563 -0.14846666
-0.24515510 1.51252544 -0.08993288
-0.22385454 -0.42780119 0.77305114
0.15524718 -0.50934231 -0.23962818
-0.75650072 0.86141253 0.67316121
-0.21069235 1.47666860 0.27385384
-0.84236163 0.45547268 0.24560809
1.00616395 0.73296565 0.13802367
1.00177562 1.05406177 -0.27162054
-1.02280223 0.38166341 0.00785876
-0.72712725 -0.53463173 0.25750214
0.23932442 1.38435817 0.70939916
0.01080908 1.23487401 -0.59925377
0.78335971 1.12905550 -0.76398456
0.23620060 0.09401122 0.78082484
0.99747998 0.47507793 -0.54477566
-0.04614750 0.26832578 -0.62657583
-0.45925432 0.63091010 -0.76916116
-0.15845865 0.02015609 -0.50362068
0.23063770 -0.32543129 0.45565811
0.25490081 1.23875785 -0.60270756
-0.68067855 1.51370490 -0.05317805
-0.31572297 1.25704169 -0.25866801
-0.05210966 -0.48238981 0.28937319
0.39908066 0.38414702 0.49875602
0.27966127 0.87167281 -0.73908788
-0.51997542 0.37143570 0.76290923
0.18132372 1.23809552 -0.23490049
-0.74549675 0.58667952 0.36930487
0.63829678 0.85227734 -0.75245100
0.55810201 0.24348217 -0.42788509
-0.72618544 0.23783192 0.73021418
-0.74981421 0.18464497 0.61492872
-0.77119714 0.21999994 -0.00436054
-0.79671341 0.71520829 -0.73499185
0.02565199 -0.17280495 -0.25334865
0.19636858 1.51779437 0.13289148
0.18081294 1.01453447 -0.75843519
0.40231925 0.26194996 -0.64326316
0.74694598 1.23103166 -0.41986689
-0.71822238 -0.53069484 -0.14889081
-0.67250800 0.02258453 -0.25916344
0.72270650 1.23678803 -0.75951189
-0.41693455 1.24650574 -0.48955742
-0.37122256 -0.50180078 -0.22211781
0.03734079 -0.05647689 0.76529461
-0.05645140 -0.47998255 0.15592243
0.81247729 1.22644794 -0.45459476
0.57489306 0.23589054 -0.13178138
0.00429451 1.50831842 0.26600808
-0.81558919 0.49891415 0.24839988
-0.80445713 0.25374550 -0.13208906
-0.32180059 -0.52259731 0.56526828
0.50293744 0.14928624 -0.51465619
-0.53464651 0.91326296 0.73475623
-0.56841832 1.15821314 0.75944889
0.81328493 0.82420105 -0.75978923
-0.04055566 1.07970548 0.73258609
-0.51341259 -0.49021065 0.10898615
0.37175724 0.10884830 -0.51766431
-0.02804485 0.83484238 0.75761807
-0.76501465 -0.33050549 0.16517249
0.15550168 1.48655915 0.44698879
-0.71271479 1.50063050 0.62701494
-0.86378068 0.27281404 0.17734751
-0.15274362 0.75483167 -0.74937993
0.07539374 1.49971175 -0.23969676
0.99244851 0.88139600 -0.51651901
-1.00328803 0.70375210 -0.17768815
0.49304855 0.10802773 0.16514389
0.75154763 0.41193369 0.25084165
1.01019394 0.53008765 -0.50656879
-0.30471173 1.49110949 0.09953261
-0.32455093 1.05279267 0.75778085
0.56139010 0.24943164 -0.34070888
-0.52826029 0.94910717 -0.74214655
-0.16017528 0.38798794 -0.77606529
-1.00810122 0.71913433 -0.51195717
-0.86447787 0.26250455 0.02685654
0.26823840 -0.13086134 0.59802663
0.51883507 0.69595146 -0.71837938
0.94905883 1.22399986 -0.54092294
-0.81770045 1.21204388 -0.74110401
-0.85345393 1.25057840 -0.21102338
-0.06260817 0.10451207 -0.50340503
-0.20373270 0.55675262 -0.75903910
-0.75828606 0.56586158 -0.73977858
-0.41480109 -0.52821696 0.23805182
0.94466549 0.24177891 -0.18115018
-0.28678897 -0.51322699 0.26766992
-0.80468142 0.39680767 -0.75626481
-0.78067166 1.26874471 -0.34356245
0.25510189 -0.01994205 -0.34587154
-0.76969504 0.33615667 0.52802932
-0.01206036 -0.22015017 -0.26991537
-0.32859719 0.12474123 0.77779865
0.17565891 1.50657904 0.44903308
-0.58276862 1.50338924 0.24767019
-0.64503384 1.48992240 0.48910937
-0.99835247 0.91931832 0.13383061
-0.68645823 1.50942540 -0.02256780
-0.03253808 -0.52234137 0.09706523
1.00099218 0.31309995 0.04984810
-0.07405743 1.26009488 -0.43487844
-0.15145874 1.20272434 -0.74428999
0.45925811 1.26330590 -0.57053924
-0.14249973 0.21898609 -0.70367151
0.93344557 0.23599678 -0.29384786
-0.28486475 1.50449729 -0.11563743
0.50014102 0.53211433 0.31380239
0.50919199 0.64980423 0.23934966
-0.39783192 -0.50520813 -0.10515862
-0.24747516 -0.51055849 0.62151027
-0.22749829 1.23934078 -0.66867161
-0.75645053 -0.40880477 0.26309514
0.20232020 0.55889702 -0.76098478
0.24089374 -0.32160091 0.58459103
0.99388874 0.36132410 -0.75034845
0.25686896 1.26682293 0.36849901
-0.61975014 -0.49448752 0.03198867
0.25445104 1.16141772 0.45573875
0.25928870 1.23376179 -0.18865059
-0.41720921 1.39440084 -0.24799597
-0.63734829 0.78696162 -0.76715052
-0.44149819 1.25447905 -0.25446749
-0.48703411 0.82733923 0.74685591
0.02737711 -0.51165247 0.60574800
0.59393328 0.28126934 -0.28610316
-0.81063509 1.03811443 -0.70823473
-0.86103052 0.38652813 0.25716749
0.13292086 1.41565275 -0.25217193
0.71802187 0.88531739 -0.75340182
0.17681114 -0.09489191 -0.26191321
-0.82344192 1.12079048 0.22793180
0.26211756 -0.07387251 -0.13536841
0.99852479 1.13498020 -0.75917774
-0.91396850 0.26753020 -0.75438076
-0.45885098 0.67304993 -0.72095525
0.24442042 1.28180575 0.37760207
-0.87776446 0.25354037 -0.19608009
0.24835590 -0.38355505 -0.10108378
0.50628281 1.15668583 -0.75082451
0.99181092 1.07322109 -0.66048563
-0.50256300 -0.03711671 -0.23473309
0.05642593 -0.50520945 0.11838467
-0.20601614 0.76688159 -0.75668019
0.79880702 1.09333098 -0.73969144
0.81304574 0.91708684 0.26508021
0.52831298 0.36131603 0.49316129
-0.52013642 1.52693784 0.46683308
0.47754338 1.26999414 -0.28840876
-0.60665494 0.60099471 0.74329472
0.33218998 1.25047064 0.08868195
-0.69295937 0.00817186 0.75430608
-0.77242357 -0.07236153 -0.24047631
-0.67429453 0.94297242 -0.75143558
0.99896502 0.82233596 -0.43036711
-0.66044247 1.24497974 -0.62956309
0.65384597 0.25524113 -0.57662886
0.80565339 0.25365907 -0.44056809
0.49621955 0.67998815 0.31221965
-0.22357737 -0.01806539 -0.44503492
-1.00440395 0.22702911 0.26777491
-0.29540771 0.77862477 -0.73441815
0.17828879 -0.52132595 0.71275359
-0.19483663 1.24180913 -0.27884153
-0.07956063 1.44595587 -0.24946801
0.48378640 1.24343109 -0.73944223
-0.33393463 0.93473929 -0.74535733
0.23995063 -0.47262943 0.20431967
-0.44912550 1.36558938 -0.25776243
0.17419191 0.51771182 0.76440984
-0.11338197 0.83855623 0.75057560
-0.20221156 0.85910046 -0.74342483
-0.73022103 1.45734501 -0.05989335
0.58655542 0.29451454 0.25877479
-1.00258923 1.02549970 -0.19329554
-0.54409015 0.70665896 0.75902987
0.21991023 0.04938927 -0.50645483
-0.99852145 0.80782402 -0.39953238
0.06106962 0.51659852 0.75198197
-0.76711029 0.19225076 -0.07361807
0.44018081 0.32577923 0.51510614
-0.74119967 -0.29093063 0.65639406
-0.74852568 0.34275907 0.55689079
-0.37304598 0.20008340 -0.49784830
-0.99721515 1.12080061 -0.27971736
-0.21731935 -0.28971642 0.76747322
-0.74022299 0.21495801 -0.00406637
0.80551338 1.16248953 0.24613553
0.25163242 -0.32034594 0.48899648
0.19310792 1.26599467 -0.72871381
-0.47182685 0.66947556 -0.73841488
1.00432694 0.54774714 0.02765768
0.82285947 0.24365547 -0.74774444
-0.52633864 1.48085260 -0.24618770
-0.57141852 -0.51303875 0.63978350
0.49863073 0.38564157 0.30676851
0.28436875 0.71111602 0.60203177
0.49487123 1.00106215 0.48438519
-1.00743210 0.66405082 -0.27380347
0.56931031 0.72123784 0.25116798
0.21787526 0.22910026 0.75817007
0.21209747 -0.48815489 0.61033779
0.52172691 0.06882578 0.53064984
-0.09184570 0.93273044 0.76051921
0.13530368 1.49895501 0.00887551
0.91272432 1.26294613 -0.74597752
-0.02341464 1.31242490 -0.24053237
-0.13929395 1.26742196 -0.32621011
0.29924870 0.00789487 -0.05491018
0.31447756 0.53303587 0.46452343
0.29569089 0.22703502 -0.56481636
-0.61843741 0.25305659 -0.63069195
0.48161671 0.99258280 0.48194444
-0.88847202 0.26804817 -0.70645428
0.24705192 -0.20071763 -0.22598079
-0.46133775 1.51206338 0.58268112
-0.19280969 0.36989537 0.74206996
-0.04514077 1.24594688 -0.58039033
-1.00625420 0.47930437 0.15515386
0.71174765 0.25806102 -0.61324459
0.25233868 -0.40723640 0.75087529
-0.37660995 1.50428879 0.55364126
-0.93104202 1.13104880 0.24901935
-0.30987892 -0.51252627 -0.19401591
-0.17773689 -0.45461673 0.71270758
-0.53206366 1.23334563 -0.37488517
-0.54425436 1.22700381 -0.26708817
0.32840803 1.25333333 -0.11838666
0.26531592 0.28665102 -0.72760695
-0.58726811 0.90888178 0.74099344
0.99772400 0.36068588 0.21737432
0.24932998 0.92270780 -0.74270922
0.26458073 0.25417858 -0.58445585
0.24080455 1.14629173 0.41097212
-0.74960250 0.16051903 0.28505507
0.82418126 0.63656819 -0.74947309
-0.58062416 1.47670078 0.31240869
0.47140339 1.15861750 0.23010087
0.99662071 0.84073782 -0.60598582
0.76769173 0.64545608 0.23368941
-0.51421785 0.24493936 -0.71242404
-0.70983857 -0.10210043 0.07753798
0.40738723 0.24941334 -0.58520222
0.64366335 0.61088270 -0.78495330
0.46264908 1.12636042 -0.75637048
-0.99824256 0.94040692 -0.38696522
-0.99572259 0.24031815 0.19939740
-0.19914086 -0.23363376 -0.24923638
-0.18931186 1.04296863 -0.76291972
0.99236226 0.41984835 -0.60275608
0.24628761 1.50909388 -0.13047586
-0.02750714 0.13396665 0.73952556
-0.66901422 0.24111384 -0.61409807
-0.62300026 0.37585407 0.74422872
0.15750550 0.46213883 -0.74136978
-0.13862351 1.35751891 -0.26793706
0.95854563 1.18689036 0.21248385
-0.43857566 1.51883650 0.61011392
0.23528905 0.10863718 0.73457128
-0.71057981 1.31140924 0.74537629
-0.76051128 0.15615025 0.15043417
0.51494324 -0.00167626 0.39247483
-0.98967415 0.86135793 -0.10910024
-0.78146964 -0.24596345 0.51861894
-0.55068010 1.25918436 -0.61770749
0.56484544 0.92481780 -0.77065331
-0.98025310 0.64984357 0.14138892
-0.73732227 -0.38423991 0.62107968
-0.66713440 1.37051916 -0.26141652
0.24695340 -0.20735180 0.05139035
0.06007857 -0.02280366 -0.40417916
-0.53787720 0.25405285 -0.26703250
0.50960213 0.73326296 0.43245557
1.01212275 0.71321607 0.20846498
-0.67153639 0.80262458 -0.77348441
-0.87255126 0.95252162 0.25433689
-0.57271123 -0.51698983 0.26800081
1.02934408 0.25834614 -0.26740742
0.88303697 0.23773426 0.18544047
-0.25704855 -0.50507522 -0.14986381
-0.74350446 0.53524685 0.60791850
-0.74968976 1.27146077 0.49874550
-0.63589787 1.47574091 -0.24744886
0.40552512 0.99407864 0.44985878
0.04033589 -0.46802109 -0.02074096
0.68399453 0.28227526 -0.76284742
0.08219161 -0.24196309 0.75121284
-0.75020468 -0.21901619 0.38238212
-0.75207579 0.49506497 0.59608716
-0.10919371 -0.23078489 -0.24939509
0.03606601 0.80494046 0.78540778
0.22779652 1.31773949 0.40818000
-0.98792475 1.19829512 -0.61108673
0.00525568 1.25388992 0.74732602
0.50866884 0.62573171 0.24973623
0.36333704 -0.00009149 -0.25137854
-0.76067740 0.82396960 0.63183367
0.19289632 1.49982142 0.70901251
-0.08851894 0.61534524 0.72343516
-0.74913144 -0.34447515 0.34895065
0.19360930 -0.50778162 0.67024446
-0.75974077 0.52516937 0.25248766
0.76361054 0.25287220 -0.26727408
-0.68667912 0.27950388 -0.70453471
-0.74693179 0.09755915 0.31446633
-0.59474331 0.05094945 -0.24297936
-0.25771391 0.00248784 -0.51601100
-0.19020189 1.51926422 0.04611852
-0.03140526 0.91635513 0.73154587
-0.99151254 0.91605508 0.21116835
-0.03596396 -0.50390875 0.48138666
-0.58470529 0.97518194 0.72695297
-0.97622579 0.95246637 0.09238866
0.39410201 1.27745533 -0.74166161
-0.06337364 1.50070024 0.16258958
0.30378711 0.00329745 -0.29475120
-0.18618429 -0.50396550 -0.00592390
-0.24867699 -0.49522263 0.16377108
0.25479725 1.26555550 -0.20436580
-0.29518199 1.46867168 0.06271733
0.25742978 0.25440487 -0.51786518
-0.58909440 -0.50248301 0.31180474
0.52822685 1.01338220 0.26628762
-0.13752221 1.50000370 0.64903170
-0.53828502 1.30385566 0.76093280
0.08330453 -0.47276926 0.16340466
0.26949131 -0.09348094 0.32363018
0.27580842 0.93013686 0.63924694
-0.75142258 1.04608774 0.72457236
-0.77226734 0.92116922 0.40408006
-1.00460958 0.77325588 0.11905143
0.98364484 0.35551134 -0.34023622
0.99531984 0.33424437 -0.76363915
0.26693186 -0.00850534 -0.45872846
0.23769245 -0.41887128 0.29375571
0.23110126 -0.15334022 -0.03477723
-0.00284174 0.01030082 -0.45514610
0.15152808 1.24889553 -0.28970939
0.24706715 1.25301433 -0.56681406
0.26788095 1.40257716 0.02856861
0.08132330 -0.51132059 -0.13425674
0.43938649 0.91703987 0.50691122
-0.35984194 -0.17418319 -0.22888564
-0.75887716 0.78145736 0.57534331
-1.00849319 0.45703477 -0.52177119
1.00099003 0.36568075 -0.53394181
-0.66959250 0.13373640 0.77150661
-0.76236695 0.49001303 0.75465757
0.99081451 0.85657102 -0.76717710
0.16233633 0.60949028 0.75172138
-0.86650723 1.06476378 -0.72004879
-0.67665958 1.28893971 0.72787160
0.42104983 1.14140964 0.24659131
-0.11521076 1.51409149 0.09190191
0.86756182 0.51068568 -0.73500121
1.00842428 0.81579995 0.12151720
0.89538538 1.27282333 -0.34458268
0.93820953 0.27407300 -0.66554421
0.49871451 1.27296078 -0.66844290
0.26523763 -0.38265800 0.48762491
0.24274789 1.50136888 -0.21145964
-0.69872802 0.83441806 0.75666839
-0.97796547 0.67312050 -0.17737250
-0.79695421 0.48408762 -0.72450203
-0.77183658 1.42608607 0.27437624
-0.10174337 1.36113608 0.75067508
0.01605182 0.39529926 -0.75140250
-0.50539929 0.26622647 -0.48601449
0.16563708 1.30726528 0.75212097
0.26390854 -0.20506525 -0.20073345
0.30606654 0.84250784 0.50685596
0.68810129 0.39171422 -0.76926666
-0.75939953 0.08669803 0.08980406
-0.73777956 -0.48204267 0.35010916
-0.73590750 0.54290402 0.56431949
0.62031919 0.22732377 -0.41437647
-0.74934977 0.00508881 0.03169548
-0.45243007 1.53031397 0.37575430
-0.20119718 1.38040233 0.74026752
-0.52353507 0.28657877 0.74530798
-0.99596709 0.64721727 0.09790750
-0.58708346 0.86143649 0.75249696
0.21131040 -0.07949334 -0.24214327
0.70692313 0.24438128 0.09526024
0.24247044 0.27051705 0.64467490
-0.99219835 1.18356597 -0.46085885
-0.07773840 -0.34824377 -0.24901256
0.54848987 1.24960041 -0.59520000
-0.30099088 0.24310133 -0.70282161
0.05018841 -0.12082833 -0.25615036
-1.00369084 0.78064352 -0.27976415
-0.42933190 0.45939291 -0.73731929
0.44075301 -0.01061410 -0.00735722
-0.97128868 1.23655343 -0.13272385
-0.99368864 0.71195942 -0.31457010
0.14573911 1.41965032 0.77066588
0.97838169 0.82293463 0.20134005
0.85279244 0.24435192 -0.73708951
0.62420970 1.14078760 -0.74957001
-0.69864064 1.36016476 -0.25293145
-0.98464680 0.57074320 -0.08545714
-0.75516397 -0.16139704 0.37886626
-0.99455935 0.69243318 -0.64978498
0.98380834 1.05108953 -0.00066021
-0.35294837 0.64653760 0.71526212
-0.53670245 1.23807240 -0.77559042
-0.02744745 1.50091755 0.74095935
-1.02027142 1.05930257 -0.43737710
0.64038235 1.24718785 -0.23218413
1.02370644 0.58171147 -0.13963488
-0.84710324 0.23816165 -0.68372965
-0.45641446 1.24469948 -0.32659647
0.83875960 0.26384726 -0.39509854
0.13808265 1.28356302 -0.22714008
-0.60042608 -0.49773520 -0.24078180
0.99545234 0.37743044 -0.44147125
0.98426008 0.60537982 -0.70455319
0.87834907 0.77498960 0.25635836
0.70488405 1.15242267 0.24314719
-0.09096153 0.10323390 0.76245666
0.98779917 0.24680164 -0.69765252
0.53140330 0.25414285 -0.05004758
0.91960669 0.49278277 -0.73943883
0.01276266 1.08732414 -0.73139364
-0.98104596 0.87937200 -0.55944145
-0.74709606 1.05666578 0.23742978
-0.26244965 -0.50248075 -0.18829432
0.25119349 1.18139553 0.58761913
-0.23129658 0.37258282 -0.75536662
-0.26163387 -0.23026919 0.79578167
-0.57921445 0.46720150 0.73579484
0.22325362 -0.35535604 -0.14437100
-0.43180516 -0.50197423 0.77632874
-0.93557721 0.90988755 0.27088371
0.19781455 0.06393379 0.76913482
0.26488405 -0.46993917 0.56007600
-0.76034456 -0.40204245 0.71243954
-0.50202417 0.29118150 -0.59921300
0.05783825 -0.11304516 -0.23146118
-0.89878279 1.15255046 0.25030839
-0.53724700 0.90948522 0.74964625
-1.01122773 1.25651002 0.15245745
-0.74294394 -0.41675967 0.58791095
0.24663012 -0.38553929 0.49564448
-0.99439168 1.09112334 -0.21823691
0.25008181 0.67067045 0.66796243
1.00891769 0.52423042 -0.56347865
0.50981086 0.02205727 -0.08339786
0.52525014 0.26500398 0.21787602
0.25477466 1.12459671 0.74807727
0.73115671 0.75077844 0.26118535
-0.21241972 1.24497843 -0.33280841
-0.46484423 0.14546424 0.77023458
1.00982499 0.24807796 -0.56424630
0.30469736 0.70814860 0.49309695
0.27214459 0.48262140 0.49342951
-0.12952396 1.16266155 -0.72507435
0.25763634 1.12660778 0.36749682
-0.29311198 0.24131802 -0.55497414
-0.77225971 1.26738548 -0.47543883
0.78020024 1.28350759 -0.68823034
-0.04711547 0.52484030 -0.75430113
-0.56658512 0.23092633 -0.53788972
0.25365460 1.47374129 -0.00994477
-0.98932183 0.23759523 0.09856052
-0.38521460 1.20967031 -0.74972606
-0.75400096 0.17204309 -0.07540879
-0.75115520 -0.20524275 0.14922900
-0.10671637 0.90714312 -0.75092137
0.24351761 1.34874856 0.23725902
-0.21730946 1.25021172 -0.47569615
0.39952880 0.00027031 0.05303238
-0.83462769 1.24978065 -0.69853151
0.08983120 -0.50919008 0.31974205
0.51738119 0.88526368 0.24649169
0.07908200 0.30114615 -0.75291795
-0.64659411 -0.17132771 0.77920407
0.26304734 -0.11118811 -0.20439509
-0.17386222 0.00416642 -0.45688698
-0.46873149 1.45645142 -0.26538721
-0.75891894 0.39657676 0.76020539
-0.15738092 -0.15439564 -0.25058851
-0.75253093 0.21804547 0.04201413
-0.99876249 1.14070678 -0.26464039
0.25227988 1.39866471 0.28752252
0.94840395 0.44601148 0.24294503
-0.35226321 0.07895291 0.74463195
-0.29859948 1.23715746 -0.42637584
-0.53806180 1.33804440 0.75959641
-0.41164353 1.50610590 0.41913810
0.95546293 0.69334149 -0.71541834
0.98565322 0.67489898 -0.73279643
0.16384526 1.25702965 -0.34425360
-0.72761571 -0.21867299 -0.00604908
-0.60622656 1.49975073 0.31467170
-0.53867710 0.07750070 -0.25788403
-0.05987012 1.47249842 0.47436661
-0.49815801 -0.04362124 0.74784887
-0.56581336 1.49476027 0.69723755
0.09690157 -0.50806522 0.23500967
-0.32518575 -0.21646965 0.74756503
-0.14972566 1.50914049 -0.10855535
-0.75095111 -0.16682011 0.61351585
1.00956309 0.94367629 0.01456300
0.98491007 0.85891998 -0.37593317
0.10333258 1.45462644 0.74780959
-0.47901303 -0.49549073 0.43487012
-0.17350808 1.25934386 -0.53487766
0.42267072 0.00267518 0.31344959
0.13342386 0.23451880 -0.57120222
-0.62950760 -0.50674808 0.32593223
0.49643159 0.32947654 0.35791448
-0.41912469 -0.01104295 -0.31419858
0.92341304 0.91334337 0.24043944
-0.03807431 -0.47454596 -0.12603451
0.56155467 1.24132371 -0.54969800
0.86164969 0.24976945 -0.69578218
0.48170754 0.38110125 0.52230865
0.34308103 0.34628218 -0.72053522
0.23974118 1.27410555 0.35422739
-0.75864685 1.47105956 0.04727953
-0.51634055 0.39178187 0.74380958
-0.74170434 1.26674461 -0.62561852
-0.24898295 0.25507635 -0.65736508
0.13948523 -0.47993606 -0.03753093
0.23018011 0.11685559 0.55660248
-0.17558271 0.01813263 -0.25965124
-0.61746508 0.48741186 0.76837116
1.00292253 0.48274195 -0.64395869
-1.01217699 0.81443900 -0.51569682
-0.51387781 1.35476530 -0.25105873
0.22345059 -0.49749613 0.71745229
-0.04576362 1.50937319 0.29373994
0.80263442 0.32799858 0.24140492
-0.41619685 0.87173080 0.71981168
-0.95304888 0.86275101 0.25012648
0.49567425 0.40964451 0.26954675
-0.31081390 0.92343247 -0.73496479
-0.56311673 -0.34997654 0.73403031
-0.19211452 0.49192905 0.75319737
-0.34159297 1.24080217 -0.72488266
-0.04572022 -0.20731610 -0.24525459
-0.77443832 -0.48694569 -0.07544244
-0.75425035 1.25889707 -0.68353909
-0.49570373 0.16667461 -0.24520583
-0.71843308 0.13479409 0.47421515
-0.46022847 0.83912921 -0.74041742
0.51991963 0.50802052 0.34801519
0.16952768 -0.21503240 0.77178752
-0.86166847 1.24310565 0.18744260
0.47424626 0.29592127 0.53351617
-0.68679351 1.52410150 -0.00865961
-0.72398895 -0.13042301 0.19131070
-0.17324361 1.37759042 0.73976630
-0.05338801 0.00527778 -0.37019742
0.50611746 0.22692764 -0.39251891
-0.22862583 0.74228626 0.74761021
-0.59352833 1.51653814 0.34216064
-0.84018290 0.68872070 -0.75706542
1.01945078 0.35662681 -0.23303269
-0.49619752 -0.53402340 0.14114550
-0.75483841 1.28611922 0.33167860
-0.55490386 -0.47562551 -0.06671724
0.22348770 0.61554003 0.59799868
0.99101222 0.24318424 0.08927702
-0.75197965 1.40206623 0.00734524
0.25886837 1.10863364 0.26841861
0.06634947 0.79167080 0.77593482
0.41039574 -0.01854628 -0.15096386
-0.70196670 0.75068450 0.75418389
0.66851795 1.23511004 -0.10756915
0.61265630 0.49952441 0.25786576
0.23380689 1.22235632 -0.73453552
0.07531311 1.22484171 -0.74857378
-0.49694517 -0.26002932 -0.24625939
0.65340364 0.26047617 -0.21283400
-0.46983731 1.24769771 -0.63241643
0.07886668 1.47313428 -0.19278695
0.07475218 0.00145155 -0.34362623
0.12938756 -0.18573278 -0.25616708
-0.76532167 0.11155361 0.09723721
0.24236175 0.57941031 -0.75192964
0.26276124 1.09698582 -0.74758101
0.33986342 0.14015657 -0.49622923
0.49816686 -0.01284456 0.46090096
-0.66609627 0.68911511 -0.75111055
0.27889532 1.36488795 -0.26223403
0.34152514 0.91201425 -0.73822480
-0.13437389 -0.51042473 -0.15618820
-0.54414642 0.96905696 0.74817270
0.27648813 1.23741126 -0.24397629
-0.47243747 0.24404803 -0.53350222
-0.27499861 1.24185956 -0.25912079
0.71815389 1.24161828 -0.73761076
-0.63703954 0.94913638 -0.73360401
-0.72579354 -0.48295182 0.31324011
-0.11506841 1.50271130 -0.01113288
-0.27732673 -0.11157495 0.76143825
0.56123936 0.79281485 -0.73579538
-0.77324724 -0.11166269 0.36255991
-0.49548572 0.39982426 0.74352068
0.26041305 0.40277174 -0.76343644
-1.01453996 0.28578019 -0.44559696
0.13846056 0.24005911 -0.68380880
1.00598383 0.37407520 -0.01572648
0.27276227 1.27466774 -0.72427082
0.17574947 1.24560773 -0.63991237
0.90775704 1.02437019 -0.74157888
-0.50522941 -0.36506695 0.73924983
0.44192490 0.49252042 0.51873416
0.75198233 1.06791139 -0.72852206
0.28071004 -0.20313835 0.36509585
0.96360135 0.48163581 0.00012104
0.88016415 0.25453615 -0.50650001
0.22880179 1.49776101 -0.08624457
0.25164640 1.24458575 -0.65622759
0.24864748 0.00590631 -0.16465664
-0.87222070 1.25474095 -0.30068746
-0.42147106 0.24378738 0.74532950
-0.71453428 0.43124589 0.73678982
-0.24941696 0.60169089 0.74895078
-0.08710890 0.70288330 -0.73484224
-0.45683923 0.22204742 0.75488162
0.99894923 0.64496171 -0.24539682
-0.11280990 1.23718679 -0.74036074
-1.00235522 0.91192913 -0.60135019
1.01071167 0.52671957 0.04892393
0.82328790 1.19636714 -0.75492758
-0.52990270 1.11141396 0.75081879
-0.54034048 1.37051690 0.74373823
0.97552329 0.70328528 0.26134104
-0.22423647 0.45314085 0.74882889
-0.50427258 1.51339686 0.08848950
-0.75809914 0.58174860 0.68767899
0.63377005 0.50215900 0.28019181
0.17548576 1.49057579 -0.01567486
-0.73701644 -0.51351452 0.53774470
-0.97763014 0.59222168 -0.57184100
0.95659512 0.49603674 0.25822863
-0.38095406 1.50629199 -0.20121701
0.90810585 1.26169407 -0.42789987
0.89453876 0.88457882 -0.76922697
0.93411326 0.25164771 -0.35704008
1.00048518 0.25062034 0.02641617
1.02928483 0.50526971 -0.21587731
-0.49619219 1.50252247 0.08387183
0.78023100 0.87281805 -0.77076769
-1.01173460 0.39288113 0.16104265
-0.29623571 1.23611283 -0.61878854
-0.34933943 1.26007378 -0.59249127
0.72514492 0.58371115 0.24087781
-1.00397849 0.67774659 -0.00049072
0.98559958 0.27258527 -0.67374957
-0.34660193 1.51841378 0.65667331
0.98509550 0.89457500 0.23321801
-0.56423199 0.10571429 0.73976433
-0.95760739 0.68729073 -0.74694216
0.31793645 0.23786896 -0.52685517
-0.11210206 0.38587412 0.77992821
0.90320140 1.16608191 -0.78099602
0.20533368 1.49010611 -0.14710736
-0.37679914 -0.49654186 0.76359618
-0.29225123 -0.19284958 0.76010317
-0.28719148 -0.06953859 -0.25204507
-0.73253024 -0.34588724 0.49357098
-0.50571299 -0.48116809 -0.05458332
-0.70894873 -0.51945210 0.11414152
-0.77153933 0.95578575 0.23319684
-0.18627109 -0.50029159 0.31076425
0.74367744 0.91863889 -0.73866266
-0.16296057 0.18828046 -0.50673229
0.24596360 0.19645682 0.69572842
-1.00988555 0.84572995 0.13342591
-0.64921707 1.48965573 0.76777363
-0.28483444 1.50162768 -0.06202947
-0.49891928 -0.23073852 0.75807524
-0.79823387 1.07928038 -0.76400942
0.48134440 0.72548383 0.29032442
0.19359846 -0.50071764 -0.16026273
0.47173816 1.22889102 -0.11240500
0.14515862 -0.50007796 0.35164091
0.30281478 1.25680304 -0.31198469
0.03686850 -0.48249888 0.39810163
0.27093840 -0.42450720 0.28225374
0.82117260 1.00248170 -0.73587692
0.33892491 0.00841954 0.33138150
-0.19516334 0.66383934 -0.74107975
0.65013987 1.24510550 -0.53748405
-0.76869810 -0.36690974 0.45810112
0.01225609 -0.40850711 -0.23124734
1.00157416 0.74902040 -0.57096887
0.99917072 0.46768638 0.12923425
-0.37552863 0.86397922 0.75413555
0.10822744 1.44857669 -0.25179118
-0.53985274 -0.50382471 0.38857615
0.60991412 0.27662879 -0.46200746
1.00265694 1.14764225 -0.10050248
-1.02757525 0.86053336 -0.70965487
-0.73401546 -0.19022173 0.29660618
0.46248397 0.24523464 -0.68912148
0.01885641 1.09235585 0.74377066
0.13724381 0.67412740 -0.73425674
0.25598112 -0.10805774 -0.10635475
0.36630592 -0.02036995 -0.12687540
-0.74096823 1.49164259 -0.22884759
-0.50085372 1.52839208 0.23998378
-0.74663800 -0.03963649 0.65578496
0.76381117 0.24472398 -0.38853309
0.99410534 1.10131431 -0.03419752
-0.04856656 1.16765666 -0.76353383
0.23554133 1.16637528 0.34556460
0.96267027 0.61516792 -0.74868906
0.01344307 1.48337376 0.29047439
0.42521822 0.04355580 -0.51871336
0.22271876 1.25271416 -0.59717762
-0.75030518 1.35247242 0.13796465
0.99808598 0.58338726 0.15063746
0.24490646 1.47402406 0.12457635
0.05067080 0.95801365 0.74573863
0.28900114 0.95732647 -0.73851663
-0.01157705 0.75664115 0.75441128
0.41252968 0.02208456 0.37501997
0.39871669 0.71242112 0.48836070
0.23610041 -0.48893428 0.47370991
-0.31035396 0.08055568 0.74293220
0.31283116 0.24070722 -0.58382452
-0.28279442 0.24168471 -0.76187646
0.21241231 0.64359492 0.74299622
-0.34862992 -0.00497043 -0.42931557
-1.02099645 0.27446955 -0.18108584
-0.97820187 1.25862241 0.16396068
-0.14840312 1.24516487 -0.58035934
-0.13072655 1.24989033 -0.70937330
0.43783930 0.27808738 -0.74490786
0.27286091 -0.24047369 0.74924254
-0.15777221 1.51389527 -0.20351849
1.00492787 0.73234695 -0.23140542
0.00266328 -0.48602092 0.36986929
-0.34318370 0.83745050 0.72343850
-0.74060243 0.43874115 0.47731590
-0.76919872 0.81406587 0.25863895
-0.70264745 -0.37459785 0.08579077
0.47887176 0.11951697 0.04267316
1.00189602 0.91090202 -0.18542102
0.14162561 1.35442352 -0.25345996
-0.89134187 1.24130809 0.25808096
-0.97740030 1.11527109 -0.55861056
0.39453545 1.26799774 -0.39034635
-1.02143514 0.37389243 -0.04391249
-0.59882027 -0.47789627 -0.25478685
-0.74826479 1.19795585 0.52588999
0.98561227 0.70838052 -0.71554720
-1.00481105 0.87112796 0.09127358
-0.83040744 0.82947034 0.22990014
-0.74467301 1.06680501 0.43058184
-0.89112729 1.25904965 -0.58855015
0.97527182 0.59641361 -0.29754519
0.51005566 0.10134113 -0.05088393
-0.02830379 -0.25008917 0.75573742
0.26100269 0.22997394 0.60933650
-0.74652648 0.76259029 0.72116560
-0.78410673 0.27156568 -0.02334231
0.23498978 0.01684523 0.75167495
-0.31408113 0.48293483 -0.74378955
0.81784403 0.24196926 -0.51712102
-0.69568223 1.50288498 -0.23777074
0.04289389 0.67480099 -0.73531687
0.08133447 1.48602629 -0.23417778
-0.73327744 0.75928175 0.22624335
0.49720785 0.18568927 0.00361284
-0.06026819 0.40667376 -0.74898088
0.51976532 1.25815368 -0.37133229
0.24571815 -0.18710810 0.39284277
0.99320197 1.25275373 -0.65502715
-0.10357347 -0.48228043 0.73757207
0.48891529 1.25015831 -0.70277375
-0.10156290 1.44319606 0.76370907
-0.09200568 -0.50061655 0.71158910
-0.24652304 1.24089587 -0.50366843
-0.51283067 0.24605635 -0.27737203
0.23879798 1.13326275 -0.74249387
-0.06463865 0.31297636 0.75616693
-0.99403328 0.61321110 -0.15613844
0.42088097 0.01170257 0.35044515
0.93134844 0.51992470 -0.75971079
0.47052038 0.21334416 -0.51099914
-0.98857838 0.39225093 -0.46000850
-0.74290788 0.88811815 0.37843302
-0.95466340 0.28182188 0.25831062
0.97414243 0.26345217 -0.23397762
-0.74585074 -0.43783355 0.60297662
0.58801740 0.79236150 0.23862275
0.25504616 -0.02238476 0.72189629
0.96813130 1.03523445 0.22582428
-0.75227886 0.01824397 0.25947309
0.04379372 0.24640566 -0.72525990
0.23698016 -0.20463121 0.13901132
0.46618500 -0.02079821 0.30105239
-0.53206521 0.99309117 0.74685836
0.94353074 1.26328182 -0.04678052
0.25860199 0.57181031 0.69808042
0.34789681 0.26511723 -0.76085436
0.25917625 -0.38737410 0.41300163
0.31686494 1.01533127 0.36760271
0.24609587 1.25239778 -0.37313351
-0.25977406 -0.48535740 0.74447578
-0.59297574 1.24591172 -0.50644851
-0.43423599 1.36514831 0.73111963
-0.32819980 1.21358407 -0.72876078
-0.73388690 1.01463914 -0.75686026
-0.98447526 0.91389906 -0.14335881
-0.86208051 1.23236847 -0.58011109
0.56286240 0.24524066 -0.32262790
-0.75007319 1.23716283 0.66856807
0.24363104 0.25209203 0.58460677
0.44265154 1.17940247 0.23684406
-0.72953999 0.42611635 0.74961871
-0.66694695 0.61954856 0.76661211
0.38245201 0.98785555 0.34103742
0.23733962 1.31383801 0.49262887
-0.28024772 0.48741361 -0.75023526
0.50402576 0.80054712 0.35050187
-0.45618671 -0.16517580 -0.25152978
0.17745917 1.04017544 0.76876742
0.73491591 0.22086784 0.02015895
-0.67209089 1.52157879 0.14415105
0.24876715 1.07020831 0.52061260
0.41646826 0.42281491 -0.73146272
-0.01180969 -0.51000547 0.24316241
-0.50736171 1.50050211 0.64334810
0.79261112 0.44816321 0.27055588
0.87497342 0.63400847 -0.75960618
-0.74000800 0.51719588 0.69590390
-0.88987857 1.26812553 -0.34164673
-0.54947650 -0.47404873 0.38391331
0.04363201 -0.52049232 0.43652067
