4.77665615 79.15707397 7.76973915
6.61173534 74.58271790 -4.17429399
-3.84574699 67.20058441 5.70383310
6.69560432 72.93936920 2.71210814
6.60098457 76.15396118 -1.80028772
-2.84878087 77.83477783 -1.70393682
-5.68491220 77.71373749 4.49902201
7.42308569 80.54911804 3.79175162
7.15822363 76.43692017 -8.47758484
6.37448168 75.39137268 -1.72581077
8.69038391 79.26177979 5.29957819
4.43048525 64.74136353 -0.89036405
-4.50597811 80.42786407 2.30381918
-5.86571264 80.54565430 7.10444975
-1.51446843 80.71173096 0.01368384
-8.21016121 78.29501343 -5.38498068
-6.41044712 80.47518158 0.07802965
5.80315924 78.32556152 -4.14126682
2.35087943 69.49155426 -5.76600647
-6.99280262 74.14848328 0.34362987
0.63405991 69.84741211 6.26964521
6.38103485 78.13155365 5.85599899
2.86104083 80.53359985 -2.29115725
-3.63607121 77.75733185 -3.01751876
6.57700968 75.32390594 1.95246291
-3.45605183 70.65198517 -5.99000931
6.51346588 73.66974640 3.29434800
-4.32971525 77.58138275 -6.62223530
1.19780195 69.62079620 6.17847824
4.46141005 79.98069763 8.70058441
-4.89876938 64.66740417 0.75325167
5.42658091 72.11378479 -3.58770061
6.54541874 68.93821716 -0.30253780
3.95658588 64.00814056 1.87632442
8.13621807 73.84739685 5.50660181
9.20249653 79.78382874 -5.82040358
-2.72442245 75.07596588 -6.96133852
-6.58238935 77.81273651 7.85341883
6.70509052 74.37000275 7.88308334
7.04894781 77.85080719 3.79385281
2.51108885 64.08316040 -3.04967356
2.17467284 80.39556885 -3.39367151
6.70461321 71.85459900 1.80890954
-7.89379978 76.91559601 -0.87427467
-5.92443562 77.46097565 -8.48201942
8.27866268 80.83264160 6.95221090
5.95000124 71.59874725 3.55922794
-8.28565598 80.44266510 6.26430750
-6.30690336 78.07051849 6.99320173
5.75551081 67.55458832 2.37578130
8.45291138 74.89218903 -7.45845604
-6.10098743 75.95597076 -8.08478546
0.21443184 80.55781555 -6.64252472
-7.89292240 79.43068695 -0.91509777
5.13392067 70.50628662 -4.43590832
-0.08217468 80.41503143 1.91744637
-1.95278943 80.51725769 2.90467930
7.72095013 78.24360657 8.73773003
1.88020337 80.88290405 0.27841362
2.26524830 64.15075684 -4.33449411
2.86661959 73.67935944 6.81462288
3.80863500 77.29293823 -7.28277302
5.21738482 73.39407349 5.47351980
-7.97589874 80.79889679 7.98710680
5.37929153 76.33451080 -1.70863140
0.97197974 72.13052368 -6.07441616
1.01054299 77.99200439 2.81547189
6.61418962 77.94244385 -2.89474988
8.60041523 75.99008942 6.32889605
-7.93966770 78.39210510 8.30738449
-1.47406328 74.39971161 6.37341881
-2.83669186 77.71163177 4.96188879
5.22112274 77.88617706 -7.06490660
6.62373114 74.01967621 0.01523095
-0.82049185 80.55749512 5.46956062
8.11242867 75.08438110 6.08005476
7.58803320 80.27153015 -7.52813625
-2.85379457 78.01439667 6.98595667
5.98245430 77.43195343 8.29742622
-8.78103638 80.70047760 5.78631735
-1.02323401 64.40704346 -1.14246309
3.95387292 76.91554260 -7.24908066
5.44086266 77.93699646 -6.45392704
-4.13919210 77.31395721 5.94191027
5.23534346 80.51856995 7.38700294
-8.75685215 80.57796478 -4.52297068
1.45020950 77.63018036 -0.37230298
6.02666521 77.73644257 6.65253782
5.99696064 80.70169067 3.48359871
-5.57153416 80.40499115 -9.01929855
4.57667303 74.69320679 6.49924135
0.97020030 71.74431610 6.77017355
-4.59284973 65.67609406 1.19266522
-5.03242826 80.69027710 -2.14606738
-8.19418812 73.77667236 -6.01461124
-1.35297990 77.61329651 6.63532257
-1.06481886 67.76898956 -6.28256845
7.02664948 80.72612000 1.96692276
-7.66817522 78.06858826 7.07589340
4.97023773 80.61531067 5.49623251
-5.80302048 74.88161469 7.52218056
-0.51102734 64.21585846 -0.72068256
-5.98999548 73.54667664 6.96095276
4.73752260 71.29158783 -4.17130327
-3.13019133 77.19921875 -6.22567415
0.02857208 80.03077698 8.69664574
-5.01043320 73.72731781 5.56276321
8.43021488 79.23783112 -6.14682817
3.34466720 69.93439484 5.95015240
-6.77901697 76.80188751 1.01935148
-6.64494467 70.89116669 -0.34352261
-0.82524282 80.68244934 6.74397898
-5.56778097 74.71791077 -7.70816612
-7.21007061 77.79186249 4.30267715
4.39601278 72.68030548 -4.69396830
2.32321024 80.80664825 -3.10785985
0.42091000 63.92151642 4.47110510
5.56286907 77.51686859 -2.16196609
-0.21368304 66.98575592 -4.99982357
-6.35073948 74.01187897 0.97734463
6.50380278 80.47357178 5.35012245
4.73243189 72.52045441 -4.03279400
-1.68307924 71.90883636 6.65049887
-4.03862143 77.69165802 -0.59283096
-1.81296480 80.74220276 4.73176289
5.12850761 69.70504761 -4.29046249
4.90883732 74.44535065 -6.73876953
0.88801360 72.57939148 -5.87720442
4.24949312 80.62417603 -0.40414703
6.20086288 72.53234863 -3.57144475
-3.76000643 64.17395782 -2.62623644
-5.33571863 73.96583557 -7.52319908
1.64305294 77.93717957 -1.10983849
6.96549797 74.97668457 -3.48559475
6.12944412 78.12832642 3.70046806
7.54504490 73.62782288 -6.03865814
-5.62785864 71.88430786 2.89652967
8.89383030 80.48258209 -5.22089195
5.28730822 72.44937134 -5.21503401
2.39985442 77.91384888 -6.73578405
-4.73748016 67.61874390 0.99573743
1.12180769 71.93064880 -5.51872587
4.73021269 77.90419769 -3.26731896
-5.72513533 80.62481689 6.52493095
-4.29356766 79.44945526 8.29323959
-5.63293552 80.63426971 7.52766037
-2.52966070 80.79203033 7.77369642
2.70400023 76.84500885 5.82025766
3.26393414 80.77204132 2.44819975
-5.92093468 77.83869934 1.13784838
-2.29616141 70.24249268 6.48513985
6.18915844 71.22394562 -2.64898825
0.13864560 79.16763306 -8.49263763
-0.00943501 80.62767792 -3.75085831
8.75666046 78.94210815 7.56734133
-6.76752806 72.30348206 -0.62261194
-6.94943142 73.81130981 3.05349755
2.82538772 78.68161011 7.58345175
0.83704132 69.03958893 6.52472591
4.48009348 69.68842316 -4.95981026
1.14102888 65.40004730 -4.76434469
-2.14727259 70.43474579 5.94434214
5.82388735 70.18025208 -3.80753517
-0.39111471 80.86790466 1.29372096
-4.52974319 77.22359467 5.71107531
9.35557079 79.78479004 6.89977503
8.16062546 74.62343597 5.68544388
5.57588100 75.06562805 -3.35920930
-4.17686272 65.17884064 2.61487603
-0.96681750 64.33256531 0.53639519
2.51458812 76.11364746 5.26511860
3.94083977 80.46987915 -7.64539099
-6.91060781 76.33557129 -2.99894023
-1.93317819 77.64885712 1.47301900
4.66184855 77.91365051 -4.46610355
-1.49285138 67.96673584 -6.22241735
6.03690767 72.23004913 -1.87576365
5.89340210 70.68386841 -1.84598613
4.23651218 74.65264893 6.47954369
-8.29127598 80.77720642 -6.11020851
-4.12074280 77.82312012 -0.47757354
-3.36482263 80.61436462 -4.64651203
-6.56907511 69.63667297 0.73836899
6.63738775 78.43202972 -6.88495159
-3.48887062 70.45204163 -6.36612940
0.51814020 77.65923309 2.24329209
-3.49600673 64.18687439 2.73388982
5.82582998 72.46157837 -2.81265545
-7.68652344 75.02709198 8.31127357
3.28509545 67.17269897 -5.09031534
2.30395317 70.68568420 -6.73864746
3.61439586 77.70530701 -7.47688293
5.05680132 71.69921875 -3.86970592
-4.94262362 80.49904633 0.52481043
2.85850716 80.49934387 5.63662720
5.88791752 69.71256256 -1.87719274
-1.63261974 71.82380676 -5.88124514
4.98518181 74.48950958 5.87123537
7.16096020 73.90742493 -2.66878605
8.98464012 75.57676697 -7.36237764
5.22957373 75.12684631 2.42808962
-6.23847532 73.71380615 -6.20670271
5.02958918 74.21533203 -5.00914240
3.01873755 73.18785858 5.97484064
0.11922280 77.39750671 7.67736864
7.87895203 77.30883026 4.96291161
3.10750365 78.07707977 4.03513575
4.49409151 73.45159149 -4.42133951
8.84447765 80.57800293 -4.35480928
6.05358028 76.90484619 -3.28876257
-6.89880133 71.99861908 1.03016865
-0.98986959 80.67871857 -4.49070692
-5.86097908 79.87077332 9.35579681
-2.31233573 80.67308807 5.64684105
3.70131564 73.79295349 6.96083164
1.17773473 73.41891479 -6.35631704
6.67692375 80.66835022 -9.42629242
-4.06629086 75.24839020 5.32782888
-3.50855803 74.56968689 -6.66504288
3.37660217 80.49177551 -6.00280237
-3.11403775 77.94220734 6.11848211
-0.56465298 71.18772125 5.01744223
-1.37770545 80.61633301 -7.59479952
1.57755148 77.00317383 6.96210814
0.41316780 64.18131256 4.60337830
-2.27796984 77.74446106 -4.95644236
-0.28374788 79.10166931 8.40773392
6.41420364 73.84034729 -6.60368347
8.53619003 80.55441284 -8.04943657
9.37471771 80.10054016 5.90925550
7.95095253 80.55236053 -7.11371136
5.97830582 77.59349060 -8.16298485
-0.46863970 80.60523224 5.65985250
5.06797743 80.56653595 2.69748950
3.67118168 70.17811584 -5.88611889
-6.27725935 70.75049591 -1.57972586
5.26896095 68.03559875 3.50620174
5.84319353 80.52890778 -6.52377081
-4.79496717 68.24005127 4.40123749
1.95527399 75.55543518 -5.41968489
0.04508865 63.94629288 -0.95261806
7.79394579 77.78397369 5.43466568
3.92467618 64.25989532 -1.48561132
5.10107136 71.71110535 4.56271172
3.05443907 80.40653992 7.75410461
-8.39306164 80.51309204 3.05711269
2.13534641 76.77305603 5.41549158
-1.50470710 80.31854248 -8.10709381
3.75722241 77.76222229 -4.35885334
2.07055616 77.81938171 5.69247103
5.72083426 80.50460052 6.48202515
-6.82190895 74.05368805 3.08906198
-5.53310919 73.91002655 7.39776659
0.90606201 78.07484436 -2.17253160
-0.09772209 68.95465851 6.45972061
2.50772476 77.83270264 -5.05630207
-1.07063282 77.73551178 -2.56437659
-0.25377318 67.40415955 4.81501913
6.21150827 78.29001617 4.05765629
-1.85044074 77.21274567 7.23213196
-6.33358669 78.30494690 -8.44351196
-4.43181229 78.85742188 7.52978563
0.72056514 75.29482269 6.69691849
-6.37230158 67.61845398 -1.75419176
8.45519829 74.89745331 -7.26514101
-6.87304354 80.51335144 -9.17399979
7.05476952 75.67739868 1.22903299
7.76630545 78.21812439 -8.35763168
-6.52537870 79.97341919 -9.87780380
-1.80362856 66.86551666 4.32675409
5.76540327 74.81980896 4.40826797
-5.34389400 75.08538818 2.08248234
-3.64689136 76.77805328 -6.89332008
2.77691460 67.18363190 -4.01952219
-6.52402878 76.85707855 -3.08077693
8.20878124 74.17365265 7.05893755
-3.67884350 79.54255676 8.15029907
-2.26123905 76.22103882 -5.95458364
-8.51619816 79.13793945 7.75558710
-3.95237255 64.53232574 3.06311321
-1.67567790 64.93345642 4.48578072
-8.81538677 80.35508728 8.54788780
-6.91791439 74.03568268 8.09591866
-7.50023222 74.56601715 -4.54455566
3.63084579 77.46448517 5.32288074
-0.31681442 79.42955780 7.63341570
6.35627317 75.61664581 -2.43951893
-0.80658770 67.30416107 6.05873728
-4.24362755 69.53012085 4.79096556
-8.89971542 76.45462799 -6.48874569
8.33246136 78.95423126 -7.65017366
-3.67179513 66.13901520 3.39042020
0.80945432 64.06665039 -4.83176565
-1.13107777 64.08497620 4.66698360
-1.88986111 73.17684174 6.07170916
-4.22049618 74.57070923 5.05288839
6.42318249 73.50634003 7.37748528
5.83417511 69.34843445 -3.86464071
1.33284771 72.72042084 -5.09815359
7.38223600 79.02799988 8.74705124
-3.92384386 77.26962280 -5.15384340
-2.48147917 70.52458191 5.63116217
-4.52761745 76.98758698 5.22801161
6.88172483 80.02410889 9.60982323
-2.80738330 70.03504944 6.11854124
6.63565063 75.03977966 1.96590555
-6.63885307 77.67123413 -1.97239363
6.24700308 67.22115326 -0.56974590
-1.50690937 67.66216278 4.80322218
-2.61368465 67.42364502 4.32918501
-5.90830755 67.12559509 2.44394398
-1.56938851 80.38807678 7.62598038
-1.71430635 72.85888672 -6.76453257
-5.50355339 69.06548309 3.23827195
-8.76242542 79.55476379 -0.49304569
-1.11138284 74.54277802 -6.78638220
-6.27209663 76.37556458 3.00810647
-2.13049126 70.40969086 6.06879663
-5.38372898 80.81437683 -8.94007111
6.68699312 80.64591980 4.41240406
5.54165602 71.72516632 3.50273776
1.85104978 69.63781738 -5.96229982
5.80604506 69.33509064 -3.46689415
-8.33434391 81.00653839 5.06481361
-4.97437048 74.35915375 7.39557838
1.42072845 68.81262207 6.65508652
4.05881643 67.23645782 -2.63203168
5.70657015 75.63401031 2.49704528
-4.58559513 64.04598236 -1.10374188
-5.57055569 77.48917389 -8.05250168
1.44921243 77.15718842 7.01582718
-2.07443905 74.74394226 5.30776358
-8.15156174 77.20925903 6.91960192
5.20245266 77.31080627 -7.75310135
-6.78155804 72.11775970 2.15545201
4.36440086 74.39549255 6.21870327
-7.46499872 76.17951965 -5.65560102
-3.32661557 77.18496704 -6.80899906
7.34191322 80.45950317 -4.98379135
-8.49511909 76.43283081 -7.14569855
-8.54892349 80.73384094 8.78010559
-6.07192135 74.31188965 2.83376336
-6.59873724 74.54685974 8.67331886
-1.62650907 64.10039520 2.43664002
-7.60910892 74.71693420 7.92010975
-1.55130804 66.53569031 4.48145533
-4.58217049 74.06843567 5.69678211
5.43904400 76.25531769 2.97998691
5.09011173 76.59054565 4.59467363
-2.27765155 70.32575989 5.85548544
-3.61949134 75.38789368 7.28137541
5.47038174 74.89066315 -2.04718399
7.46630716 76.89355469 4.25449514
3.27367067 73.39064026 6.12505198
3.07343984 75.06310272 6.89279032
2.97903824 74.02204132 -5.90334129
-5.65368795 76.53169250 -3.37440133
-1.35452569 80.50700378 -2.61341405
1.16312230 73.81101990 5.81445932
3.50858736 73.83001709 6.50725508
-4.77189302 74.62384033 -7.22462749
4.86914444 64.52796936 -1.44747317
9.35762215 80.33333588 6.73870707
-7.62017536 79.18952942 -0.07237456
-9.44220924 80.47926331 -6.53473234
0.12123195 80.65153503 -7.81066895
-2.36761737 80.43539429 -3.73509169
8.65105057 80.26792908 -3.04231358
4.08261108 75.52844238 -5.47777462
-5.79669237 75.55110168 -7.57819986
3.30132842 76.91123199 -6.56188393
-5.53660917 77.98197937 -4.94293022
-7.14666653 78.09138489 8.03215599
2.17534733 69.50106812 -5.81258917
-1.78745770 64.22708893 3.17431021
5.19356060 75.79053497 7.70537806
-8.07652664 79.41988373 -1.17596042
-5.40895128 72.51051331 1.37102413
7.49708319 80.23647308 0.07771180
8.12477589 79.08655548 -3.37776542
7.68474150 76.59211731 5.40162039
1.56238151 71.74679565 4.95487690
-6.39986420 67.13497925 0.72188777
4.06611443 80.56667328 -3.73021436
7.49881077 73.91458130 -5.74293280
5.37841654 74.45568848 5.22074795
-7.21528196 76.22058105 -2.93474174
6.09558678 75.86366272 -2.29258704
7.46253824 76.50720215 -7.73129034
4.60889673 63.98973465 0.96143651
-1.76733398 74.72631073 5.75852776
6.41014957 70.05311584 1.69020689
5.69695091 80.59874725 5.41929150
-2.52846575 80.92387390 1.20670664
8.80659294 79.14291382 6.70262384
2.57546115 76.69503784 -5.23614645
-0.51836318 63.88737106 -2.10271668
1.81002367 77.88824463 -2.81484437
-3.99413919 71.00451660 4.64565563
1.39736044 77.03123474 7.08525229
1.03107738 71.90528870 -5.32122898
4.25028753 77.63833618 2.40862870
-5.92343044 75.42247009 3.48986173
-4.19963503 64.12380219 2.05881238
7.94591951 80.68576050 -8.59185028
4.43981457 67.28726196 -1.23808718
1.26358283 80.50153351 -3.86957121
7.55315781 80.68033600 -9.35237885
-5.77353334 77.70095825 1.36499381
8.47421837 79.33790588 5.45695591
-7.13233137 74.65213776 -2.56173372
3.97050953 69.00095367 -5.76966619
6.48275471 69.18214417 -2.27224278
5.67016745 71.91418457 2.57835031
-5.29085207 76.61217499 8.01933098
7.21235085 75.53754425 4.59986591
6.57112551 80.39720154 0.73892015
6.69138241 73.68843842 -6.20377684
-1.08754647 73.25904083 5.51421928
1.97211480 80.62728882 1.03804338
3.86715913 80.66156769 4.36785173
5.61790562 71.58544922 -2.08294058
2.06047678 70.01155090 -6.12003851
5.91668558 67.39159393 -1.80669546
-7.63013124 77.85598755 0.61859214
-10.16050720 80.19939423 -7.35815763
-2.48494625 63.92716980 -4.12135506
-4.68092680 78.77613831 7.63542604
-0.92821181 64.15375519 1.89395702
6.08191872 80.71964264 -8.11521149
8.27026463 73.97483063 -5.94049311
3.18103766 64.10975647 -1.23395360
6.09328365 74.74845886 -2.13356924
3.37850618 73.32008362 -6.44041204
6.29332733 69.55571747 -2.36015797
-6.80164051 72.76294708 -1.98957765
3.45957255 74.32210541 -5.29423523
4.72130537 74.00591278 5.00163841
3.25333834 76.43432617 5.45381212
-6.17744589 67.40998840 -3.12315893
3.40681100 73.63872528 -6.18049383
-2.46710563 80.40063477 1.91678417
6.76641178 77.23938751 -1.00400519
4.21522522 69.71979523 5.24051619
5.43966579 73.78693390 7.86673260
5.17032862 77.49910736 -4.72495222
-6.57811594 74.93771362 8.54479790
1.28320575 63.81933212 -0.73027873
4.74948502 75.45546722 -4.76374435
5.51815796 71.77082062 -3.40632629
-3.62793684 76.56325531 -7.30085802
-5.64994383 80.69157410 -2.02551174
-8.80943108 80.66047668 -6.43646574
7.13646603 75.61183167 2.42998743
-2.46633983 64.25823975 0.51741797
1.64276958 80.61943054 5.27308702
-0.88308483 80.59762573 -0.05515575
3.88670731 74.69547272 -5.22383165
-0.71226776 80.72561646 -2.69572783
2.80247283 80.44224548 -0.19055998
1.25165451 80.69707489 3.06224608
-4.81334877 74.52877045 -6.29116249
-6.81312513 80.55752563 3.12186193
2.67042089 66.65317535 -4.19173288
0.41218480 78.41131592 7.33455706
4.99233150 67.16996765 -0.71003008
4.55979586 71.81169128 -5.18018627
-6.54021454 80.71181488 1.80161488
1.99986541 78.96434784 7.51412010
7.52024031 80.58811951 -3.61432409
-3.54944229 67.49282837 -6.05513048
-3.68131971 80.62723541 -3.40852809
6.16760254 68.44597626 -0.31273174
0.95557928 77.79470062 0.64061034
-5.77625799 77.92300415 0.37301761
4.96895742 80.60473633 -1.20702517
1.13821149 65.51549530 -4.87834835
0.54670334 71.47306061 5.90916443
-0.19424453 74.61864471 7.12794495
-6.31442451 77.99037170 -0.51192784
7.53932428 76.49562073 5.49534798
5.96652317 76.76940155 -3.65933466
6.44827032 78.03697205 -1.56185484
-6.72615385 79.31477356 8.36417007
7.81890011 78.46464539 4.33757877
0.44458941 78.94326782 7.34892845
-4.75328493 78.53575134 6.00220203
-8.73848820 80.67987061 5.07075882
6.60363722 77.61323547 3.45871043
1.62096548 64.15486908 2.15421510
5.19245386 73.47201538 5.33412409
-1.58893394 65.80777740 4.83052015
7.75121880 76.82514191 -7.70688677
7.20764017 78.29132843 -6.20433044
3.50517535 72.39651489 -5.17483139
4.55055571 67.06652069 -1.48560476
-7.11146736 74.00802612 -2.33010364
7.12014437 76.59481049 3.13746119
1.82858646 64.65188599 -4.58188057
-7.67777205 76.97084045 -0.55473816
6.07698536 80.67997742 7.74792862
-4.89652634 80.77501678 8.42009735
9.81527233 80.32156372 7.72408533
5.35645294 76.87941742 -2.75372124
-6.70798874 75.41916656 1.04697716
-4.48275185 69.38282013 5.28628922
9.16167927 80.15436554 -8.32553101
-5.62712431 73.89650726 -7.72344112
5.53124905 71.12937927 -3.28644037
-7.09060383 74.40943909 3.77555537
3.41461658 80.72053528 -6.02781868
6.91123486 80.51118469 8.52268982
2.91029263 73.49288177 -5.79855251
8.96618080 80.29751587 5.26217222
5.06141520 80.00121307 8.82033730
5.40336370 67.65728760 -4.05691433
6.54732895 74.82302094 8.51902199
-1.26393378 79.37642670 8.42329788
-2.26474857 77.71360016 -1.06268942
-6.58921909 76.83105469 2.87231994
6.43104506 75.76431274 -1.18368757
4.11090279 80.44444275 3.11828232
4.87404537 67.55305481 -3.83488107
6.00037670 69.22328949 0.54203427
2.72633362 64.18560791 1.55498278
-5.47781277 80.74112701 -7.43974066
2.77101088 72.82157135 5.39485455
6.02458143 78.40935516 6.25856161
7.00158024 80.60642242 -8.25794220
-0.57309186 63.99975967 -1.15042770
3.71503329 80.55137634 -5.72936726
-1.26638889 66.09646606 4.80847549
-3.71270895 77.79109192 1.60126495
2.87287164 77.40881348 -3.01698017
-6.93212080 77.38015747 -3.69916868
4.93441725 78.26745605 6.08844519
-5.44534206 76.92958832 4.68610620
-0.04253716 65.41358948 4.92663193
-8.74895000 80.22775269 -3.68618560
7.14449549 78.03518677 6.01024580
4.69513464 78.53807831 -6.12559843
-2.56462646 74.00418854 -6.69117403
-3.91848660 77.84909058 -3.73046184
5.43185282 80.43141174 7.47122526
6.09796143 73.63757324 -2.19210696
1.47418845 65.50490570 -4.88576984
-5.25241137 75.67360687 1.91172183
0.13092414 80.61980438 -4.51122475
-1.43421888 70.39661407 -6.71966648
-0.67442632 64.53600311 5.07043791
-6.44250393 68.48389435 0.10556257
7.73195982 80.57487488 4.54597950
1.38004732 67.18085480 -6.20740652
-4.60421753 80.48499298 -7.63375616
2.83290744 64.13132477 -3.97656631
9.47350788 79.45422363 6.90693808
4.44496107 73.49461365 4.70339775
0.07308424 80.64726257 8.34299278
-5.55243111 74.82679749 5.12675476
5.73806667 80.69001770 -3.27194357
-4.55235529 71.62754822 -4.87964535
5.90215206 74.56586456 -2.51709127
-3.25586987 75.36563873 5.72641230
2.30325842 76.29269409 5.39443350
2.02741385 67.39601135 -4.27616739
3.45216036 78.09221649 -3.94514632
1.75499833 74.07575989 -5.87588978
6.25627041 74.10094452 3.38524699
-5.69010639 74.40834045 2.96655941
6.17084789 75.98054504 -2.88668299
4.53988791 72.90749359 -4.51289892
-6.55329418 76.35426331 2.34701371
-6.26637983 73.96430206 8.30031204
5.39200068 80.85674286 6.11687469
-5.87835026 70.30413055 3.55502486
4.52097511 77.50215912 -7.07322550
7.79915810 80.72109222 -0.24057794
-2.23854423 80.70549774 -7.82205248
-5.03176737 72.81421661 3.79143834
-4.87027454 76.13984680 4.61642981
-2.06585598 80.68545532 0.48336434
-7.91171455 74.99122620 -5.03879166
-6.39703274 80.42651367 -2.12522268
-7.42178726 80.36954498 -5.36721563
4.00626373 75.62483215 -5.46743011
4.63235331 73.52613068 -4.50191641
4.04747009 63.72932816 2.56839085
-2.60536051 77.60306549 7.24816132
4.88695955 77.90124512 7.60223484
7.93053007 80.67845154 3.03830743
-2.11177659 64.20966339 -2.51582599
3.64583659 64.05304718 -1.94733000
-2.12916708 77.70677948 2.97284436
3.49127913 80.73152161 5.34900475
6.04014969 77.77990723 -2.17519879
-1.91392374 77.73500824 5.74385929
7.23584318 77.33940887 -8.01296711
1.55427194 80.56174469 1.99155235
-3.99997568 67.34085846 5.27713442
4.76910973 80.62203217 -7.42759132
7.76342249 80.72524261 -1.97736990
6.08598518 76.58398438 8.45042229
7.40178013 74.15460205 4.44958925
3.64025831 75.00440216 6.96671009
6.69752502 67.63613892 2.10068822
6.11695147 70.49901581 -0.37562817
1.70351994 73.42395020 5.41633558
4.57718897 65.63358307 -2.00427866
-0.87586880 78.30985260 8.04336357
8.05708885 78.97049713 8.50033188
-4.78140259 76.35944366 7.64875221
-1.03069925 75.66581726 6.89170122
-2.24653649 64.27713776 -3.16239882
-8.10230350 80.65148163 -9.27248383
5.96712065 73.99874878 5.10281420
6.63260984 76.72049713 -2.02205682
-0.87305635 67.05722046 4.66410685
-1.07791901 80.67958832 2.01171708
-5.46975374 74.29386902 4.66957331
3.63460588 77.80120850 4.27277470
8.17450809 79.52365112 -1.60331357
-4.16685772 66.44152069 2.11999488
0.22846365 65.87769318 -5.12283707
-6.18787050 71.45810699 1.34280884
5.20704174 79.50235748 8.52738190
2.35864472 77.75190735 1.54639769
0.49270841 72.41548157 5.73292208
8.54450226 74.92127228 7.47759199
-1.55054057 72.44088745 5.68023968
-3.49506330 66.72145844 3.41830349
-7.58431864 74.53318024 -4.16701317
9.10878181 79.17339325 -7.22856426
-1.29192662 68.01682281 6.00624514
1.16626108 64.28620148 -1.89208412
6.50789356 70.25716400 -1.00513649
2.38947034 75.62157440 5.15434074
7.67670059 79.25844574 -8.88826370
3.47393060 80.64878845 -0.03164517
4.90134144 71.25314331 4.82000923
6.70696211 76.02532959 -8.78315544
4.21263742 68.23435211 -5.36227417
-2.78274059 64.38033295 3.85119438
3.46181488 80.63377380 3.45137286
4.26204586 77.93495178 -0.13393131
1.41117418 74.13216400 -5.97181559
4.72692537 67.15544891 -1.74789917
-6.87330055 71.55233765 -1.58616006
-4.20009899 76.18740845 5.36131096
-5.75264359 77.91295624 4.30883455
0.24396612 80.60337830 -2.20104361
-3.31204009 77.71854401 2.24455142
8.00858212 79.21569061 5.16467285
7.88808107 78.88831329 0.83292210
-5.51181602 80.60219574 0.04489830
-1.84316957 65.77139282 4.57184839
0.88567275 80.46882629 5.22201490
-0.92699885 77.75630188 -3.30276823
-0.07471224 80.73284912 8.07889366
-6.91618013 71.79359436 1.60589242
3.69127154 80.64568329 1.07272339
-4.05344009 75.01533508 6.85930014
-4.94438219 67.23966217 4.69298935
1.75867379 74.35416412 5.88753414
8.01476955 79.49366760 2.10427880
-5.07893276 77.74813080 6.31532335
8.41358852 78.91104126 5.73587561
8.78469181 74.89382172 6.35690451
5.16191959 76.77424622 7.32373762
7.61624861 78.81336975 3.42799830
2.23287320 77.81548309 -4.30149603
0.29459673 77.92964172 0.33374804
5.01683760 80.33195496 7.02608824
-8.79785919 78.95779419 -6.93272209
-3.59175396 74.51914215 -6.69697666
6.14159966 68.36109924 -0.42704308
2.71482706 77.92162323 -3.62865090
0.39223370 80.53745270 4.24376774
-4.15251398 80.89539337 5.48504829
6.92130661 78.06707001 -2.85793328
8.26356983 79.68999481 2.13260603
6.18564415 73.54511261 -2.45435286
1.19080079 64.40814972 1.18744004
-5.88669777 80.69459534 -3.11617446
5.59469223 69.66414642 -4.20285749
6.63230801 73.75769043 7.00019884
3.29080629 77.40214539 5.81917620
-3.50025988 80.45164490 -6.54666853
-0.72243488 64.24488831 3.05205345
-3.63825917 80.78864288 -8.52569962
-8.09412479 75.18968964 7.33380079
-7.33402157 80.76241302 6.61883831
7.14260960 74.81944275 8.23456764
7.94973564 80.65378571 -6.53463221
-4.81382370 66.79968262 1.56982946
4.47380304 74.11105347 -4.97293901
-7.50185776 76.86560822 -4.04320288
-0.44255322 71.92437744 -6.71559238
1.04069257 80.63619232 -2.42182136
-7.77743959 76.69007111 -7.71122742
-2.83885694 63.86508942 -2.88714981
-0.32496849 64.05754852 0.21268746
-5.16131783 68.97359467 4.32287169
-6.95604992 80.68362427 -7.42918539
4.54079533 75.70162201 -4.99702024
-9.41412830 79.74389648 -7.00109673
-2.19344592 74.11853027 5.46459389
-6.40702009 79.99925995 -9.25393867
1.75459480 80.59055328 -0.35939965
-0.03143342 77.84690094 -4.19864845
-9.09451294 80.27548218 8.51335716
-2.04877067 78.93634796 7.64167500
4.98628426 73.38510895 5.55885696
1.79037023 75.81568146 6.46191597
-7.56943464 80.55773926 -1.25292337
-5.38175440 71.13558197 3.60618639
3.90181136 73.06265259 -5.69024992
7.50933695 78.09169006 -7.19843960
-5.04523468 77.91061401 0.98793602
1.27604461 77.76467133 3.30460215
8.99926376 80.72770691 5.97210741
5.42386818 77.03215790 3.53097749
3.73698354 76.92053223 5.38080263
4.98378849 76.11384583 4.77021170
7.79217720 75.65312958 -7.98240662
-5.13741112 77.57881927 -3.97547197
4.71998835 76.49866486 -4.93259573
2.06330180 64.29541016 -2.64546847
-7.72188282 80.45883179 -5.49025202
1.89844263 74.26603699 -5.39560509
0.90781343 63.91597748 2.41058969
-5.93933201 71.27194214 0.22781253
6.95126915 74.03394318 7.47314644
-6.50553417 79.29615021 8.77775192
8.87374020 79.35028076 -5.97886944
-4.34685707 80.79633331 -7.81199360
5.97132206 79.59339905 9.43792343
-7.67296076 78.84912109 -4.24508286
-2.16292119 75.27883911 -6.30617809
-5.18559790 75.73372650 4.90242958
8.93715477 80.55191040 -7.40556049
0.34102035 64.12636566 4.31496859
3.47163391 78.08210754 2.34658146
4.39318037 64.11473083 -1.15650904
3.72270870 64.37792206 -1.23104942
2.60024810 80.76786041 5.44351387
4.55722761 80.76651001 -1.33530641
-4.57818747 80.68264008 -1.20346212
-7.72519255 79.00245667 -3.21641994
-3.92359877 77.83270264 -5.08918238
0.63293803 66.67742920 4.47932529
-5.50069857 80.88952637 -7.28666019
-4.49797726 80.64920044 -3.70279288
5.39954281 75.05308533 7.97983408
7.38591719 75.95521545 -8.76490021
3.69270563 80.64192200 7.03428125
6.39897585 80.83968353 0.15834191
6.18427706 70.84990692 2.06495452
4.46517420 74.27600098 -4.79731512
7.34774256 78.17441559 1.31489587
2.50998235 70.96464539 -5.82385635
8.64511108 75.38961029 -7.33416462
5.69731188 77.74713898 -4.65996552
0.24785814 77.98101807 6.41644287
-0.70869291 80.50397491 7.71915436
7.89821243 74.69927216 -7.54586697
-0.82367992 80.28351593 -4.57437038
1.08051801 64.07726288 3.88070488
-6.46244335 73.61677551 1.22354567
-9.59715366 80.01511383 -7.52207136
6.23291779 75.60626221 -1.62955606
-2.26725745 67.92045593 6.16268492
4.19311428 77.79421997 -5.44523811
-6.38950396 73.89192963 5.98467255
-5.45070648 68.91691589 4.39401007
7.21556044 77.67410278 -3.47053933
-6.28350258 74.09086609 5.32270050
-8.60332870 77.10195923 -5.97864151
9.65611744 79.77308655 7.08258533
-6.82326365 76.72294617 -8.71679115
3.50813532 69.58035278 -5.22335148
0.64456844 80.54796600 7.58753395
8.33892536 79.96913910 0.00187656
-3.65639782 78.88839722 7.61050987
7.44225216 79.69120026 -9.70141220
5.34263182 75.22774506 8.12666702
-6.71171904 77.76774597 -1.47048128
1.23597395 69.30036926 5.79469967
-8.34669685 74.82064819 7.58291149
3.47770643 76.08635712 7.27621317
-4.39689159 75.38311005 5.16672850
5.67368460 80.51403809 2.01114392
-5.85845232 80.64761353 5.42662144
-6.05185747 78.44490814 -6.96691036
3.79972005 76.99734497 7.18571806
-5.60461569 67.56505585 3.06861329
6.61281395 75.85601807 8.74279976
-5.34582901 72.13524628 4.47883368
-6.92705011 73.79787445 6.50566626
6.54160786 73.73569489 -5.52161407
2.62587738 72.83243561 -6.04940176
0.22846325 64.04515839 0.57604522
5.40578985 71.20265198 3.70740032
-1.93744850 80.63374329 -5.67295313
-1.21598411 72.01251221 -6.58713484
2.86720896 66.02076721 -3.86239243
5.92072201 71.50358582 0.40004990
-3.62443519 65.98899841 3.31950569
6.36083937 76.04380035 2.01832199
-7.01087332 77.51360321 3.98592329
-8.47605991 79.00904846 7.58203077
2.65894461 79.02616119 7.60232639
7.42151165 73.90032959 -5.36576128
1.83328927 77.49046326 -3.36632919
1.46786547 80.52438354 -5.14003754
4.61997128 77.98401642 -3.53267598
3.69714284 71.15483093 5.61247587
-1.39830089 76.58808136 6.87544727
-4.83467674 80.68290710 -5.50059175
6.49076748 76.78678894 2.43790841
4.68090773 72.70339966 -4.00818634
6.92433929 78.06471252 3.27261209
3.53178763 64.15444946 1.62108171
-0.09171382 77.73472595 -2.50292802
-2.75891566 77.83626556 -4.40202856
3.18284869 80.49437714 -6.33387089
4.67673588 80.62280273 6.63006783
8.71662426 79.82043457 3.60000920
6.78330755 80.63838196 -5.00295782
0.60469818 80.66729736 -0.84229547
5.31031561 67.91339874 -3.15000653
8.07033825 73.91627502 -6.07900047
-7.01127100 80.57696533 4.88583326
-2.02491999 64.19821930 -3.74513054
-2.01375461 68.23650360 -6.68046808
0.96355265 71.98970032 -6.44166660
-2.34162498 64.75685883 4.20445013
-3.61399555 80.11347961 -8.56573105
5.68449688 70.16952515 -3.40865993
-6.42435884 73.97043610 3.92936802
1.74037027 80.71579742 7.58533001
-0.91343313 80.68235016 -6.96113873
-6.12206554 80.65809631 1.83581030
3.74947095 79.99895477 8.67614746
6.11412477 74.32326508 -4.52476597
-6.77140045 74.70707703 8.53730011
8.31171417 80.58415222 -8.09097862
-3.68565965 76.19374847 -7.26482630
3.31316900 67.31192017 -3.19314694
0.73578006 77.93408203 -3.54339552
0.17376110 78.19231415 -7.88959312
2.08543301 74.73467255 -6.04963160
-3.65800643 77.57874298 -2.24830055
-6.49969912 73.91589355 -5.98602057
-3.67935252 64.12951660 1.21437180
2.83063483 67.77465057 -6.39266443
2.15382886 74.63291931 5.08790016
-2.55178571 80.58437347 1.92654538
-1.31337035 80.73064423 3.12786198
6.11279345 73.91368103 -1.63637173
7.29481888 78.43190765 8.58621216
7.93843937 78.22008514 -3.59538722
-0.31159574 77.58853149 -3.17258143
-8.35697174 80.64294434 2.94404459
-5.12251520 74.21855164 7.07118559
-6.44693995 67.87165070 -1.98059583
-1.65760469 66.53009796 4.51728535
-6.27568388 74.00547791 -6.09944725
-4.45605755 75.06733704 -6.67420435
7.70027685 73.80360413 5.64018106
-1.80769825 80.53688049 6.41451883
-1.24324226 64.10987854 -1.58748782
-1.39162338 80.75161743 5.01723528
-4.58302784 77.99999237 2.05861783
1.06760967 78.70265198 8.05031586
1.70051932 73.06771851 -5.97223711
-2.05563426 77.02431488 6.74460077
-6.55306816 78.06001282 5.13005829
-7.17278671 77.27310181 8.20671654
-2.59682012 74.62308502 5.83657646
5.52255106 76.76167297 2.35674429
-5.99182558 80.22727966 2.15401840
3.13101840 75.51222992 6.19363499
5.69449997 80.70654297 0.52074873
1.09784544 64.75521088 -1.36065328
4.44831705 77.90502930 4.97863007
2.94568467 76.11473083 7.12623978
3.61228871 80.61262512 -8.16402626
7.38565063 75.86543274 -8.30311584
4.88483763 74.44744873 5.46609068
-6.55291653 75.29933167 0.75856793
-5.47096348 76.39683533 7.71064949
4.73429728 75.77621460 -7.14989471
1.73516428 80.58781433 6.07432747
7.96499014 80.64108276 9.17641830
6.08945465 73.74873352 3.90637875
0.29264772 64.23213196 3.27453852
-3.10112858 63.96804810 0.97535074
1.50760567 66.13121033 -4.64113474
7.22072601 75.89138794 4.04439497
2.64384103 73.28045654 -6.89272785
-0.51519948 78.11613464 3.87016177
-1.26035440 79.78231812 8.17896461
0.43716350 80.77244568 3.50393963
-2.54868865 76.13497925 -6.27691317
0.26016581 80.83324432 5.13082790
5.04979849 74.84449005 6.17060041
4.23433208 73.94580078 -6.05424833
-0.94955289 77.89520264 -1.72851431
5.88136387 71.91485596 -1.57275593
3.25757384 77.74937439 7.07092381
2.38907719 78.79279327 -7.13207436
6.00294876 77.75655365 2.39217854
-5.27916002 74.42105865 -6.42019606
-4.39973164 75.78549194 -7.17781782
8.48443890 78.41273499 -7.85171270
-5.69410515 68.59799957 2.52125335
3.59170914 77.87693024 -1.43745756
-7.28326607 76.98483276 8.45258141
-3.63689446 75.92666626 6.11790037
7.41198921 74.70159149 7.46055222
2.53700280 80.57380676 -4.92914295
6.58313131 74.73195648 -1.47529566
1.36054361 80.81372070 5.87146759
0.22768979 77.78604889 6.72721624
2.06717086 64.13468170 2.97092724
-4.57634020 80.79581451 0.61182368
8.75766754 78.87594604 7.51373959
-8.57018948 75.76177216 7.14839840
-5.24654150 77.20482635 -3.50115585
5.54908228 80.54098511 -3.69567513
-2.80194020 67.36057281 5.51741409
4.63572693 64.98057556 -2.29974341
-6.92630196 71.30183411 0.34843293
-4.59290695 66.72729492 0.64197582
-6.92652321 72.69566345 -0.25468916
7.23743725 80.68055725 -0.75266904
0.37516931 78.04927063 0.83663678
-3.93226266 64.09032440 -2.40234876
4.30811548 69.28411102 -5.57104206
2.69734836 64.21369171 -1.44607747
-2.22796464 77.54613495 0.57268155
4.44571781 80.52011108 -6.22564507
4.89501572 75.31181335 -4.44903612
-8.92453861 80.54167938 5.71565533
-1.58028150 69.60316467 5.92218018
7.54216719 76.35356903 3.49595881
3.02058601 77.67160034 -1.70016468
2.34600234 80.47206116 -6.93399620
-8.01316071 80.56307983 -0.90556473
-5.24131536 76.66449738 7.65589380
-6.75741196 70.79703522 1.44848621
-2.45072794 64.06876373 3.95593882
-5.93414783 71.78719330 0.68002230
3.60261130 69.89617920 -5.94394636
5.38332462 68.65216064 -4.20883465
6.67814779 80.61552429 -0.90134370
-1.35196364 77.60723877 -0.50535846
0.74312264 80.59349060 1.76960742
3.29895878 64.02808380 -2.12863302
5.51716757 75.42203522 3.68574166
-4.16998816 63.81277466 0.19626941
-5.18852425 73.50457764 3.38518405
5.01991892 77.79688263 1.83952451
2.04369354 79.76110840 8.20011330
-5.40575600 73.11236572 -4.34646749
-8.23888016 79.82405853 -1.43623495
-5.23828411 75.82884979 -2.27289081
2.96332121 79.22818756 7.79510355
-6.17691278 75.05212402 -8.75099564
0.27754584 78.14094543 5.23451996
-3.23617864 71.09824371 5.31584835
2.23666286 78.03230286 4.11887980
4.34572935 77.61247253 -3.76365447
5.26799440 73.02509308 5.16298389
1.99458420 77.74139404 -3.71696281
7.31526947 80.48252869 6.24793768
-2.47906566 63.94923782 -0.94093436
-5.89979506 75.87956238 -1.93814504
-7.25430346 75.53525543 1.22106075
-1.75309777 80.45214844 -7.56324482
3.61055732 77.73241425 2.45314360
4.88370228 68.59870911 5.16363907
-8.81805611 80.51954651 4.67865801
5.11037064 66.85292816 -3.52925539
-6.07293129 73.67635345 -6.68523073
-2.09825850 80.67624664 -4.55711269
4.69986773 70.71878052 -3.90157342
2.51354599 77.84764099 5.74499321
-3.02885008 64.04917145 1.19409192
-3.98738909 69.00510406 4.78115559
1.46587670 80.60134888 -7.36703444
-3.71021080 79.86193848 -8.49687386
-5.60234880 69.76515198 2.43977261
4.35050011 79.48143768 8.31941223
0.07786240 80.56854248 7.23049307
-3.03850889 67.49114990 6.17715168
7.27106810 80.58316040 8.78989601
-2.45161819 77.98643494 -3.72784972
4.76722670 78.90365601 8.00632668
4.09753656 65.71209717 -2.44643903
-0.34218782 67.16925812 6.06533146
2.15582991 66.70223999 -4.07334518
-5.54272985 76.45339966 -3.13879991
7.30953836 78.53414917 8.50078201
-5.55484962 73.93888855 6.66170645
4.56978750 67.21853638 -5.36718273
3.45738435 77.86278534 -2.76225257
-9.45805073 79.89659882 -6.72790432
5.42554188 74.17268372 4.76052904
1.15126932 68.42226410 -6.07500267
-4.27260160 64.72737885 2.44377685
-3.55168009 64.40126038 -1.21611798
5.49722385 77.94674683 0.44430816
-4.59260941 65.10186005 1.88569379
-2.57310557 70.22675323 6.47870731
-8.85570621 80.56681824 -4.34513569
-9.37853146 79.71004486 -6.55301332
6.71668243 75.89646149 9.10886955
5.33983898 71.30648804 4.69448948
8.70877838 80.56640625 -4.70531797
-8.46373653 78.11052704 -5.92578268
4.79392910 67.05030823 -1.53676665
-1.41103601 64.14170837 -0.73874825
-3.66610026 80.51042175 1.99874973
2.01896167 80.32935333 -5.03513336
-7.75261879 80.78437042 -7.42847252
4.78225422 80.56124878 1.51056194
-0.71147037 67.08229065 6.09086847
-4.73896074 68.22888184 4.23768997
1.26614761 80.72661591 -4.62233973
-8.96062851 80.86074829 -7.40583658
3.62699223 80.78785706 -4.42392302
0.08537039 64.06312561 -1.60505295
-3.86447334 65.30453491 2.65931296
-7.26615953 78.75099945 -0.54380828
-5.15642738 78.10812378 -7.79034090
0.57890236 71.79410553 5.70325089
-3.93338990 80.62879944 -1.36389673
-2.87353706 80.66620636 -1.64322293
8.91001892 78.94505310 -7.55018091
5.63231134 73.79594421 1.63155031
4.66659832 67.16675568 -0.73836285
-3.88451934 68.83875275 5.84836245
-2.55307245 80.66186523 6.03872585
6.28826427 70.58818817 2.42280841
-1.91735291 67.32244873 5.64755630
3.14220667 80.66011810 -5.23665714
6.49209023 76.38758087 -1.92419624
-6.18921661 76.07791901 2.78363800
3.66627097 66.33423615 -3.19909286
-7.84430122 74.67668152 5.19533443
3.66899252 71.80794525 4.90058041
-4.15030766 64.50261688 2.85013270
7.15681219 75.94084167 -3.84618282
-6.80948687 71.99553680 1.76848769
-7.44946623 78.41826630 -1.42207158
8.12306786 77.00538635 -7.45481730
-5.46944427 76.01563263 -7.83961058
8.62175465 79.73922729 -8.76840782
-4.41827726 72.62895203 4.61564159
-1.56699443 75.41317749 6.63938761
2.81745934 65.25541687 -4.16901541
-5.97277308 71.83899689 -2.47771120
-4.98511076 77.77587128 -0.55336970
-1.25898790 77.66416931 3.99851227
2.99756551 76.84935760 -6.59115601
-5.03407574 77.84763336 -1.68084431
-1.10149777 78.05608368 2.02806783
-2.35865021 78.06153870 2.08997059
-6.88524294 73.94599152 0.46529880
8.42519188 80.43208313 -9.22586632
8.06328678 75.62151337 5.80695868
-3.51589012 73.11748505 5.21432018
5.59525108 75.09992218 -2.13721204
1.89065719 77.85620117 -1.58817065
4.41652298 65.18904877 -1.90672004
4.10666370 78.35993958 6.07873487
-5.74724865 79.13382721 8.39468765
-4.56865358 80.34181213 -8.74467087
6.15933657 80.29570770 5.60105658
-6.33525991 77.73044586 4.27852058
-6.18195629 80.63056946 -7.49932909
-5.61995029 69.00423431 3.14185619
6.95890284 76.34449005 -0.47011659
-5.04531527 69.64263153 -5.25786018
-5.62613964 76.60136414 -8.00662804
3.83535266 77.88848877 1.47447562
3.70846343 72.22667694 -5.22391367
7.29110956 78.45880127 1.74073792
3.70674968 77.60437012 1.38623154
6.65438080 74.81004333 0.26785487
-6.28255367 71.86651611 2.50532031
1.05828965 77.68825531 2.88641095
8.55527687 80.74783325 -9.01280785
2.19863176 74.92658997 -6.25938320
2.32553530 64.33697510 3.18693328
8.78707409 76.76770782 -7.07018471
4.71363592 77.71009827 7.73171616
6.36107349 78.32701874 5.33483505
4.69208193 80.69542694 2.61043954
4.89500237 74.66268921 -4.26364708
-7.98837948 80.50989532 -2.48693895
-0.92614853 77.71425629 0.73313093
-7.65178871 74.12008667 7.09661150
-6.44627047 77.02872467 2.96550417
-6.25570631 76.40753174 1.82268119
-8.34096813 80.78813934 5.66828394
-4.32502127 80.70903015 -5.47574377
-5.61732388 80.69047546 4.35560608
-0.57873297 80.68437195 3.42397571
-0.16970520 77.71070862 -3.89102101
4.65737581 72.50881195 -4.74615288
0.50262320 80.75221252 -2.85050774
-5.07500458 80.78220367 -4.64335155
7.76478577 79.23628235 0.65858442
-8.41615009 80.15644836 -3.06620789
-0.52934921 77.61939240 5.16265583
-1.04041409 79.26229095 8.43346977
-4.83171320 77.96379852 -6.05773306
-0.94917262 77.99152374 -5.89986992
-6.19461679 69.72978210 2.93237829
6.21472549 76.55921173 8.36226654
-3.55495214 73.65513611 5.35320091
3.61688805 68.81630707 5.78107929
6.97186565 76.39042664 3.13623357
-5.99761963 77.61763763 0.90445936
2.29614615 80.98600769 -4.91302538
3.67399073 80.41279602 -2.70461535
5.97227478 67.49139404 -3.84747815
-5.58987236 77.87776947 4.70351696
2.26827168 64.12338257 0.38492966
2.85218048 80.78881836 -3.70472383
6.34490490 79.31253815 8.68695068
-8.43099785 80.20571899 0.04846771
6.89344740 77.64480591 -8.44400597
-2.89436793 70.11831665 5.77671909
-6.26995993 67.19894409 3.38961267
-3.33060932 73.94972992 6.83338928
1.13620937 78.12647247 -1.52143204
-5.74994946 80.63564301 -6.00278711
-1.06809807 78.03195953 -0.89472413
9.26455116 79.68575287 4.59739447
7.11252022 77.63782501 -6.97066402
-0.56408721 80.79481506 6.04500580
-5.04284620 80.71244049 -5.98627329
-4.47394848 72.35097504 5.19806719
8.29846191 78.67440796 -7.67010212
4.84171057 77.90721130 -4.39711952
5.51920938 76.15854645 3.04222131
8.16058922 77.82911682 7.11639881
-3.38653541 74.85642242 6.66020393
3.31454611 64.10970306 -2.34881234
-4.16713762 70.56488037 4.88604259
0.31115612 77.95808411 -7.01011944
-0.27568629 80.55661774 1.90956795
6.98912287 77.18627930 -2.12799931
5.96856689 74.11920929 8.12658691
8.51663589 75.27278137 -7.26577139
4.57720041 70.68762207 -5.04278326
-7.12888956 77.76769257 -3.14981079
7.83894062 78.21559143 -6.27369213
2.75295520 69.45198822 -6.25589371
4.97027206 77.97499084 -2.27838898
2.78522110 74.32077026 -5.57227135
3.56943059 65.10914612 -3.07248354
7.87284899 79.77621460 -0.27384901
-6.04103279 73.25646210 2.10401559
4.26012993 76.99421692 -7.44138145
-6.58849907 78.07235718 7.50428820
5.09344578 80.60022736 -6.75064230
1.27170396 67.70476532 6.15620804
-7.45363569 74.72391510 -4.45604658
5.67028475 70.12579346 -2.54098845
5.71016788 73.83425903 5.18573952
4.74116564 68.46363831 -5.46111631
-6.84864712 78.45843506 -5.41806173
7.73819542 74.78976440 7.34998751
0.79404539 72.30828094 -5.98305225
4.83174229 77.88692474 7.68046570
-6.71159983 77.65918732 -8.14934921
4.23532152 74.28806305 -5.07962179
-1.44485247 74.73896027 -6.66983700
0.54063696 80.85169983 -1.59083223
7.94630289 76.00763702 -7.97480631
7.43515968 74.61143494 4.14233255
5.88226128 68.11061859 3.05846977
-8.80169010 80.69335938 4.01281929
4.59757757 64.53894043 -1.90122223
4.18372869 70.31818390 -4.38766527
-5.58961725 80.59570312 2.07434034
4.37289238 65.94284821 -1.20187819
8.04443073 79.86878204 -9.61590195
-0.18625732 80.57131958 -2.23868203
-7.07152796 72.51199341 -1.96075177
0.84809816 78.30149078 7.14647198
-7.21703863 78.42318726 6.31548500
-8.69475079 76.96834564 6.58102274
4.74450684 71.25929260 4.87215424
-3.18644619 78.06822968 -3.93441057
-1.89667976 73.76741028 5.22271013
7.41365480 73.58776855 6.48845387
6.20401812 77.86806488 -0.11610547
-5.87176418 67.50466919 2.47023869
4.45256948 73.29298401 -4.64288998
-3.78426671 77.75230408 5.16276693
-4.41068077 69.32467651 4.12751484
6.03492832 80.47720337 -5.99283838
-7.22003984 78.24591064 -0.02622703
-0.42186779 77.91339111 3.56993222
-6.76237488 80.56164551 -3.79796553
-4.05832386 77.77623749 2.40407777
-1.66223276 80.47672272 1.83844483
-0.77271193 76.47507477 6.56595039
-1.75499272 77.98264313 6.44346714
-0.70071864 77.99977112 7.62010813
4.85771513 77.57476807 -4.39977217
8.40254498 79.78250885 -0.76364535
-3.58305049 78.37369537 -7.50990057
-8.35138130 76.71255493 -6.98856306
-4.23279095 64.02278137 -0.99406999
3.54311371 64.00096130 2.18328953
-2.56979966 64.26233673 -0.68725652
-6.55530405 80.72588348 2.14031911
6.58374739 80.64696503 -2.30518723
-4.73722172 64.45523071 0.86397356
-6.71085072 71.37861633 -0.83260363
-1.78008866 74.15772247 -6.76526690
-6.64329576 69.14280701 0.40538353
5.52592945 80.71572876 -4.80211735
-4.59493160 74.25859070 4.68758345
-5.30569267 80.47052002 -9.31667328
6.76519156 67.82888031 -2.29916000
6.92354584 74.20851898 8.44757843
1.08811617 75.65787506 7.04763317
6.62076616 74.72303772 -1.36827278
5.71806002 78.00169373 -0.73361897
8.73411751 80.84054565 7.61376667
-5.65658617 70.83395386 4.27334261
1.17911959 65.60282898 -4.71783400
5.17562580 77.33472443 5.00438023
-4.76006413 66.33419800 1.61931145
-0.94309491 77.25060272 6.93894815
-4.10065031 76.43791962 -7.57331133
-1.37770307 80.61013794 -0.96905845
7.37725639 79.83425903 9.52694321
2.01822972 70.36152649 -5.88434172
5.24780893 74.29800415 -6.67582798
-6.32715702 73.91417694 -1.42625666
-7.03275394 77.03337097 -7.96121073
6.41710281 67.18915558 -0.86440760
-0.01023473 70.69300079 6.59170818
-7.11619663 77.26477814 -4.11838388
4.10520983 74.43276215 -6.87659693
-3.33584952 80.69613647 4.78603888
-1.97949839 73.80128479 -6.66263533
8.54251385 79.71927643 -1.76215816
-5.59783268 80.75718689 -4.45641232
7.93499899 78.99620819 -2.40579200
-4.92702579 74.72679138 4.31581259
7.44111633 74.17475891 7.11419487
-2.42527843 80.63644409 -3.82275224
-6.49900579 77.80659485 1.91822028
-3.09442210 77.75311279 -2.61271334
2.65203834 80.66165924 2.99895096
4.68462420 74.32696533 5.60493994
-7.01618147 73.89974213 -3.36351490
1.80348480 80.85909271 4.75528574
2.60370207 75.12414551 -6.26653767
-3.25900197 69.64885712 -5.82795620
5.91498375 80.57529449 -8.14895821
-6.31725216 77.92438507 6.85958815
-1.06784201 68.83905029 -6.39941883
5.13514376 76.57444763 -2.04026031
2.73883200 64.16261292 -1.79837298
-5.96715498 73.93144226 8.10206413
3.86236715 67.28309631 -5.06925344
-3.02343488 77.74555969 2.81988430
-3.37564611 80.44554138 -5.49881983
-5.61662769 80.62656403 6.07756090
-3.86706519 74.55599976 5.54748154
-5.48428059 74.63758087 -7.52013874
-1.75834072 72.56910706 -6.76167345
7.25400305 75.51181030 1.29731619
-5.30534458 74.94365692 4.31775951
5.15291739 77.66027832 -6.76627254
-6.31152391 69.94786072 0.18404754
-4.37655783 80.45016479 -0.27325970
4.21667242 78.21839142 7.45375633
-4.91090202 77.59477234 5.37852526
4.61221123 69.32620239 -3.96354675
5.80862999 77.80157471 3.38282824
-5.76316881 77.82136536 1.45333350
5.23077393 76.89168549 3.66431141
1.43525708 77.82979584 4.96233368
4.51507759 79.82165527 8.77905655
-2.63699746 73.92301941 5.66721249
1.81760514 74.08406067 -5.42169714
-7.48923731 80.42555237 -4.86213923
-3.13035965 77.92079163 0.42142463
5.03385448 67.52330780 -3.93731570
0.27936235 74.71488190 -6.75511980
-2.48718524 65.74322510 3.99806070
0.63441819 78.49040985 7.99712515
-0.77000064 77.80983734 6.68442154
-8.25672626 79.19663239 -4.45881939
-7.01752996 80.62992859 -4.64091253
6.50366163 78.07821655 -1.19196594
4.06588221 76.45789337 -5.32953215
-5.80481672 75.11254120 -7.93297768
1.05010962 80.59735107 -6.75618601
-6.90919209 75.55962372 0.26651713
-1.82684672 80.84996033 -7.49774075
4.69234705 66.41413879 -1.24965227
-2.12189341 80.80659485 -7.44154692
1.34904063 77.85704803 6.16300774
3.33803678 74.44444275 -7.05768681
8.55968475 79.18428040 5.62805033
4.71951056 80.44756317 -7.23884201
4.66023827 71.36806488 -4.10656500
-5.17962456 75.73780060 4.16166830
3.70528293 80.48143005 -0.20768747
4.12051105 66.43201447 -2.19935870
8.29415417 80.67234039 -7.98302889
0.41489241 80.71841431 0.85611010
-1.44265604 77.81334686 6.02354908
4.77460337 75.31961823 -4.88067055
4.87341738 80.64696503 -7.59350872
-7.65023422 74.56558990 -4.76364136
7.17330217 80.65458679 1.01542187
5.20340967 69.79180145 -5.26194286
7.51754713 76.64430237 -4.89924288
-6.84441996 80.53042603 -2.08738399
-7.04251575 77.90338898 -0.00610963
1.51238167 63.94936371 3.41113305
4.16453791 69.86826324 -4.72650480
9.00945282 78.86440277 7.49297953
8.46641636 77.35641479 -6.97056770
-6.11358786 78.04087067 -7.24807787
1.91717410 67.62440491 -6.07375956
-5.62926245 77.89903259 -1.24596250
-1.05300939 77.90362549 -4.25721025
-3.38159537 67.07528687 3.44368982
6.92675018 77.78871918 -3.98172903
-2.63714981 75.03349304 6.17261744
9.51531124 79.66679382 7.68593359
-6.24689579 67.43148804 -0.63660884
2.41060066 80.55020905 -6.79406643
-0.40977779 71.44538116 6.80366278
-1.11988986 71.62395477 -6.57002926
-6.43901443 77.61280823 -3.69540715
1.30343068 70.18377686 -6.49710083
-7.62838840 80.66536713 -3.05469251
-8.07411957 77.42009735 -5.45822906
0.34760353 64.31878662 -4.70636940
-5.56387186 80.62301636 7.19673347
6.22247171 80.63123322 8.96964264
-7.55648994 80.58820343 8.23340034
2.30854487 80.68978119 4.76187181
-3.43453217 64.34782410 2.50904369
2.02039528 80.56555176 5.74995041
-6.09942055 70.72494507 1.98053360
-5.96965408 74.17421722 3.20548153
2.93221569 80.53102875 6.85421085
5.01697063 77.89912415 -6.62259388
1.14169681 79.22943115 -8.13456535
8.05509663 76.12525940 -7.49821711
7.38699102 80.57355499 1.15173125
1.28672004 70.74328613 6.40051794
7.23954344 74.25873566 -7.69362831
3.25322771 64.28353119 -3.52577424
5.07061100 67.21818542 0.26318994
9.81121540 79.79537964 7.11472178
0.64255226 71.40611267 -5.26798201
