0.07387364 -1.01624465 -0.08315608
0.22326499 1.00574243 0.49716872
-0.99428701 0.34942135 -0.05714883
0.39864692 -0.12632056 0.87896276
0.49781874 0.95525038 0.86248976
0.61560035 0.70685977 0.78372526
-0.60218596 0.98235714 0.78255832
0.92957437 -0.34126896 -0.32560056
-1.01189661 0.52479088 -0.12413443
-0.89239645 0.22846009 -0.47413868
-0.88396347 -1.00946391 -0.25275043
-0.78060508 0.42450055 0.65760428
-0.44114801 -0.60289472 0.89352190
-0.59194720 1.00647604 -0.63608509
0.75189495 -1.00659668 0.08388410
0.00147157 0.07362938 -1.01837397
0.09631364 -0.66667414 1.00318718
-1.00558341 0.15792777 0.05666258
-0.62382817 -0.63722646 0.76491976
0.21796162 -1.01517236 -0.62779504
-0.42710334 -0.18010491 0.91464007
0.96602881 -0.40475634 -0.27172977
0.94473267 0.06242657 0.39638537
-0.43119997 0.61428720 0.91502440
-0.65796292 -0.98277479 -0.16622055
0.32778645 0.48589560 0.94898206
0.84166026 0.05829531 -0.50401527
0.55678666 0.22407471 0.82562530
0.51069260 0.50970912 -0.88006020
0.38993964 0.77226341 0.89582735
-0.70171785 0.14838105 -0.70165145
0.32400230 -0.92101830 0.92230910
-0.57431126 -0.78412694 0.81529301
0.69488835 0.98714364 -0.45781627
0.33521959 0.99030441 0.76182818
0.95578063 0.41217139 -0.30315655
-0.45373097 0.71433365 0.88138795
0.50817847 -1.03557944 0.11249157
0.96825230 0.22396240 0.30946934
-1.00474000 0.89140165 -0.09729800
-0.25401357 -0.99915129 -0.61228341
-0.76199698 1.00845826 0.28849137
0.92993188 -0.97570187 -0.22507025
-0.56459320 -0.52969056 0.83043081
-0.01834066 0.92298293 -1.04096532
-0.70285213 1.00761437 -0.53885674
-0.59499133 -0.98930442 -0.55242145
-0.15066734 1.01195323 0.42084339
0.93191874 0.07332788 -0.39927435
-0.65909600 0.37421250 -0.75537789
-0.03368551 -0.99279946 0.36893496
0.90469408 1.01280510 0.29104334
-0.10941677 -0.99272650 0.60320711
0.54460442 0.99110043 -0.40231976
-0.85942757 0.37285584 0.49511638
0.61058199 -0.14116989 -0.79636967
0.06972190 0.55165523 -0.99775183
0.97169614 0.52582026 -0.30437374
-0.05091419 -0.98785973 -0.30997726
0.54960239 -0.99700314 0.42964405
0.94790149 -0.76735121 -0.37834305
-0.05105237 1.01624787 -0.93604898
0.36314610 0.99344391 -0.74049896
0.37561819 -0.42713565 0.92493790
0.00922673 0.03835077 0.99231797
0.71015477 -1.01453054 -0.22525072
-0.50809145 -0.97522742 -0.86769819
0.74722743 1.00589740 0.53625357
-0.04363335 -0.23307706 -0.99357057
-0.06161798 -1.01786077 0.18528843
0.81127393 0.15851994 0.54347306
0.59245694 0.20999448 0.79717875
0.03727054 -0.05069269 0.96196949
0.07091261 -1.00361323 -0.50470781
-1.01156449 -0.25807002 -0.07400396
-0.31666863 0.98963755 0.30157343
0.95178151 -0.64364469 -0.36335191
-0.89440548 0.61266065 0.43843645
-0.77769375 -0.14772977 0.61077952
0.66538906 -0.07222051 -0.72791302
-0.90477586 -0.50248039 0.38833079
-0.78468096 -0.33147153 -0.65215725
0.53142643 0.54944664 0.88107580
0.03665053 -1.01052654 -0.90090883
-0.21512930 1.00768113 0.37393904
0.27012894 0.98731369 -0.13585457
-0.27672577 -0.52777827 0.94728082
-0.03630854 0.25787744 0.97194082
-0.31991062 1.01398718 -0.11325034
0.06645562 -1.00439990 0.65237796
-0.94669819 0.50387925 0.30240551
0.98048615 0.80014527 0.15348774
0.68317032 0.19643939 0.74196696
0.25193870 0.89835411 0.96617699
-0.18425840 -0.86726624 -0.98819137
0.45895249 0.98469609 -0.07269090
-0.25033897 0.98118830 0.21400321
-0.51911986 0.89278680 -0.81920850
-0.31553996 0.99480647 0.16474697
0.50441504 -0.99318075 -0.84428346
0.29435921 0.77384841 -0.94925225
-0.48645774 -1.00067341 -0.34399396
-0.28875798 -1.02562380 0.16244477
-0.71469271 -0.99331892 0.13987765
0.02767488 -0.99048495 -0.24031588
0.92905140 0.41523826 -0.38059422
0.98289955 -0.40535957 -0.24476770
0.20930389 0.34991562 0.95524698
-0.94965243 -1.02642322 -0.22782597
0.68644571 -0.76791495 -0.70082355
-0.79731536 0.07589585 0.60574031
0.14793780 0.99409646 -0.93686616
-0.97437501 -0.33985436 -0.21993776
-0.80549657 -0.26443839 -0.58189565
0.60311043 -0.87135828 0.79339641
0.19719493 -0.99049002 -0.02856179
-0.23401175 -1.00812030 0.57342178
0.63161421 -0.12582567 -0.76664102
-0.78689861 -0.32518700 -0.63890648
0.97833312 -0.22930765 0.17043768
0.67047083 -0.92830902 -0.71817559
-0.92289460 0.78673440 0.34871158
0.65535510 0.15617454 -0.75042576
-0.90131736 0.31548643 -0.46522340
0.61093283 0.25841275 -0.78097987
0.99046504 -0.17608115 0.10647625
0.93523610 -0.23041534 -0.35726064
0.19644035 0.98699588 -0.18608283
0.47060415 0.55037016 -0.88086468
0.89453745 0.43225640 0.45628706
-0.86322176 -0.34380120 0.47033614
-0.63689339 -0.19865629 -0.74065781
0.19576660 -0.99723858 0.63948631
-0.26428115 1.01954150 0.32740268
-0.73872185 0.13958441 0.65013856
0.50858057 0.38238671 0.84508109
0.73064601 -0.64048767 -0.69674408
0.97340024 -0.06110586 0.20019123
0.57918251 1.01304293 -0.63495755
1.00645769 -0.84308243 0.07380822
-0.92154038 -0.23667800 0.29992867
0.63958716 1.00914550 -0.72778338
-0.03060139 -0.98718780 -0.20686619
0.31623718 -1.00335419 -0.09057956
-0.40984440 0.56857151 -0.88481492
0.22314543 -0.61859453 0.95384514
0.26688731 -0.30667028 0.97733557
0.83447194 0.99051797 0.29000983
-0.45972902 -0.44404674 -0.90093058
-0.07785194 -0.10870083 -0.99938232
-0.02725076 -0.99579746 0.12600970
-0.84828210 0.90591884 0.47791740
-0.04556869 -0.81613100 1.00377965
-0.69448471 0.49080747 -0.76388717
-0.46444419 -0.25442961 0.87116450
0.24439234 1.01078677 0.81041455
0.53026795 1.00183511 0.50024933
-0.36841261 -1.00476563 0.63019460
0.95265996 -0.91361278 -0.31257063
-0.69585264 1.01054180 0.28710988
-0.55129993 0.06514114 -0.83216363
-0.37593853 0.18884286 0.93549114
-0.64510512 0.05074354 -0.78166395
0.19050533 -0.75893641 -0.96255946
-0.42196643 0.98797429 0.89592236
-0.98122299 0.11130387 -0.11860749
0.80334377 -0.09688294 -0.56029773
0.24635306 -0.14354840 -0.97855359
0.98243797 0.74459881 -0.08775258
-0.94428122 -0.08996199 -0.32302657
-0.96828663 0.12993914 0.21884681
0.61172235 -0.08157068 -0.80515307
0.48536658 -1.01721203 0.62018865
0.11820356 0.99448287 0.34509325
-0.69970036 -1.00474787 0.18939997
-0.86229360 0.70029718 -0.52386975
-0.17507002 0.57739830 0.97538036
0.72091484 0.09670800 -0.71785098
0.99086285 -0.33455276 0.12325399
-0.92387021 0.44023323 0.34069532
-0.84322739 -0.08609416 0.54854530
0.70168078 -0.46825778 0.72200346
-0.57083988 -0.83847439 0.82528472
-0.91311049 -0.63277799 -0.35704502
0.97282267 -0.86797404 -0.15447584
0.24293743 0.99670058 0.61508566
0.05513712 -0.73756093 -1.00674438
-0.70257044 -0.48517898 -0.68620014
-0.71430361 0.27986890 0.67813200
0.19215076 -0.07766024 -0.97365171
0.26699293 0.26885661 -0.96315008
0.17887199 0.54903179 -0.97282010
-0.74656141 -0.99419940 -0.44426528
0.96853149 0.14974406 -0.34304678
-0.96118629 0.32638577 -0.16316482
-0.25232556 1.00390077 -0.94130164
-0.06364433 0.98449713 0.65981281
-0.82647514 -0.21881837 -0.52514547
-0.97342360 0.69779682 -0.21594898
-0.96092224 -0.97952187 0.35074377
-0.98545337 -0.55356735 -0.25266743
0.73378789 0.99687070 0.01263712
-0.93885684 0.03974002 -0.26100311
-0.93019927 0.92532337 0.35632727
0.08556395 -0.99132806 0.35743484
-0.10446990 -1.00189686 0.86054945
0.34583664 0.97499996 0.48858139
-0.06180324 -0.96224350 -0.86017644
-0.96646667 -0.22744824 -0.21304977
-1.00764763 0.34766138 -0.12851432
0.08535015 0.99192017 0.39639375
0.02871707 -0.97792327 -0.70911503
0.72676194 -0.98599064 0.45159370
-0.96350276 0.02802284 -0.31804025
-0.19087030 -0.12468907 -0.98798937
0.42000890 0.76024503 -0.89817977
0.91567361 -0.99665177 0.30299982
0.69730330 1.00929511 0.01874126
-0.23346297 -0.29286224 0.97596717
-0.51284003 0.19315062 -0.85997665
0.18211192 -0.37929901 1.00396776
0.23019324 0.22779422 -0.97313297
-0.12960583 -1.01025045 -0.09582777
0.67539299 1.00075173 -0.50915450
-0.98134685 -0.46391791 0.11006448
0.57953382 0.92353016 0.80139595
-1.00909019 0.71477175 0.07045780
-0.02702209 0.27815872 1.00770283
0.96246743 0.48287216 0.33400309
0.35141185 0.70590740 -0.95806575
-0.51804698 0.32510537 -0.82617253
-0.05275661 0.28835228 0.97520739
0.66958749 1.01654065 -0.23095722
0.36645940 0.44785661 0.91861790
-0.80272830 -0.39241955 0.60761625
-0.55755842 0.53278077 -0.84772396
0.68997264 0.98518872 -0.14718893
-0.99140227 -0.35878772 0.18751399
-0.42498702 0.99215955 0.65944445
0.78937459 0.53965449 -0.61133462
-0.76910973 -0.99959403 -0.42000461
-1.00086069 -0.97003061 0.00827426
-1.00052011 0.68795526 0.03282721
-0.61605620 -0.13222936 0.75526232
-0.49680230 0.59631073 -0.87661302
-0.69811893 1.00024390 0.28168923
0.97721612 0.83241802 0.02949151
0.54808140 0.09308436 -0.85485888
0.05842125 -0.16176312 -1.00212121
0.87733674 0.69417143 0.46980953
-0.83089554 0.50932747 0.55872583
-0.71210361 -0.88788539 -0.66402388
0.95667958 -0.22776335 -0.22382346
-0.92270553 0.28440285 0.34657019
-1.00770843 -0.30358782 0.22704686
-0.34179813 0.53586972 0.93403614
0.40514374 0.90116268 0.92581612
-0.75266600 0.98233008 0.44336954
0.43385726 -0.35821646 0.90702361
-0.34849188 -0.96782935 -0.94721878
0.95538378 0.92875260 0.31699431
-0.76661503 0.77652323 -0.63946563
-0.04119762 -1.02352238 0.46639305
0.01428724 -0.97870362 -0.49972576
0.96126342 0.50596350 0.23459566
0.39769194 -0.99973553 0.85731804
-0.75472307 1.01643634 -0.07905915
-0.67793190 -0.59571809 0.70538414
0.62531495 -0.81512505 0.79353315
-0.92241991 -0.96231127 0.41517189
0.25193506 -0.96324867 -0.96275228
0.53365397 0.11304621 -0.83323967
0.34101236 0.01771048 -0.95570689
0.97778463 0.61121452 0.10551867
-0.90254521 0.15092832 0.43024990
0.47050908 -0.94149417 -0.88178962
-0.12233632 1.01750314 -0.71692276
0.98513269 0.67474401 0.10906785
-0.31622636 0.94745773 0.95895576
-0.97204125 -0.09204382 -0.21710815
-0.80123281 -0.98911673 0.01939111
-0.33454046 0.15921006 0.90515214
0.93576396 0.02985177 0.27724361
-0.57852161 1.00478470 -0.81217664
-0.96058178 0.94512534 -0.25141332
0.45355037 -1.03104210 0.35741273
-0.15895063 0.26655632 -0.99341202
-0.00922581 -0.98889101 0.93661946
-0.12171295 -0.97007364 0.40388450
-0.93143845 -0.20588295 -0.24454112
0.78842413 -1.00245821 0.20559222
0.05848559 -0.99709189 0.62764645
-0.08808806 -0.99975151 0.96454668
-0.79601920 -0.27319592 0.59790534
0.97114921 -0.87701708 -0.00781052
-0.81481361 -0.55797046 -0.51278025
-0.59914434 -1.00922692 0.53507924
-0.05544661 0.82603884 -0.97983736
-0.66883659 -0.54586887 0.74601120
0.14593330 -0.98875052 -0.82281399
-0.89849138 -0.35086888 0.44591588
0.61432028 0.17824896 -0.78431785
0.61003149 -1.00616837 0.56312746
0.74966562 -0.13686851 0.69250584
-0.77333486 -1.01324892 -0.21631417
-0.77980506 0.62508965 -0.61735332
-0.10845838 -0.01732402 0.99789965
0.05533766 -0.99008471 0.78970295
-0.13033339 -0.04649128 0.96650100
0.84048927 0.45158315 -0.50972480
-0.97976911 0.11301444 0.15169138
-0.24933067 -1.03922367 -0.14601527
0.39811039 -0.94270182 0.90345877
0.46827108 -0.97909248 -0.06614751
0.97233188 0.46058607 0.10289982
-0.45923737 -0.99899465 -0.17210636
0.02000746 -0.94908261 0.98073828
0.70083296 -1.00552475 0.37519363
-0.29120746 -0.34673777 0.96436262
0.11792132 1.00302863 -0.33520180
-0.74296808 -1.02161002 0.51154965
-0.97443831 0.59907645 -0.21846317
-0.09214175 -1.00830436 0.73860586
0.58062828 -1.00060594 -0.62258315
0.98062694 -0.04643544 -0.04404521
0.94880188 -0.43020508 0.36609721
-0.99326766 0.66082335 -0.00114701
-0.75759912 -0.41218832 0.61867642
-0.73189890 -1.01104510 -0.20824054
-0.32354769 -0.98367816 0.76897377
1.00769687 -0.68943435 0.05371561
0.66174352 -0.98846942 -0.72040951
0.96169305 0.10115346 -0.19647327
-0.12854910 -0.61579424 -0.98621994
0.15425594 -0.60958648 1.00149632
0.98096395 -0.62885010 0.15644696
0.59014010 -0.16344234 0.82303953
-0.67448020 -0.79680079 0.74329543
-0.83290684 -0.99901420 0.05353998
-0.38436729 0.69794130 0.93597174
-0.04276938 -0.62052679 -0.99826705
0.86015582 1.00400603 0.38400793
-0.75662315 0.42645612 -0.68095213
0.64961219 0.99388838 0.41843393
-0.44790086 0.99681151 0.42139614
-0.67502487 -0.85543710 0.74222225
-0.60729861 -0.99806660 -0.64995486
-0.91171277 -0.44372645 -0.37806028
-0.49062112 -0.98564112 -0.01492207
0.62613380 0.00107187 0.76907980
-0.03609593 1.00484049 -0.61619908
0.85758078 -0.99992889 -0.31911063
-0.65876579 0.42451882 -0.75885153
-0.74845374 -0.47691014 0.65706426
-0.29799145 0.99341202 -0.06157664
-0.58887458 0.99867976 -0.28608161
-0.95528758 -0.12510467 0.31441969
0.82365716 -0.76714343 0.54474485
0.84849894 -1.00064969 -0.13986100
0.24529591 -0.76357615 0.96705151
-0.99429941 -0.82331187 -0.15008165
-0.43009046 -0.09215776 -0.87293833
0.46992871 0.99872386 -0.76153958
0.76193857 0.54752904 -0.63304275
0.53911388 -0.99049419 0.69710773
0.22831173 -1.02094245 0.81207597
-0.10926616 1.00414646 -0.29395634
0.80261981 0.41021883 -0.61192966
0.27993551 0.57336593 -0.94345486
-0.77431893 -0.16124862 0.62794781
0.98678458 -0.60166627 -0.13799495
-0.81235754 0.94553775 0.60560882
-0.58883846 -1.03135717 0.43546623
0.99776554 0.93023485 -0.03890831
-0.04394529 0.00940690 -1.00009942
0.36847463 1.02778554 -0.00232628
-0.36946601 -0.00497728 -0.93339682
0.13095224 0.98752594 -0.29145521
-0.14858860 0.99532682 0.88555038
0.75394392 -0.41410154 0.63706386
-0.37089103 0.69494343 -0.93324047
-0.57604825 -0.97031868 0.81814492
-0.22451799 -0.74871916 -0.98009115
0.06680775 -0.21854161 -0.99412453
-0.83799267 0.56227940 -0.54079288
-0.20014769 -0.49473643 -0.98840076
-0.07702044 1.00585580 0.40678093
0.74921179 0.95344955 0.67245811
-0.47811463 -0.76441550 -0.87508053
-0.59313524 -0.62729096 0.77800441
-0.21633495 -1.00042689 -0.68847501
-0.84195805 1.00352097 0.08065138
0.69622493 -0.99530500 0.04457346
-0.82217860 -0.23076464 0.56063318
0.77276039 -0.02836740 -0.62587565
0.26995057 -0.98993671 -0.60477310
-0.90726280 -0.20820267 0.45018455
0.40683565 0.98834372 -0.44536868
-0.59684455 1.00653398 -0.59909642
0.91443217 -0.50795269 -0.39853123
-1.03242016 -0.40045691 -0.00973871
0.72894859 -0.37319350 0.67952091
-0.52653217 -0.93095976 -0.82636291
-0.31064212 -0.36352414 0.96704191
-0.80743837 0.92804265 0.57097000
0.31612715 1.00821102 -0.70304614
-0.73049641 -0.99864167 0.35277143
-0.79543340 0.88044393 0.56233329
-1.00111794 0.38595802 0.09462809
-0.13555525 -0.17903288 0.98321837
-0.50268555 -0.99908549 -0.78342748
-0.03439105 -0.96194667 -0.99045831
0.44811869 -1.01782548 0.89117050
-0.99282658 -0.53742456 0.07351090
0.97410631 0.56497300 0.24199091
-0.01218999 -0.99864572 -0.91926026
0.84887493 0.43582308 -0.56676817
0.03422108 -0.09073978 -1.01460099
0.27657321 -0.14980172 -0.94593441
0.27700776 -0.98226643 -0.55398977
-0.93982768 1.01322877 0.00167525
-0.78780711 1.02372539 0.22042406
0.99680758 -0.02750102 -0.10546010
0.74666524 0.94878018 -0.64928716
-0.99514151 -0.61122894 -0.14071493
-0.73318517 -0.32719299 0.64483863
0.94705462 -0.04445086 -0.34022173
0.78704906 0.17942354 -0.63158965
0.46967015 -0.98330665 -0.51002222
-0.40478078 -1.00102031 -0.91180694
-0.37329659 -0.79616749 0.92267275
0.27834052 -0.99356061 0.05777453
0.81216466 -1.01335979 0.58383423
-0.06228895 0.89288807 1.00820923
0.07743340 1.01411903 -0.81598872
-0.71567249 -1.00783229 0.29732123
-0.93410766 -0.43089411 -0.40975031
0.33681679 1.00565791 -0.65244132
1.01076305 -0.56306374 0.09569977
-0.91366124 0.32423756 0.43361211
-0.83700752 1.01402962 -0.37236139
-0.03543740 0.37591234 1.00079250
0.17661262 0.99951881 -0.01600820
0.98665941 -0.08683729 0.09774716
-0.87067330 0.02918312 -0.43642408
-0.83533347 0.12730734 0.51070994
-0.09914007 0.32855403 1.01882195
-0.52826905 1.01700234 -0.31221947
0.63988972 -0.31778514 0.79449236
0.96800470 -0.90130377 0.25645325
0.33175865 -0.18436576 -0.92890567
-0.29719788 -0.17351602 0.92603338
0.47780529 0.97382146 0.65539759
0.77360916 1.00731027 0.39949828
0.24211283 0.27248952 -1.01046920
-0.44433916 -1.00269270 -0.05680148
0.00619833 1.03059876 -0.70110941
-0.74332809 -0.16336590 -0.65313840
0.96136057 0.82635510 -0.18653356
-0.18863030 0.18729077 -0.97921896
-0.62198663 0.80305642 0.74911606
0.40208638 -0.00984448 -0.91147023
-0.54344535 -0.84742123 -0.82579941
0.86908543 -0.98424578 0.30809352
0.20872074 -1.00328481 0.31213194
-0.38206226 -0.76115769 -0.93515569
-0.99707150 0.02145972 -0.00135126
0.29155836 -0.49827740 0.96120054
0.92701912 -0.70815617 0.39999390
-0.74935210 0.96231860 -0.66850501
-0.92985046 0.87133694 -0.37246755
-0.65981555 -1.01654506 -0.30976272
0.43506202 0.97870368 0.30686671
-0.64578331 -1.01352799 0.22090079
-0.68770850 0.98625624 -0.06240722
-0.96478784 -0.49388239 0.32910770
-0.98640060 0.95845693 0.19172004
-0.51365852 0.37991965 0.87236392
-0.63102460 0.69579804 0.78363669
-0.94425607 -0.84016919 -0.30844456
-0.70988643 0.51101321 -0.72543734
-0.76500714 -0.58232009 0.61250305
-1.00085294 -0.98370105 -0.18358251
-0.77233732 0.91127354 0.65136600
0.92748106 0.91508305 -0.39591116
-0.89701259 -0.85309249 -0.33404264
0.40622854 0.07034030 -0.90922391
0.97124362 -0.68963039 0.26121080
-0.25549334 -0.77513784 0.95232886
-0.95080519 0.58091259 -0.29743937
-0.20359448 -0.67194581 0.97944009
-0.50072002 -1.01123738 -0.31426156
0.32301465 -0.56809872 -0.96038139
-0.18380205 -1.01760292 -0.50254601
-0.31757513 -0.99533075 -0.38046691
-0.24406476 0.80417609 -0.96590889
0.40327215 0.99125201 -0.10420462
0.87508559 0.99151325 -0.28636956
0.99214923 -0.74362975 -0.01466607
0.58369887 0.54023105 -0.76255888
-0.81086397 -0.75566536 -0.59987348
0.54030132 -0.75809973 -0.83408737
-0.96400023 -0.98094922 0.18461460
-0.57686782 0.99641007 -0.37983057
0.55564082 -0.05499172 -0.80734771
-0.01619851 -0.98450297 -0.74544406
0.33739060 0.61089498 0.94225967
-0.26143789 0.99054843 0.90006131
0.28719404 -0.02861858 0.95984387
0.40099815 -1.00497925 0.86658692
0.20937452 -1.00055969 0.95429158
-0.77381313 0.85240990 0.63368630
0.78022599 -0.77664715 -0.62459588
0.30762872 -0.33400384 0.92768556
0.63738382 1.04218388 0.10701071
-0.34880871 -0.06049329 -0.91829079
-0.40145573 -0.71448803 0.89774179
-0.87565339 -0.70543975 0.45236275
-0.06506708 -0.58478785 1.00228548
-0.87163293 1.00965190 0.21686876
-0.19663632 1.01173925 0.91643167
-0.62217247 0.06776144 -0.75034946
0.48126575 -0.99416417 -0.68664312
0.94186378 0.29111430 0.37570348
0.02238847 1.01277566 -0.00817053
-0.25136599 -0.92065883 0.97505653
-0.16694535 0.65870392 0.98339224
-0.79074943 0.74588662 0.61365563
-0.77972829 0.28857535 0.64255702
0.61565256 -0.41344061 0.79169655
0.53751743 -0.45853853 -0.86667001
0.00771676 -0.98745799 0.37584019
-0.40803179 -1.01014876 -0.81237274
0.68137825 -0.58686668 -0.69676524
-0.91360474 0.41403729 0.36131704
0.97173202 0.09867904 0.24887088
-0.44814032 0.26800671 -0.89751762
0.14722121 -0.07653297 -0.98843086
-0.92508733 0.66591686 0.40077582
0.00818176 -0.31725517 -0.99323267
0.53510213 0.35499206 0.82825351
-0.67900789 -0.95068496 0.74881792
0.99447894 0.63686740 -0.06376143
0.82993495 -0.30313450 0.54913574
-0.55401993 0.99396062 -0.04991995
-0.98248935 0.54456776 -0.18245848
0.62087858 0.51962650 -0.78874004
-1.00791574 0.32474136 -0.14294687
0.85146737 0.37743723 0.51110947
-0.93715107 -0.95025486 0.32154521
0.98941040 -0.55838382 -0.03784414
0.39651477 0.58731383 -0.90234303
-0.83512795 0.73280025 0.58262521
-0.98921227 -0.79157817 -0.12456419
0.68983889 0.99760520 -0.65896952
-0.86579084 0.45853636 0.44552204
-0.55029309 1.02439857 -0.59814167
0.09773604 0.99961257 -0.80625856
-0.39639875 0.31693411 -0.89608508
0.18779524 -0.47950545 -1.00266695
-0.88314497 -0.92158991 -0.49812251
-0.25979102 -1.00789702 0.51363564
-0.24524908 0.99679834 0.95168084
0.96587241 -0.98595947 -0.27008250
0.40717140 1.01437700 -0.39229387
0.16486567 0.51263273 0.97878426
0.97324312 -0.43118891 0.24139695
-0.71464801 -0.34260195 -0.68947816
0.75556636 0.68862706 -0.67223901
-0.97697008 -0.48133743 0.20709535
0.95230186 0.99998039 0.13027950
-0.21548976 0.85265768 -0.94682163
-0.26993796 -0.01013168 0.98041767
-0.40965134 -0.99352401 -0.47587866
0.32381454 -1.00111437 0.51281124
-0.48877195 -0.00216822 -0.86296159
-0.57953501 -0.87137955 -0.82537681
0.47890970 -1.00998545 0.02954195
0.31266388 -1.01417494 -0.72644669
0.99484050 0.45696822 -0.23697315
0.38683167 0.31422010 -0.91529781
-0.74488163 -0.65130037 -0.63432521
-0.21729138 1.00602484 0.55263823
1.02156925 -0.06671418 0.00698053
0.35418704 0.98795456 0.36220691
-0.25118330 -0.99032420 -0.38139060
0.17097074 1.01076269 0.98491699
0.70916939 0.59965152 0.71969974
-0.21633428 -1.01392448 0.76794219
-0.48780292 0.32495895 -0.87556320
0.98240316 -0.11740261 -0.18342987
0.57334769 -0.46261460 0.82607520
-0.25204569 -0.99778092 -0.43286636
-0.28259078 -1.00814760 0.72874498
0.69104266 0.56787926 -0.73250538
0.69881916 1.00505662 -0.29184920
-0.60728312 0.10581467 0.79826957
0.00714534 0.99278933 0.82740980
-0.89257705 0.74428529 0.46422610
-0.94019198 -0.56035668 -0.33467460
0.82997942 0.99590230 0.02934828
0.30367261 0.68520343 -0.93872726
0.37771443 -0.99847919 0.89151484
0.91881275 0.68917960 0.44540471
0.78611338 -0.02877594 -0.61564577
-0.91167367 0.03683839 -0.44372961
-0.40807685 0.03326404 0.92082256
0.25040945 0.97803158 -0.31545287
-0.88619637 -0.02737396 0.47869521
-0.98802495 -0.82445300 -0.13651806
0.26615372 0.82366449 0.95103234
0.24951258 0.98166203 0.68562520
-0.74000001 0.97998250 0.35184538
-0.57682240 -1.02332664 -0.12433858
0.10821194 -0.70299017 0.99711591
0.96415389 -0.11397754 -0.00130224
0.02596228 0.90854216 -1.02461910
-0.74985099 -0.98859125 -0.01602012
0.84260726 0.87885278 0.53389770
-0.97295022 0.14081548 -0.32277274
0.67026269 0.01417944 -0.75249326
0.25221023 1.01875567 -0.10982168
0.88680494 1.00627482 -0.03051032
-0.50844884 0.78884649 -0.83613390
-0.74223626 -0.84675431 0.67396194
0.98766315 -0.60705155 0.05182923
-0.42788807 -0.63254613 -0.90931815
-0.86619771 0.83782041 0.51406163
0.02204261 0.63607430 -0.98630214
-0.59647238 -0.68755037 -0.79091626
-0.54345751 0.50522214 0.84339780
0.37515086 -1.02144825 0.80106705
0.61381567 1.00434065 -0.12846033
0.42089772 -0.40121791 -0.92054945
0.52591908 0.63671112 -0.88025588
-0.70300055 -0.97256893 0.72735214
0.61200547 -0.50218165 -0.78021258
0.26408398 -0.01252484 0.96341926
0.70475018 0.72368211 -0.70924920
-0.55765688 0.83779061 -0.83065468
0.85215700 -0.22451082 -0.53271133
0.86265540 -0.43767861 0.47968489
0.89432287 0.12353600 -0.45308191
-0.61129558 0.35078013 0.76731229
-1.00580192 -0.05113079 0.16792938
0.68216360 0.22231530 0.77101475
0.48703617 -0.50713998 -0.88668185
-0.95332253 0.63736749 -0.30307227
-0.28934282 -0.66054183 -0.96000701
0.41824746 0.88725847 -0.89564598
0.59808326 -1.00723362 -0.43759155
-0.69072378 -1.01162720 0.46101519
0.91659427 -0.76807290 -0.41981131
-0.60625923 0.98633915 -0.49754632
-0.41791472 0.98880541 -0.49863136
0.08518269 -0.99370968 0.24993318
-0.36910900 0.15813391 -0.91640097
-0.03692604 -0.99146354 0.07049079
-0.98969412 0.16944368 0.19804019
0.57183051 -1.01394045 -0.56410486
0.00611083 0.44210613 -0.98914015
-0.52163672 0.50939393 -0.84897798
-0.16166291 0.05990473 0.98372054
-0.20444004 0.99487412 -0.59961462
0.81790721 -0.46520004 -0.61456853
0.45634604 0.89978075 0.87380409
0.99582660 0.44302437 -0.11778239
-0.47080213 -0.31809431 -0.89969903
0.71677947 0.29451230 0.67894202
-0.90201914 -0.99865282 0.23137726
0.89859521 0.44478846 0.43764213
-0.04766597 -0.97564334 -0.97384596
0.94788945 -0.11224633 0.31264776
-1.00287640 -0.80336165 -0.07098323
-0.37374964 0.23478654 0.92101705
0.95190811 -0.38748270 0.30373025
0.25120223 0.04170556 -0.96825504
0.96814954 0.81158352 0.24726442
-0.83505237 -0.35764903 -0.56507885
0.81074393 -0.99154609 -0.22192824
-0.63119566 1.00809491 -0.40367210
-0.76762426 -0.98693913 0.18742859
-0.67434371 -0.99224389 -0.03836997
-0.21121892 0.85664397 -0.99996966
-0.95472193 -0.41759276 0.28391659
-0.66486490 0.67691851 -0.74507272
0.31822109 -0.98231953 0.87908673
-0.09912512 0.27089146 1.00163341
0.00468894 -1.00662112 0.98380464
0.86002505 0.75322348 -0.46931687
-0.37747812 -0.90897822 -0.92853516
0.98302066 -0.07938925 0.22906184
-0.95887756 0.95074707 0.33270368
0.17243116 0.21250750 -0.96805423
0.99412775 -0.83651304 -0.08242046
0.65988028 0.66618955 -0.76210046
-0.04253016 0.76160049 -1.00181723
-0.07519526 -0.97368819 -0.67512918
-0.19291200 0.10455660 -0.98695558
-0.12077044 0.99580485 -0.74949598
-0.64061975 1.01334286 0.18003796
-0.96930492 -0.71818620 -0.22189076
1.00279367 -0.63251948 0.09405525
0.93302524 -0.85210830 0.28856319
0.87104094 0.88466209 0.45858282
-0.71050584 -0.53449261 0.71079659
-0.46141720 -0.98029089 -0.63918793
0.72506273 -0.71987993 -0.68561357
-1.01780868 -0.47935757 -0.11707938
-0.76902592 -1.01305020 0.34708944
0.28619355 -0.36237910 -0.96887439
0.04989965 0.34307238 0.98319983
-0.14067078 -0.99819231 0.52964497
0.52928567 -0.79198742 -0.84180188
-0.58554471 0.97974879 -0.79451388
0.90860927 0.61062491 0.42474177
0.10842124 0.96208709 -1.01141500
-0.56691384 1.00100219 -0.14434864
-0.72921336 0.67152119 -0.67307168
0.32805321 0.98309088 0.80713612
-0.77447295 -0.36082372 -0.66006416
0.42737356 -0.96945679 -0.23448399
-0.89923072 0.98183894 -0.40866300
0.68121278 0.28611436 0.75324619
0.78790665 0.04611417 -0.61415291
0.68937123 1.00836480 -0.59430075
0.82998776 -0.54964626 -0.53782833
-0.96562409 0.93446320 -0.33205780
-0.82314193 -0.51010096 -0.50871456
0.55163932 -1.00313079 0.38329512
0.23068024 0.60245818 -0.96265793
-1.00729418 0.23439597 0.15284336
0.87484121 -0.44872588 0.47991228
-0.51597190 0.21098317 0.87515414
0.60161257 1.00220275 -0.71807158
-0.69829285 -0.90642703 0.73493820
-0.97578192 0.59412438 -0.07280677
0.07875875 -0.34050795 1.02588916
0.37735674 -0.17506249 0.89970183
-0.97779584 -0.63633293 0.25858790
0.08068399 0.34278685 1.00449443
-0.16782545 -1.01794946 -0.33981320
-0.58623731 -0.75189894 -0.81840128
-0.27300516 -0.72728968 -0.96840680
0.57428575 -0.39392924 -0.78787881
-0.68746936 -0.11090786 0.73441744
0.06729363 0.99615639 -0.49696881
0.28335616 -0.58469462 -0.94973397
-0.47772527 -0.02925270 0.86812204
-0.57754064 0.70631009 0.80915838
-0.79529119 -0.94460028 0.62886554
0.05148536 0.44914219 -0.99290675
0.97714674 -0.14596048 -0.09845294
0.73694956 -1.02029812 -0.24948373
-0.17597468 -0.08824921 0.97895670
-0.20660219 0.24032035 0.96995884
-0.99870861 -0.54966503 0.02960133
-0.88513565 0.51287878 0.45164603
0.98181939 0.07260452 -0.16324943
-0.61531186 0.99925387 -0.08475333
-0.80377889 0.60927105 0.58544141
-0.16780116 -1.02583146 0.11612678
0.40385348 -0.81503147 -0.92228276
-0.44118387 0.74069643 0.89795840
-0.75596774 0.89951354 -0.67312837
0.93534899 0.28061685 -0.36211714
0.16162717 -1.00733185 0.35720092
0.63755155 -0.73004556 -0.73313099
0.74959612 -0.88610572 0.66423845
0.81152773 -0.40591255 -0.57507515
-0.38154075 -0.99009132 -0.41699138
0.98886740 -0.75173205 -0.26882008
0.85091662 -0.79749972 -0.51930708
-0.81917655 0.43920603 0.53865153
-0.21222946 -0.99647260 0.64651495
0.59795463 1.02827942 0.51348603
-0.34609538 -0.99662220 0.50583857
-0.80979359 0.30359709 0.56437993
-0.99785900 -0.32468292 -0.06140853
0.69801354 -0.38727364 0.71592301
0.66698873 0.99076170 -0.05151611
0.62239182 1.01571226 -0.68659288
0.41540423 0.74194980 0.91135615
0.52561152 -1.01776838 0.40631905
0.87486720 -0.05995445 0.50622755
-0.13852583 -1.01224017 -0.85916436
0.92671049 -0.93940544 0.36708626
0.02333852 -1.00853109 -0.00175350
0.75546062 -1.00736856 0.08905803
-0.97636032 -0.98650360 0.20801377
0.44081908 1.01643968 0.75522447
-0.42477986 -0.77162272 -0.89686406
-0.97239625 0.23623323 0.22905381
-0.10104439 1.00867295 0.58565092
-0.24517828 0.03850704 0.95179021
0.19387789 -1.01724219 -0.11293755
-1.01965928 0.46711743 -0.03731580
0.31304124 -1.01208639 0.54873300
0.48629561 0.99895191 -0.01484417
-0.67814445 -0.38951901 -0.74684328
-0.53944063 -0.88735557 0.86243576
-0.62099445 0.98559898 0.78716147
0.58724928 -0.85455751 -0.80852562
0.26032579 -1.01837611 -0.26832834
-0.49550834 -1.00775790 0.06123889
0.94181359 -0.27422541 -0.34450805
0.92602563 0.83750904 -0.35889134
-0.07776350 -0.38479069 1.00448322
-0.15560083 -0.87818712 1.00581169
0.98500204 0.08742752 0.09998710
0.58178794 0.27476114 -0.81606030
0.53950334 1.00038946 -0.02944581
-0.16869684 0.73235840 -0.98068446
-1.01116014 -0.77088940 -0.07157220
0.32335290 -0.44223779 -0.94644964
-0.14048903 -1.00041270 0.11651436
0.88598835 -0.23901305 -0.45275548
0.02664019 1.00610244 -0.81878704
0.78104019 0.83090979 0.58419847
0.79952455 0.47801962 0.54288483
0.79743063 -0.26375800 0.61284989
-0.25259781 -1.00486970 0.84117329
0.36271214 -0.99109823 -0.44422835
-0.49413496 1.01334691 0.09512446
-0.89747143 0.56233138 -0.38349608
-0.70372748 0.99789023 -0.41897872
-0.42821267 0.97429478 -0.71780574
-0.57888818 0.57277805 -0.82440901
-1.00018752 -0.81468207 0.16818550
-0.72757387 1.01334810 -0.02373996
0.69765580 -0.23938134 -0.70995539
0.57471764 0.79608560 -0.83240092
-0.05282731 -0.36070207 0.99190027
-0.98024487 0.93510365 -0.20645107
-0.86342132 -0.70141709 -0.47242540
-0.69243014 0.46369839 -0.71532798
-0.82995558 0.73783433 -0.60988134
0.93678713 -0.18431547 0.33302194
-0.33680910 -1.00103462 -0.14737429
-0.99094284 -0.11750276 -0.11673996
-0.13076247 1.00354433 -0.47089660
0.77675664 0.27772984 0.63952905
0.20763406 0.78038746 -0.97369033
0.10096458 0.88416386 0.98617744
0.85930657 0.30923691 0.46316835
0.92102039 -0.96765894 -0.37925500
0.95489299 0.36349621 0.30895168
0.91182923 -0.62664163 0.43632811
0.84187150 -0.56115049 -0.56205428
0.59246528 0.25885552 0.77842003
-0.82777596 0.32819855 -0.55894065
-0.27884948 1.00616026 -0.53963327
1.01567781 0.41768172 0.02889495
0.97376001 -0.36686236 -0.20318747
-0.85993302 -0.24307701 -0.46851915
0.74476123 -0.06528449 -0.67064899
0.96586072 0.18160638 -0.23684968
0.54127955 1.02308297 -0.56406420
-0.22455806 -0.04962781 0.98006374
0.13019295 -0.22252378 0.98252171
-0.71693897 0.24690223 -0.72348076
-0.38418511 0.95251328 -0.93920189
0.66313779 -0.95404327 0.71318883
-0.42430925 -0.99296415 0.57563007
-0.96928751 0.99392217 -0.12640856
-0.97395420 -0.14313228 0.17531803
0.98050892 0.24028462 0.21841209
-0.00349393 -0.73930746 -0.99709594
0.44481069 0.74549383 -0.91235089
-0.30194443 -0.20897436 0.95913279
-0.11691020 0.88518661 -0.98722941
0.58344638 1.01309252 0.56028742
0.34448332 0.99005300 -0.79796106
-0.50622916 0.87490112 -0.84591454
0.09644023 -0.99201900 -0.19443353
-0.33077443 0.10869005 0.92574638
-0.86746120 0.06187687 0.50673032
0.89942384 0.82538658 -0.43232983
0.84070683 0.52198970 -0.53965503
0.80824757 -0.70488447 -0.56912392
-0.70906615 -0.43848383 -0.67358947
0.47976834 -1.00584686 0.39377910
-0.58221650 0.09902448 -0.80258393
0.20551454 -0.54762644 0.96526229
-0.81284261 0.99899429 0.29742789
0.95750630 0.95610321 0.22711484
0.22477446 -0.99235183 0.68777138
0.95305395 -0.04128196 -0.22627422
0.97147524 -0.36608666 0.16626370
-0.44802344 -0.98494697 0.24716492
0.76314640 -1.00111723 0.02509984
-0.71443105 0.98369980 -0.27574807
-0.42093664 0.98959053 0.18087268
0.59881914 0.16834135 -0.82094491
0.69698668 -1.00555861 0.67891645
0.86352408 0.30298239 0.49470684
0.83311355 1.00279069 0.32369417
0.32330552 -0.69718510 -0.93640077
0.96307826 -0.13404109 -0.28864235
-0.59402978 -1.00671363 0.23461404
-0.09031350 -1.00641096 -0.86016148
-0.96123779 -0.06013376 -0.25488979
0.31060651 -1.00177848 -0.28630123
0.91517019 -1.00519645 0.22865510
-0.13719375 0.03351853 -0.96736062
-0.34276518 -1.01919830 -0.46556163
0.73632121 0.99910361 0.47631875
-0.98537016 -0.76121503 -0.18766326
0.69363892 -1.01512909 -0.38765720
-0.17385064 -0.72696865 1.00923443
0.43917474 0.99265248 0.54106319
0.16087358 -0.96270037 -0.97239101
0.81159151 0.53737748 0.57610112
0.31952310 -0.53123719 0.94900304
0.86482942 -0.99439591 0.21395193
0.40755504 -0.55883735 0.89637989
-0.98184538 -0.04285692 0.29699853
-0.32568112 0.98484170 0.13923839
-0.36352077 -1.01590073 -0.17623787
0.25781769 -0.99522930 0.79240704
0.60580719 0.92989504 0.81173730
0.78510535 0.99340081 0.53443873
-0.97088194 0.21394230 -0.22240779
-0.03838440 0.29564184 -1.02613878
-0.25823826 1.00673938 -0.68145925
0.98098361 0.28575641 0.03126482
0.70523965 -0.99506217 0.32324883
0.89689887 -0.89180994 0.44389853
0.29769114 0.73699564 -0.95942360
-0.42004535 0.99778038 0.72098738
0.09818558 0.45462540 0.98827124
0.47091585 -0.79586613 -0.87396109
-0.73952866 0.88963479 -0.66113240
-0.05688915 1.01014161 -0.07205305
-0.39034405 0.99967527 -0.29059255
0.98462832 -0.47456142 0.08380087
-0.53988135 -0.98098731 0.80122489
0.83043098 -0.42530775 0.56737638
-0.54914975 -0.99528146 -0.83118564
-0.03584580 -0.99615055 0.27871817
-0.36899018 -1.00116503 -0.37105587
-0.73600972 0.78298122 -0.68888408
0.34008732 0.22409838 -0.95725262
0.58985782 -0.14633428 0.79786199
0.55614173 -0.98036844 0.58066028
0.76730585 -0.99882138 -0.58183205
0.35206610 -0.97926503 -0.95798749
0.64902687 0.99078912 -0.01632875
-0.62501335 0.73972601 0.81129396
0.99211824 0.83348435 0.04969220
-0.17524709 -0.98111314 -0.76548022
0.40627787 0.84332913 -0.91761619
-0.55196190 -0.02479443 -0.83942217
-0.87318337 -1.00494480 0.25939575
0.03842841 1.00768292 0.73020023
0.99574065 -0.47109023 -0.07284851
0.48799634 -0.09435132 -0.87672424
-0.90937924 -0.09057564 -0.41857114
0.67405736 -0.97355413 -0.75133884
0.26250499 1.01060402 0.02833112
0.61724043 -0.99602270 -0.46943519
-0.98007727 -0.34419227 0.12616767
0.17956182 1.00272059 -0.29944110
-0.40314496 1.02045655 -0.66673899
-0.95393980 0.01732321 0.30092567
0.29535449 0.76768941 0.97159332
0.49822730 0.99920881 -0.40482438
0.02198323 -0.99639779 -0.44838598
-0.06858242 -0.98238689 0.65042925
0.33864847 -0.97789216 0.93318278
0.95979500 0.89859843 -0.21568847
-0.86860204 1.00501549 0.23132414
-0.12372486 -0.29637477 -0.99260217
-0.57518411 -0.23237488 -0.80760759
-0.36612114 0.05228032 -0.96373713
-0.32596034 -1.01525211 -0.72477490
0.58098817 0.96726549 -0.77881634
0.71735668 1.02472520 0.51272082
-0.23678759 -0.96448183 0.10919262
-0.11722020 -0.37337354 -0.97707444
0.81510270 -0.64862484 0.57895249
-0.01795154 0.79553652 0.99705046
-0.14615054 -0.06920714 0.99319702
0.56321466 0.01942367 -0.84422278
-0.21171488 1.00860023 0.69889826
0.36578539 -0.18444215 -0.91614407
0.98800361 0.75478941 -0.18244164
0.49572784 -0.69922358 -0.84761018
0.00353624 0.99399889 0.76509249
-0.12753956 1.00849915 0.62941164
-0.39117798 -1.01742446 -0.07058432
0.84057343 0.54596519 0.54929215
-0.01752210 1.00395370 0.79365182
0.82637548 -1.00938606 0.52650923
-0.05430104 -0.99245930 -0.09389166
0.99540198 -0.66522199 -0.16802883
0.93114746 -1.00218594 0.03469506
-0.06533720 0.98205954 1.01390719
0.87066364 -0.47234845 0.50900477
-0.92826211 0.74613047 0.39340371
0.80682766 0.98437816 -0.36573267
-0.77255154 0.55375308 0.60588443
-0.95631540 0.27613905 -0.11533473
0.31814399 1.01057422 -0.48583314
0.37452099 -0.36688992 -0.92379045
-0.13811466 0.98740423 -0.42317289
0.26169413 -0.36086753 0.97309279
0.93421960 0.49407437 -0.35382307
0.93150604 0.53764379 0.27775654
0.74306989 -0.98113590 -0.08462375
0.38415244 -0.07992331 -0.94682568
0.39730102 -1.00389040 0.54662365
-0.42519152 1.01781344 -0.45017397
-0.18556684 -1.00094008 -0.68724316
0.59117520 -1.00393581 0.00444310
-0.69856739 0.50440753 -0.73373795
-0.81687891 -0.99476922 0.46461076
0.80387712 -0.51437217 0.58257252
-1.00591409 -0.09397873 0.16272432
-0.97892606 0.62453073 -0.08730950
0.78652513 0.93957490 0.61078441
-0.09634560 -1.00547838 0.83514231
0.70349383 -1.00411475 0.09629478
-0.89959610 -0.50773919 -0.42562973
-0.72001326 0.77224040 -0.68949097
-0.96817195 0.10010438 -0.30210570
0.16660812 0.99397486 -0.20230491
0.97991371 -0.94484651 -0.17581469
-0.98844540 0.83570921 -0.24281101
0.92687440 -0.98551387 -0.31363055
0.93174410 -0.08954165 0.43857014
0.28468999 1.00489998 -0.17547382
0.64135528 0.89810556 0.72425920
-0.93788588 -0.23683698 0.33228865
0.42249790 1.01678467 -0.67771804
-0.66970623 1.00480890 0.25998595
0.84014416 0.97905701 0.43848276
0.97406220 0.57091993 -0.09031841
-1.00450432 -0.99120361 0.11785535
0.80487514 -0.68842930 -0.59184402
-0.77426183 0.35556269 0.62157804
0.98116839 0.27322885 0.04603295
0.87283397 -1.01229560 -0.34192953
-0.33601877 0.94543910 0.94635224
-0.82751131 -0.09463032 -0.57585293
-0.95238292 0.88780522 0.31060112
-0.80300581 0.82835597 -0.59835064
-0.92155933 -0.38532430 -0.35272905
-0.99795091 -0.26517212 0.01481285
-0.67963111 1.01432776 0.02571738
-0.24748445 -0.97039998 0.88840896
-0.16346411 -1.00570714 0.15879062
0.97988772 0.21624054 0.19289425
0.09575799 0.96148801 1.01384664
0.57108557 -0.62016535 -0.79596007
0.96545565 -0.83354199 -0.23629157
-0.86968493 0.43383551 -0.48148730
-0.57143283 -0.66701442 -0.82808185
0.91535640 0.26544023 -0.32503331
0.01865526 -0.26064834 -1.01116467
-0.45148885 -0.37318587 -0.91132057
0.92285585 0.36770871 0.40096667
-0.12108444 -1.00435042 -0.90024340
-0.25162983 -0.51612234 -0.93287456
-0.35742489 -0.99582130 0.24851291
1.00151849 0.10661032 0.19579074
0.70810163 0.42811418 0.70308137
0.10623101 -1.03271115 -0.13615067
-1.01060569 0.61818767 -0.02547444
-0.18924247 -0.29778850 -0.97125310
-0.16958067 0.98492223 -0.05307305
-0.74641418 -0.97957695 -0.35123408
-0.94429970 0.70240206 0.35548913
-0.64372480 -1.00030589 -0.26455960
-0.67779505 0.82755011 -0.75081539
-0.96218526 0.72266632 0.25694498
-0.83786178 -0.14159305 -0.57112896
0.51953542 -0.78047109 0.85316455
0.35125458 -0.99618018 -0.88670099
-0.87856078 0.99106413 -0.34428534
-0.97793090 0.28784141 -0.04762112
0.64231563 0.64668840 -0.79692197
0.49110195 -0.96536505 -0.56000948
-0.48904979 -0.42852125 -0.85474330
0.67935193 -0.97941536 0.71224117
-0.50052583 0.90244663 0.87697029
-0.83220434 0.99140847 0.35915551
-0.95622075 0.25337183 -0.26392490
0.55102468 -0.22175176 -0.84139168
0.81534636 -0.89366174 0.58703607
0.33021417 0.96447325 -0.40978938
-0.32138723 -0.53903025 -0.94799799
-0.26953340 0.67972088 -0.96169096
0.08958196 1.00529480 0.32700756
0.37416568 1.00821352 -0.03628840
-0.37173048 0.05157307 0.93785727
0.13526285 0.62440604 0.99641538
0.69353843 -0.48785338 -0.71896124
0.88661456 0.84824306 0.39317831
-0.71169031 0.57611614 -0.66867030
0.47273320 0.99004668 -0.57146931
0.00068734 -0.99830043 0.84764510
0.31912583 -0.66627532 0.95075279
0.44363725 -0.18287091 -0.88891023
-0.78172576 0.07590702 -0.63354319
-0.61328840 -1.01549959 -0.68719947
-0.02106782 0.39984414 1.02606297
0.27386680 0.31678525 -0.94384360
-0.67484629 -0.79035765 -0.75562990
-0.60539293 -0.94641560 -0.79248685
0.63452947 0.09964082 -0.81468701
-0.21245784 0.94134420 0.98187435
0.84767735 0.99743950 -0.32586884
0.60505736 1.00569403 0.75701523
-0.39860129 -0.99524844 0.84209681
-0.93347740 -0.48471224 -0.35060373
0.97606683 -0.69489092 0.14644118
-0.92419958 -0.79589063 -0.41271833
-0.99665558 -0.22999217 0.11507974
0.94515085 -0.01623720 0.34031948
-0.83553803 -0.80483049 -0.54358339
0.82741857 1.00300694 -0.16865526
-0.97717297 0.01456902 -0.28426746
-0.98911536 -0.42741781 -0.27018970
0.81889570 0.38091424 0.58051616
-0.88073540 -0.60526425 0.44916141
0.29872194 -0.99118328 -0.57913095
0.95653725 0.35471174 -0.24173994
0.30022293 0.40923220 0.95622164
-0.85990536 0.56134272 -0.48346713
-0.82664025 0.45473477 -0.61988413
0.62015486 -0.13618667 0.75594896
0.99642718 1.03463387 -0.04549409
0.30437365 0.99866343 0.63671112
0.05555968 0.02260784 -1.02318692
-0.03313963 -1.02040327 -0.69132280
0.87120092 -0.98222095 -0.03041106
0.30963078 0.99133617 0.33872241
0.26303521 -0.96511883 0.28932062
0.95305300 0.19267274 -0.30752069
-0.80084276 -1.02143800 0.38422066
0.24715786 0.77046478 0.93381506
-0.27941728 0.24920933 -0.94196999
-0.09474027 -1.01651573 0.39664099
-0.93148994 0.97144336 0.03131834
0.42828459 0.99109024 0.65004462
-0.01500139 -0.07110786 -1.00343800
-0.85089946 0.14757808 -0.54693198
1.00141537 0.89962268 -0.19010505
-0.13134281 0.71964341 0.99097109
0.25204259 0.15705450 -0.96778464
-0.63677633 0.52012599 0.80615795
-0.83290112 0.78014117 0.55408031
-0.21107917 0.97023004 -0.65843999
0.59974754 0.98442262 -0.00300956
-0.78258801 -0.33172613 0.58566904
0.70432031 1.02023733 0.28165945
-0.94482732 -0.50831711 -0.29852954
0.13623518 1.00076079 0.36063585
-0.17645061 1.00376272 0.59355140
0.84276772 0.97765493 -0.55214876
0.49101964 -0.49236676 -0.85871428
-0.31776822 0.85620713 0.96882480
-0.80255163 -1.01811242 0.46165130
-0.78468287 -1.02481329 -0.31712496
0.92761850 -0.02721112 -0.36266211
-1.02479398 -0.62993544 -0.04670865
0.44170675 -0.48699501 -0.90292960
0.36188361 -0.65635806 -0.92443281
0.97914660 0.45964143 0.07942479
-0.21300189 0.01941658 -0.97565854
-0.56592238 -1.00772011 -0.10236423
0.36332881 0.95748442 -0.92272526
-0.96975076 0.75772011 0.32720608
-0.87551856 -1.00028837 0.37714741
-0.63268948 0.67992097 -0.78906429
-0.77444220 -0.47817719 -0.68456519
-0.98395836 -0.57310390 0.28777507
-0.45892683 -1.02182817 0.36974257
0.83271837 -1.03403366 -0.12512986
-0.23677231 -0.53270829 0.97615725
1.00778592 -0.30131692 0.15818797
-0.29529586 -0.30427617 -0.97317958
0.48554131 -0.99224997 -0.51993972
0.84235537 0.62429082 -0.49664152
-0.76000762 1.00976753 0.38266820
0.32794991 -0.99056435 -0.50504100
0.95050776 0.01591016 0.27398488
-0.49479318 0.63787872 -0.88109821
0.87691677 0.10558283 -0.48599678
0.99803841 0.26802051 -0.08308896
-0.04616346 -0.98468548 0.69395018
-0.41466880 -0.30797905 0.88998729
-0.02172079 0.85330909 -1.00723815
0.31918341 1.01167798 -0.35600209
-0.64992356 -0.43340489 0.75489438
-0.78638947 -0.70849347 0.59213573
-0.79230177 0.80683076 0.60489780
-0.42094058 -1.00890481 -0.39908445
-0.17420755 1.00024545 -0.98634630
0.18410519 1.00679672 0.69002658
-0.98756492 -0.78508514 -0.02851065
0.91687000 -0.89792114 -0.33415204
-0.60047162 0.75154370 -0.81243134
0.63844693 0.98658341 0.77869874
0.34651688 0.08626634 0.92928624
-0.92184103 0.75828594 -0.32935557
-0.61487174 -0.38586354 0.73822892
0.78671706 -0.16088298 0.61579722
-0.94837642 1.00775588 -0.13994218
0.72639310 0.64736587 0.71170187
0.57837617 0.98900598 0.37932390
-0.43832108 0.98872322 0.71624428
-0.46766776 0.67491561 0.89685851
0.99911964 -0.23970497 -0.10266279
-0.99248743 0.89166504 0.15061887
0.97063053 -0.49545836 -0.25317159
-0.83987617 -0.00227757 -0.56983680
0.07476725 0.99676877 -0.10856976
0.98517144 -0.51753008 -0.10801177
0.81796002 -0.53141171 -0.54120171
0.84896553 -0.08928131 0.52048850
-1.00184262 -0.53324944 -0.12446876
0.25499088 -0.37322751 0.93760794
1.00020289 -0.78544694 0.07801647
0.24159019 -0.93476999 0.97366083
0.73244691 -0.98062986 0.12126656
-0.10255317 0.96704763 0.24378031
-0.39928278 1.00469351 0.12881732
-0.25182912 -0.99667186 -0.06404394
0.12423053 0.99184096 -0.16073835
-0.16278975 0.87170732 0.98557538
0.76858866 1.00868702 -0.35464144
0.98927844 -0.67834121 0.10855931
-0.47044674 -0.98337096 0.78321111
-0.70808125 -0.06612230 -0.68165112
0.52415776 -0.80837065 -0.82892478
-0.45908341 -0.87260157 -0.88078189
0.05489812 0.46889600 0.99912965
0.13972004 0.60239649 -0.97573447
-0.70054924 0.12588562 0.71506417
-0.61380053 -0.14815107 0.79389364
-1.00574839 -0.29599795 -0.04171307
-0.45779821 -0.98525089 -0.69232386
0.77222836 0.33068004 -0.65439236
-0.31651536 1.01971984 -0.26357204
0.99570441 -0.22544412 0.08643105
0.10017452 -0.54028767 0.98223710
0.88265252 0.29791793 -0.41548157
0.94415832 0.17614116 0.33305773
-0.49267733 -1.00060225 0.57290041
0.16312926 0.05023110 1.00239158
0.34265560 -0.91554612 -0.92786908
-0.02545115 -0.35016015 -1.02785683
-0.57860363 0.99624866 0.45681745
0.04214234 0.99547774 0.55538481
0.32464153 -0.99224514 -0.09086540
0.26551217 -0.45284209 0.96008742
-0.54105401 0.91367209 0.83419180
0.58086765 0.48616338 0.82155198
0.52650213 -0.91405082 -0.86746538
-0.26813620 0.25381818 0.97538751
0.11104441 -0.00955964 0.99823159
-0.07466416 0.08818510 0.97060496
0.01990887 0.90861666 0.97588450
-0.49354079 0.26152372 -0.85945761
0.94063330 0.22166900 0.30054852
-0.60520828 1.01182377 -0.09030101
0.36660719 -0.98820174 -0.01032389
-0.29023808 0.88779378 -0.97140688
-0.84343863 0.32166773 -0.52559829
0.47447002 -0.40245315 -0.89234006
0.93524873 0.37668329 -0.39600646
-0.17702155 1.01038349 0.24633452
-0.90272522 0.90499413 -0.40818629
0.86599040 -1.02276742 -0.07477061
-0.89356744 -0.57812244 0.48267835
-0.10193992 -0.98371601 0.57494950
0.22341740 -0.99630374 -0.50229675
0.88104343 1.00993800 -0.24077794
0.68023229 -0.68125689 -0.72270232
-0.44468957 0.98820472 -0.29075211
-0.50042963 -0.99321878 0.44452068
0.70830262 0.69711500 -0.70680261
-0.41074005 -1.00067627 -0.17571995
-0.66346419 -0.06935868 0.74286920
0.46058822 1.00711489 0.44304779
-0.29310587 1.01470947 -0.52317679
0.51490569 0.17842822 -0.85809618
-0.92309010 -0.58259732 0.42066222
-0.61558032 0.53636634 0.75996196
0.61327028 -0.47664449 -0.78503770
-0.14734662 -0.99510193 -0.65106004
-0.98142540 -0.14150859 0.17619939
0.97004354 -0.49605575 0.08340956
0.98432088 0.55218399 0.22698987
0.95144641 -0.75045484 0.30366635
-0.97720337 -0.30711406 0.09266251
0.82526636 -1.00298572 0.23890546
0.83999324 -0.05255751 -0.54300714
-0.65141785 -0.28568479 0.73576254
-0.76680076 -0.82124072 -0.63797307
0.67097533 -0.82707030 -0.74408334
-0.21310845 -0.23259413 -0.95337015
-1.01924074 -0.51920182 0.14041646
-0.07741486 -0.20951281 -1.01295900
0.99209225 0.81337285 -0.08362383
-0.52129757 -0.99018186 0.02131923
1.00271857 -0.26434037 0.12915869
0.05365063 -1.00337875 0.99071831
0.52967036 0.00707798 -0.83909011
0.96990478 0.60125315 0.25464037
-0.06879158 -0.87672520 1.00048041
-0.46326819 0.99140555 -0.11162123
0.87992620 -0.45782956 -0.45139858
-0.37346569 0.98027754 0.69782293
0.54783320 -0.01070497 -0.82311296
0.93869829 -0.76277691 0.34950209
-1.00031066 0.43464071 -0.07960200
-0.52439928 -1.00300372 0.03287224
-0.98454285 -0.10583759 -0.24413234
0.81739008 0.76665705 0.60509032
0.98760748 0.99419349 -0.13438059
0.99399853 0.21028163 0.00202150
-0.61522746 0.32719606 0.78741199
-0.90504527 -0.90007722 -0.43560556
0.67056203 0.34781337 -0.71605808
0.65216243 -1.00864053 0.31602204
0.03434963 1.01879394 0.00458261
0.45190355 0.66099751 0.89440763
0.15749323 0.40827474 0.99064332
-0.86485875 -0.94241941 0.49328125
-0.87092590 -0.53815788 -0.47825286
-0.49637029 1.00956321 -0.43378499
0.54288375 -1.01204383 -0.82895672
0.45258960 0.99433601 -0.04528630
-0.80333638 0.56932992 -0.63224852
-0.69655693 -0.96957237 0.44240737
0.35092232 -0.40510830 -0.93002152
-0.58502138 -0.92101723 0.77992284
0.90514278 0.40407774 0.45846909
-0.43976429 1.01621497 0.00232232
0.96513700 -0.59208190 0.24213156
0.88990998 -0.14162910 0.41726717
0.57928848 0.98857111 -0.01975904
-0.98181212 -0.06868464 0.17681830
-0.04447998 1.01308894 0.23574837
0.27061984 0.97239870 -0.20663400
-0.43378356 -0.99082029 -0.18821366
-0.41556278 0.80887061 0.91486615
0.80428493 -0.73531449 0.59809256
-0.84427083 0.90002710 0.53121483
-0.74136639 0.25678360 -0.69234610
-0.18409464 -1.00573397 -0.19039835
0.10783173 0.16113015 -0.96881926
-0.56766665 0.21152465 0.82978314
0.53718269 0.99280113 -0.85533512
0.05198183 -0.99951434 -0.17692614
-0.96635067 0.74935347 0.23173822
-0.62206805 0.98929590 -0.60341519
-0.81896961 -0.72217911 -0.59366113
-0.74096251 1.00304997 0.69602543
0.31342784 0.98815268 -0.26233438
-0.89708900 0.10018530 0.44959202
1.00012827 -0.06406769 -0.19574603
0.55152631 0.62527043 0.83336979
-0.56545937 -0.45710403 0.80518520
-0.40466535 -1.00712132 -0.54807782
0.96511841 -0.11249403 -0.36783975
-0.16206616 1.00701666 -0.01085959
0.23342501 0.93665576 0.98342878
0.98307538 -0.11369997 0.07358048
0.77470481 0.17634431 0.64002573
-0.64595032 0.43475470 -0.73416454
-0.99092746 0.38734376 -0.08209071
-0.18229906 -0.75877523 0.96413523
-0.59098196 1.01793802 0.03652583
-0.27350047 0.39799708 -0.98031366
0.43008599 0.35848245 -0.90001702
-0.27136177 -0.36700484 -0.96593559
0.92154872 0.55891693 -0.44016200
0.94411755 0.36391428 0.37226784
-0.31319419 1.01634812 0.26350623
0.29196519 0.09419232 0.96139562
-0.15521574 1.00249851 -0.78880447
0.05556009 -1.01150823 -0.58797628
-0.05784611 1.01498020 0.36725885
-0.33991763 -0.31208205 -0.95452547
-0.81573224 0.02308440 -0.56818867
