-0.08937968 0.08222610 -0.00310200
-0.05279165 0.06453698 0.03663773
-0.02519481 0.10523441 -0.02398046
-0.01398802 0.13296951 -0.02005087
0.03808446 0.12268954 -0.03113595
-0.01109231 0.06207391 -0.01599141
-0.00281847 0.09081282 0.00179863
-0.04235851 0.06736505 0.02875160
0.02753182 0.05457404 -0.02218633
-0.05212095 0.05412462 -0.01771862
0.03329333 0.10647699 -0.03077474
-0.08499701 0.08595805 -0.01560935
0.04707300 0.11588662 0.00050596
-0.09481337 0.16920950 -0.00967126
-0.04879615 0.05402871 0.00592641
0.01252481 0.11743157 -0.02801266
-0.03286001 0.14650676 -0.00293260
0.05448097 0.15094845 -0.02163510
-0.04274295 0.08993334 0.01612653
0.03267518 0.05913155 -0.00225826
0.02357325 0.15676299 -0.01592954
0.05853540 0.09920481 -0.01483593
0.02851850 0.05761770 0.02400699
-0.03425003 0.17200702 -0.02892619
-0.02845290 0.05190260 -0.01654334
-0.08163166 0.08321010 -0.01963756
-0.09426775 0.14252481 -0.00008642
0.05858335 0.06994423 -0.01234713
0.03979056 0.06293840 -0.04351612
0.04594164 0.07249897 -0.00266427
-0.02376674 0.16984369 -0.02452703
0.03233228 0.06820436 -0.03232702
-0.07854537 0.08168688 0.01228736
0.05209766 0.12752751 -0.03158695
0.04641573 0.14474533 -0.02873088
0.04409820 0.08228583 -0.01847588
0.04043920 0.06151424 -0.03773205
-0.00104348 0.13245507 -0.03235143
-0.06612961 0.06899612 0.03535460
-0.02287167 0.06303398 -0.03055102
-0.03789375 0.08021022 0.02097721
0.03541215 0.15500261 -0.01427791
-0.02930934 0.09404968 0.00276638
-0.01607488 0.07641709 -0.03142571
-0.08011317 0.17756887 -0.00496878
0.03532767 0.08673033 0.00929874
0.05599754 0.15322383 -0.02132135
-0.08513113 0.13977955 -0.01011050
-0.00265072 0.07339448 -0.00479822
-0.01680268 0.05648542 -0.00054423
-0.07611760 0.14960232 0.01248819
-0.06565435 0.08895465 -0.03317175
-0.02458778 0.17074020 -0.01161707
-0.03373043 0.05255096 -0.03109447
-0.02625234 0.16330487 -0.01628920
0.02785422 0.08644749 0.00604937
-0.03981866 0.05583552 -0.01504204
-0.05349933 0.08382547 -0.03335623
-0.07579897 0.05854367 -0.03593066
0.04592154 0.09095107 0.01994691
-0.03856590 0.05537648 -0.03070886
0.03317726 0.08550233 0.02093843
-0.01556926 0.09435768 -0.03325911
-0.08022725 0.06604046 -0.03230054
0.05067760 0.05971307 -0.01855518
-0.07126296 0.09009324 -0.02751445
0.00968920 0.14858609 -0.02940700
0.01879421 0.12183592 -0.01553907
0.03311035 0.05211137 0.00579399
-0.02196241 0.14336646 -0.01936558
0.04582535 0.07820714 -0.01162095
-0.04913667 0.06188803 0.01360963
0.07904699 0.07322991 0.01710210
0.03732137 0.05258936 0.01019966
0.03116885 0.11661624 -0.02400837
-0.08027431 0.06612059 0.00364098
-0.02840836 0.14744911 -0.03085865
-0.08438668 0.07281904 0.00211392
-0.07757143 0.11523888 -0.00856715
-0.04160202 0.11101327 -0.00756506
-0.02335829 0.10683456 -0.00657482
-0.04857363 0.17298365 0.00216898
0.04966019 0.12384455 -0.00298665
-0.00562458 0.14194772 -0.02217982
-0.06299146 0.14658163 -0.00403313
-0.09990548 0.17233813 -0.00554344
0.06311457 0.09297419 0.00743654
-0.08707170 0.17109075 -0.00900122
0.03667305 0.10426410 0.02104137
0.00422022 0.10071957 -0.02820382
-0.02648186 0.09843841 -0.00538951
-0.01519065 0.16188395 -0.00729288
0.01306192 0.07829961 -0.02305269
0.00752536 0.15873724 -0.02077725
-0.06695561 0.16260275 -0.00752539
0.02029673 0.09525803 -0.01109968
0.03302881 0.12417023 -0.02877345
0.05201926 0.12828228 -0.00238862
0.06694986 0.06050085 -0.01679440
-0.06556220 0.16849139 0.01168846
-0.02425857 0.16135371 -0.03859340
0.01924145 0.13336505 -0.00478235
-0.06124388 0.14492206 -0.01835020
-0.05244905 0.14232269 -0.00804668
-0.00461513 0.07554355 -0.01647080
-0.06276467 0.13934332 -0.02439959
0.00946690 0.12942599 -0.03422378
-0.05144930 0.14564236 0.00481737
0.05469301 0.05923807 -0.02856149
0.05826390 0.05214897 -0.00162720
-0.02506922 0.07893903 -0.03547432
-0.01590367 0.05886257 0.01013303
-0.08541706 0.14961724 -0.00817836
-0.03756390 0.09003304 0.00885332
-0.08591751 0.13960864 -0.00945737
0.03505411 0.08024281 0.02722728
-0.03585952 0.14746867 -0.00194466
0.03182608 0.11414939 -0.00883170
0.04569426 0.10328977 0.02464955
-0.06365034 0.14405979 0.00055016
-0.06478810 0.14207587 0.01083100
-0.06237379 0.17275690 0.00377925
-0.08321387 0.06681190 -0.00380328
-0.02765326 0.08871294 0.00802553
-0.05752395 0.08075686 0.01949413
-0.01881317 0.12090911 -0.01985297
-0.08582772 0.16478744 -0.00351542
-0.08330958 0.10311618 -0.00583252
-0.00408124 0.12579186 -0.00105658
0.09299999 0.13132341 -0.01180022
-0.02025434 0.15825036 -0.00472894
-0.06272216 0.16416122 0.01181584
-0.00841803 0.10612212 -0.03329869
0.05351986 0.05218062 -0.00390584
0.03224271 0.06965479 -0.04539324
-0.03351070 0.05878141 0.01190366
0.04161955 0.06886896 -0.00181441
0.00541894 0.11098643 -0.03316192
-0.08934966 0.14917141 -0.00126191
-0.04415305 0.05369186 -0.01583209
-0.03243770 0.17757308 -0.02044792
-0.04923325 0.17587261 -0.02115696
0.04478009 0.14070329 -0.03137555
-0.05685984 0.07135662 0.04009870
0.03224016 0.11779792 -0.01218086
0.01403234 0.11160605 -0.01725787
-0.07783142 0.07680446 0.01364291
0.03439651 0.12162818 -0.00533062
-0.02348468 0.08206991 -0.03247914
-0.02623680 0.16254632 -0.00323466
0.00494898 0.09622291 -0.02415789
-0.06759344 0.16702072 0.01343714
0.04761638 0.09480111 -0.00937286
0.04713469 0.14601475 -0.00620574
0.03753954 0.05513096 -0.01565604
0.05278329 0.13296454 -0.03265622
-0.04817746 0.13249142 -0.02646114
-0.00565324 0.07125115 -0.00449824
-0.07314174 0.10252663 -0.02052410
0.07751906 0.14478925 -0.00532526
-0.04083459 0.05301402 -0.01821059
-0.00174685 0.07805803 -0.01309677
0.08359426 0.09237026 0.00549174
0.03225105 0.07505772 -0.03922796
-0.08759914 0.16748780 -0.01532467
0.00302590 0.09632567 -0.02736527
-0.07847244 0.08546992 0.01328885
-0.02272293 0.05909715 -0.03431028
-0.06011963 0.15569589 -0.02218856
0.07863956 0.08845554 -0.00174878
-0.02842069 0.05325712 0.01714515
-0.01481477 0.06431390 -0.02260042
-0.06217358 0.11583105 0.00673706
-0.04740687 0.16070201 -0.03410297
0.01180668 0.06558731 0.02235461
-0.03462945 0.14598358 -0.03397010
-0.00480273 0.07111492 -0.00837415
0.02727253 0.05304931 -0.01281639
-0.05997799 0.13300878 -0.01479366
-0.02039028 0.14470825 -0.02444437
-0.07808144 0.05972770 -0.02827123
-0.07525461 0.10335004 0.00969057
-0.06858347 0.11043960 0.00980266
-0.06527581 0.10034113 0.01449431
-0.01741715 0.15525198 -0.01101585
-0.03673003 0.12184370 -0.00930987
-0.06568588 0.16196749 0.01011854
-0.00566177 0.07231735 -0.00365874
-0.05755313 0.16587341 0.00543671
-0.03211039 0.17067923 -0.04104401
-0.05544803 0.08907568 -0.02921931
0.06562155 0.10916739 -0.00651547
0.05538025 0.07014123 -0.01166779
0.00901443 0.11039270 -0.00534438
0.04131134 0.10677204 -0.00169615
0.02234165 0.14248627 -0.00227300
0.04194807 0.14695798 -0.00550937
0.02218189 0.06281639 0.01381519
-0.05802377 0.17754912 -0.00335135
-0.04646363 0.05759114 0.03283862
-0.09209705 0.17536053 0.00366334
-0.08135297 0.10910700 0.00090577
-0.03093889 0.15704142 -0.03172095
0.03813498 0.08079182 -0.03452808
0.02937130 0.06633702 -0.03247648
-0.00140241 0.11765147 0.00086194
-0.04963963 0.11822437 0.00566779
-0.08964157 0.15422042 0.00009330
0.01700742 0.06078128 -0.01165276
0.04938303 0.06270518 0.02275106
0.07303832 0.14609148 -0.01200787
0.02595239 0.06443559 0.01135293
0.05733167 0.11672585 -0.02681382
0.08359991 0.14056093 -0.01611095
-0.02758893 0.10570699 -0.01230567
-0.07121675 0.08881338 -0.03091405
0.08179893 0.13753437 -0.00757737
-0.04921212 0.05719569 0.01026390
-0.04684627 0.05949237 -0.03895370
-0.07115185 0.12157878 -0.00411955
-0.06762297 0.05818431 0.02752114
-0.06188982 0.09512738 -0.02700928
0.02589355 0.13869286 -0.00280767
-0.04763317 0.07293340 0.03055056
-0.08310930 0.09973526 -0.01120410
-0.05449427 0.16176167 0.00737593
-0.03251602 0.13113369 -0.00380441
0.01636745 0.07597941 0.00345223
-0.07377324 0.05699566 -0.01252888
0.05363543 0.11082598 -0.03088107
0.03297589 0.15408510 -0.03243738
-0.02801906 0.15227929 -0.04233697
0.05005936 0.10481742 -0.02916219
-0.02081158 0.16884947 -0.01134667
-0.06921330 0.16728549 0.01315725
-0.02793732 0.07881734 0.01427109
0.00892565 0.06095662 0.00910134
0.01393555 0.06343848 0.00279584
0.00503822 0.10503514 -0.00473087
0.04256148 0.08767189 -0.02880882
-0.03107082 0.05399086 -0.04031122
0.06180816 0.11907943 -0.02427697
-0.05049408 0.07011168 0.03187441
0.03117611 0.08977711 0.01884385
-0.02997942 0.14351806 -0.02851854
-0.03654458 0.05603345 -0.00404044
-0.02984475 0.17357440 -0.01212794
-0.05360923 0.11026888 -0.02333087
-0.05856958 0.17908853 -0.00828596
0.02980554 0.08148800 0.00314423
-0.04818219 0.10379177 -0.01855546
-0.06307960 0.07263638 0.03437679
-0.01282683 0.12820463 -0.00707531
-0.08343989 0.17899293 -0.00341610
-0.10574918 0.15666166 0.01195953
0.04852344 0.07759979 -0.00769499
-0.01809829 0.15495551 -0.01355807
-0.09452052 0.17712879 0.00860577
0.04211520 0.07881795 0.01531218
0.00605163 0.09342172 -0.01542412
-0.06970073 0.06186419 0.01356219
-0.09932505 0.16895756 -0.00491595
-0.08118049 0.05972364 -0.02127408
-0.07156500 0.08066644 0.01510893
-0.06682998 0.14192761 -0.01933902
-0.06261148 0.05358815 0.02859152
0.05470676 0.14490101 -0.01294660
-0.01633927 0.15221569 -0.00480575
-0.08616953 0.06379226 -0.02817334
-0.03714373 0.17828506 -0.00847181
-0.08574715 0.09360832 -0.00991216
-0.06325915 0.14438127 0.00455661
-0.04242868 0.06042686 0.02841637
-0.02290645 0.07143047 0.01930766
0.05087512 0.11163592 -0.00502088
-0.02983115 0.17378071 -0.01881032
-0.07837135 0.05691910 -0.03779158
0.03483812 0.11607800 -0.00177247
-0.05480697 0.14510591 0.00082024
-0.10028020 0.15004894 0.01054629
-0.06790844 0.10876369 0.00703386
-0.06311274 0.14497375 0.00257218
0.00921482 0.11471681 -0.00663402
0.04781410 0.07829943 -0.01121128
0.03703195 0.06179272 0.01679844
-0.07403000 0.11214399 0.00441870
-0.02204847 0.07897063 0.00981234
-0.10144722 0.15087441 0.00191661
-0.04364492 0.15002713 0.00247081
0.05641166 0.11761857 -0.02672420
0.00704861 0.10564190 -0.02636895
0.04129998 0.10852718 0.01327090
-0.02733683 0.07475729 -0.03107092
-0.08147272 0.06661926 0.00551095
-0.07316872 0.14327703 -0.01700161
0.02396936 0.08535669 -0.00565989
0.08873471 0.14183134 -0.01211182
-0.02512457 0.10801756 -0.01177705
-0.00894011 0.12591045 -0.02888672
0.02139623 0.12437018 -0.01653418
-0.02219888 0.16286369 -0.03803730
0.04717249 0.12273401 -0.03299141
0.03766502 0.08306728 0.01160700
-0.02849290 0.17708579 -0.02213355
-0.03646672 0.17899404 -0.02428090
0.04881787 0.12489023 -0.00270728
-0.09989563 0.14123273 -0.00184290
0.04794117 0.13561225 -0.00160070
-0.04294793 0.10485961 -0.00923872
0.03753883 0.09801104 -0.00392151
0.05135959 0.15176447 -0.01825490
0.04165727 0.09972598 0.02779954
-0.03368805 0.19646211 -0.02086950
0.01448688 0.14713225 -0.00741177
-0.04350937 0.10892068 -0.00364861
0.01328994 0.06422014 0.02644263
-0.06180597 0.17998645 -0.00835810
-0.03755011 0.14135878 0.00230356
0.04072855 0.07434149 0.02787557
0.02961263 0.08231153 0.01921100
-0.09272990 0.17650424 0.01154895
-0.08479337 0.14664991 0.01760401
-0.01949318 0.12472706 -0.01460840
-0.09189460 0.17119186 0.01229163
-0.03011997 0.16821748 -0.03457807
0.03225989 0.16115487 -0.01634334
-0.01230237 0.17267890 -0.00998817
-0.09079678 0.14431921 -0.00759030
0.00313530 0.14297859 -0.03265318
-0.02995341 0.17743352 -0.01619447
0.01538496 0.08093306 -0.01168792
-0.01269962 0.08693509 -0.03263910
-0.05742329 0.11821342 0.00715713
-0.01494610 0.17360513 -0.00603541
0.05474532 0.10154146 -0.02304697
0.05577536 0.05338714 -0.00006852
-0.07212208 0.16382636 0.00912511
-0.05302675 0.14252511 -0.02407624
0.00098225 0.07877503 -0.01096642
0.03416919 0.06019948 -0.04149776
-0.03763062 0.05394990 -0.02718513
-0.07147331 0.06424263 0.01224211
-0.07908603 0.17228445 0.01207879
0.01893413 0.08852894 -0.02984082
-0.02588826 0.09031273 -0.02950897
0.08068071 0.08592892 0.00194190
0.09171757 0.13160230 -0.00809902
-0.06791079 0.09164812 -0.02997617
-0.08152301 0.06086441 -0.04007901
0.06069919 0.10552512 -0.01239292
-0.05718378 0.12319560 -0.02389596
0.05196899 0.07069992 -0.02360357
-0.03126305 0.05657788 0.02225813
-0.01009584 0.06903853 0.01382441
0.00528735 0.15001290 -0.02816922
-0.02625480 0.13139440 -0.02299716
0.07549481 0.07076313 0.00306391
-0.01701015 0.06166220 0.02489691
-0.08350483 0.06702584 -0.02819396
-0.04049333 0.12152817 0.00095437
-0.05756052 0.05316011 -0.00356499
-0.01390243 0.05580632 0.02216781
-0.02531509 0.14816263 -0.01258577
-0.01585673 0.05635982 0.02698882
0.06258144 0.12874061 -0.01176145
-0.00101147 0.13549678 -0.03283855
-0.03095716 0.18409273 -0.01529863
0.05594290 0.05412818 -0.00620234
0.03606540 0.12262906 0.00321708
0.01380509 0.06157499 -0.01272922
-0.00853588 0.12881786 -0.00246191
0.04553964 0.05362922 0.01151718
0.02992026 0.14911401 -0.00400710
-0.09021557 0.17919278 0.00575053
-0.07451472 0.08189194 -0.02680105
-0.09419449 0.17187886 0.00231412
-0.07180831 0.05663458 -0.00827889
0.00808885 0.09980592 -0.01850997
0.03062863 0.12481286 -0.01169708
-0.09664046 0.13872267 -0.00379144
-0.00944430 0.05950126 0.01434644
0.01335923 0.15322667 -0.01048378
-0.03921762 0.17202795 -0.00075186
-0.06417294 0.05545794 -0.01777987
0.02078941 0.16115065 -0.02100320
0.04238786 0.07508321 0.01685134
0.00852227 0.10057180 -0.01278772
-0.05867479 0.17941616 -0.01737724
0.04223889 0.05447129 -0.00808655
-0.00588662 0.09777221 -0.03145178
0.06989802 0.10490216 -0.01215317
0.07669874 0.07616881 0.02169009
-0.00579114 0.13440724 -0.00629320
0.05163423 0.05811965 -0.01943231
0.04976340 0.14648241 -0.01070947
-0.09826476 0.14230898 0.00285982
0.03104601 0.07340230 0.02693253
-0.02226864 0.13291703 -0.02129745
0.06293623 0.11658417 -0.00654171
0.01495656 0.06323534 -0.01154470
0.00527568 0.15282916 -0.02221951
0.06324656 0.06844766 0.02688562
-0.05968755 0.14479280 -0.01209753
-0.06005000 0.05387398 -0.01202020
0.04598498 0.10746607 -0.00336436
0.01295793 0.15616439 -0.02638085
-0.06994638 0.10508199 0.01185988
0.06732479 0.07217901 -0.00520053
-0.07497249 0.06029337 -0.03869197
0.06355514 0.09325851 0.00666018
0.04557284 0.07494660 0.01525715
-0.05199431 0.08848539 -0.02194917
0.02881226 0.14041018 -0.00437721
-0.06771958 0.07866746 0.01502516
0.09009239 0.15071245 -0.00782944
0.05452106 0.07884048 0.00690021
-0.04547944 0.13657176 -0.00048179
-0.03555202 0.15601125 -0.00066979
-0.03628934 0.09311058 -0.00639352
0.01932024 0.06328563 0.01209659
0.01754460 0.08549879 -0.02878250
0.04842059 0.05533267 0.00752644
-0.03389176 0.12255061 -0.00925123
0.05756415 0.06852898 0.02523810
0.09424807 0.13536270 -0.01019311
-0.09284358 0.14215475 0.00443115
0.03799801 0.05411595 0.01160796
0.01978664 0.07153025 -0.02894679
-0.09505336 0.14401762 0.01198894
0.08502818 0.12786409 -0.01279394
-0.01077277 0.07203035 0.00145072
-0.06507722 0.06129492 -0.03054374
-0.02606927 0.05319792 0.02236599
-0.05759356 0.17013116 0.00411390
-0.05514211 0.14648953 0.00449081
-0.00753236 0.06618956 -0.00136952
-0.09344486 0.15136348 -0.00095294
-0.04649847 0.17222822 -0.03485803
-0.04083978 0.13415967 -0.00006623
-0.03551216 0.12004186 -0.00521890
-0.06432073 0.10386595 -0.02228856
0.04919951 0.08686343 -0.01012105
0.04665518 0.08665990 0.02546743
0.06423022 0.06551148 0.02493744
0.00333989 0.08603324 -0.01466753
0.05837905 0.10690697 -0.02234754
-0.00246154 0.08012146 -0.02223303
0.03939968 0.13274758 -0.00034487
0.04695599 0.05116834 0.01484787
-0.02149805 0.06608336 -0.02808091
-0.06450482 0.16291602 -0.01304080
0.00370149 0.14184344 -0.00473006
-0.05483289 0.18100223 -0.00843769
-0.08339269 0.16569869 -0.01214497
-0.03952902 0.07522907 -0.02996206
0.00509246 0.10702077 -0.02842973
0.03206842 0.12802435 -0.03010383
-0.05544187 0.17315999 0.00647034
-0.06751496 0.05208767 -0.00315443
-0.03063754 0.08232003 0.01109757
0.07237513 0.12070014 -0.01864230
-0.01408770 0.16335048 -0.01214182
-0.03900835 0.05617889 -0.01270080
-0.09930402 0.15227757 0.00703157
-0.06396516 0.06717917 0.03570820
-0.01831695 0.07676433 0.01315697
0.04446347 0.07952413 -0.00274888
-0.02006656 0.10049569 -0.02948944
-0.06331006 0.17984413 -0.01433086
-0.02557637 0.15776883 -0.02802074
-0.08052625 0.17749700 0.00695607
-0.08518197 0.15231398 -0.00540135
-0.08025344 0.10186044 -0.01832671
0.03584852 0.07548501 0.02786546
-0.04768281 0.14443508 0.00467361
0.01761969 0.08183523 -0.00265694
0.00718195 0.06647591 0.02495687
0.08207990 0.14752634 -0.00977547
-0.01495184 0.05968011 0.02413581
-0.03585678 0.19730055 -0.02312929
-0.01816991 0.09898058 0.00233203
0.05102311 0.06472276 0.02367108
-0.08367241 0.15961531 -0.00502793
0.06881249 0.11835684 -0.01604563
-0.02676959 0.15831405 -0.02604651
0.03861478 0.12038012 0.00906998
-0.05918124 0.14492527 -0.01080344
-0.03386229 0.05581179 -0.02655097
-0.02063742 0.11215384 -0.02110114
0.04176188 0.07305092 -0.03668769
-0.03785102 0.09641451 -0.01208560
-0.02894958 0.06107166 0.02642923
0.05336977 0.08191130 0.01025688
0.04996658 0.12339772 -0.03245540
0.04851690 0.09157436 0.02390459
-0.00219797 0.08782279 -0.02704281
0.03872880 0.07515284 0.01538752
-0.09415397 0.17567490 0.00208846
-0.06461440 0.09845715 0.01347082
-0.07412574 0.07655127 -0.02147264
0.08028881 0.08951432 0.01549067
-0.09117842 0.15209295 0.01065287
-0.08521394 0.10068824 -0.00416012
0.03277910 0.09385845 -0.00290081
-0.08824660 0.14503452 0.02337934
-0.07126996 0.16491644 -0.00077469
-0.07293210 0.08796972 0.01625771
-0.05964373 0.07455347 0.02574304
0.09274857 0.13406107 -0.01062685
-0.09898181 0.15056080 0.01485908
0.03215867 0.16068441 -0.02041877
-0.03489435 0.17410117 -0.03885330
-0.07275422 0.10019637 -0.02159339
-0.07714610 0.06162384 0.00894588
0.05196151 0.07850733 0.00588432
-0.06162490 0.12794180 -0.01869541
-0.01357050 0.09320700 0.00389744
-0.02256116 0.08173862 0.01086043
-0.02320295 0.05341268 0.00426023
0.02917893 0.07825425 -0.03592293
-0.05144903 0.06526165 -0.03693059
0.00140929 0.11668330 -0.00006113
0.01337917 0.11561903 -0.02463217
-0.03495428 0.08334136 0.01734689
-0.01982075 0.05364691 -0.01069524
-0.07738624 0.14114456 0.01560352
-0.04414591 0.05524635 -0.03510124
-0.10474627 0.14751765 0.00061804
0.03260594 0.12789708 -0.00747207
-0.05763142 0.14343721 -0.01394219
-0.03120928 0.16944350 -0.00047662
-0.05426000 0.05612377 0.03392344
-0.02288672 0.05372812 -0.01865391
-0.01451116 0.05572734 -0.01031271
-0.04574131 0.17818339 -0.02231139
0.00246389 0.08544342 -0.01297902
0.01546163 0.16081358 -0.02071794
-0.07877503 0.14285329 -0.01437643
-0.02633477 0.05495591 0.00402666
-0.02870238 0.15911719 -0.03997649
0.03772258 0.07258520 0.01763578
0.08391143 0.14350303 -0.00448814
0.03258107 0.08170266 0.00100904
-0.04905299 0.14708488 0.00615996
0.01491464 0.08747935 -0.01313552
0.03831400 0.12866613 -0.00324387
-0.00030385 0.08056706 -0.00920716
-0.01825332 0.11014085 -0.02484201
-0.04848830 0.06680936 0.03499131
-0.06031730 0.16454147 -0.02755124
-0.08097651 0.16565500 0.00231285
-0.03850742 0.14759700 0.00098389
-0.08575037 0.09921774 -0.00811130
-0.01397839 0.12462888 -0.02493436
0.05659100 0.11232317 -0.02542276
-0.01895987 0.16569310 -0.01219384
-0.08653317 0.14837280 0.00028563
-0.03758381 0.19683224 -0.02023037
-0.02733856 0.16844265 -0.01231213
0.00590295 0.09552856 -0.01301225
-0.03226090 0.11937074 -0.01865578
0.03573583 0.06315684 -0.03566220
0.02055253 0.05812379 -0.01974970
0.04894614 0.09864740 0.02626484
0.04189422 0.05341164 -0.01527871
-0.07831597 0.11110925 -0.01459023
0.02164542 0.05361047 -0.00676529
0.01011279 0.11004636 -0.01036491
-0.04228010 0.06490631 0.01365119
0.06681891 0.12402223 -0.01338355
-0.04705119 0.05294687 0.00821133
0.04101595 0.14471877 -0.00429161
-0.03912288 0.14279546 0.00242131
-0.00638088 0.13686882 -0.00957611
-0.09178796 0.15460862 0.00868578
-0.05565104 0.05141523 0.02230708
-0.00479534 0.13890342 -0.01027287
-0.08637725 0.09936952 -0.00470674
0.04686740 0.05730435 0.02032961
-0.03639170 0.18726724 -0.02080221
-0.00829503 0.07212208 -0.02157657
-0.02231335 0.05645856 -0.02197004
0.00412175 0.09472565 -0.00488170
0.07102536 0.05385819 -0.00341620
0.07705937 0.11126077 0.00300009
-0.00939572 0.09017361 0.00538241
0.00774725 0.06095508 0.02624870
0.04928798 0.09992863 -0.00714312
0.01629383 0.14467067 -0.03398161
0.08187387 0.10460499 0.00545138
-0.05853303 0.10204726 0.01265785
-0.03551039 0.08399609 0.01396356
-0.03444692 0.05487150 -0.03920040
0.00705731 0.11980299 -0.03540041
-0.04853514 0.08807276 0.02028148
0.07832857 0.07671534 0.00519233
-0.06600076 0.17410472 0.00380950
-0.04111792 0.10441447 -0.01111076
0.01720777 0.12410880 -0.02915408
0.00617365 0.09916474 -0.01145828
0.00902639 0.12994856 -0.03361111
-0.04712016 0.14998469 -0.03076589
0.02736790 0.09271653 -0.03256377
-0.03621093 0.17714614 -0.00966842
0.03823045 0.06562939 -0.02934049
-0.08417124 0.07621393 -0.01142955
0.05939398 0.05515461 0.00750131
0.04028450 0.12082781 0.00623031
-0.06648603 0.06237529 -0.03087999
0.07709121 0.13479052 -0.01947096
-0.07813980 0.15894343 -0.01319295
-0.02768761 0.15083833 -0.03373162
-0.02324922 0.05482962 0.00728252
-0.08931346 0.15433568 0.00749811
0.05915213 0.06041151 0.02500256
-0.09120449 0.14068899 0.00201692
-0.03200850 0.13413556 -0.00526344
-0.05840065 0.05672440 -0.02003263
0.04066307 0.10399050 -0.00240527
0.08271693 0.10292075 -0.00185890
0.07640179 0.07815896 -0.00139817
-0.07574082 0.11245042 -0.01492066
0.05407635 0.12886713 -0.03084784
-0.08054625 0.06721388 -0.03209717
-0.06919237 0.08613852 -0.03207713
-0.03306376 0.17612933 -0.00965676
0.02660019 0.14717944 -0.00269824
-0.00840770 0.13946436 -0.01390316
-0.05304801 0.14029469 -0.02558199
0.05299538 0.10261979 -0.00920363
0.08225064 0.08564889 0.01624272
0.05986575 0.11639965 -0.02265341
0.02540455 0.08416816 0.00011110
0.04629184 0.05929349 -0.00088995
-0.08332261 0.14325337 -0.01106528
0.06713811 0.09559505 0.01094282
0.00282193 0.14754966 -0.01189706
-0.01899115 0.05501293 -0.00287399
-0.05526521 0.17030086 -0.03069572
0.05729530 0.05384604 0.01625033
-0.06627876 0.09805495 -0.02252605
0.03496122 0.09331569 0.02071574
0.04029850 0.14210723 -0.03512716
-0.08572163 0.14276028 0.00416314
0.01270054 0.14078422 -0.00381446
0.04045518 0.09508036 -0.00389024
-0.05418622 0.11751985 -0.02397239
-0.02582206 0.10596073 -0.02000300
0.02002043 0.06027502 -0.00052079
-0.02378817 0.14297612 -0.01267437
-0.03031706 0.17909668 -0.01679526
0.03443805 0.13785328 -0.03603961
-0.06487996 0.16161904 -0.00181294
-0.07113150 0.09629957 -0.02365005
-0.03173729 0.16576818 -0.00257490
-0.04801019 0.16944993 0.00257329
-0.02322068 0.15388617 -0.00362292
-0.05881301 0.16008571 0.00924972
-0.01524864 0.11049260 0.00035602
-0.07466397 0.14059328 0.00192808
-0.03073660 0.16241390 -0.03292018
0.02175300 0.07661176 0.01444620
-0.02735956 0.16664118 -0.04121160
0.01016997 0.12373026 -0.00310177
-0.04497690 0.17820637 -0.00382066
-0.02296073 0.14665930 -0.01500164
0.07869238 0.13570441 -0.01778463
0.02862586 0.06128104 -0.02834468
0.04996853 0.06441358 -0.03281628
-0.08353233 0.06924424 0.00159417
0.01635335 0.06869043 -0.00448103
0.01897332 0.07919650 -0.03151888
-0.03401246 0.06459109 0.02718728
0.08658122 0.13575342 -0.00855209
-0.07006914 0.06018846 -0.02132852
0.02041957 0.05482502 -0.02146570
-0.03887970 0.12720463 0.00111304
-0.09032767 0.16742226 -0.00060554
-0.05008065 0.09991483 0.00462909
-0.08705019 0.09200729 -0.00148252
-0.03066470 0.17194436 -0.00358968
-0.05062896 0.11415817 -0.02488909
-0.06287129 0.11028332 -0.02279082
-0.06120301 0.06689432 -0.03244222
-0.04637390 0.08114134 0.02164417
-0.06707510 0.16821441 0.00453050
-0.03554700 0.07120742 -0.03920114
-0.01434683 0.06108317 -0.01920719
0.07445499 0.10372990 0.00940832
-0.08649562 0.08284670 -0.00451030
-0.06482863 0.17949273 -0.00424409
0.01730158 0.05895071 0.00217371
0.02738443 0.05424446 -0.01540504
0.06137106 0.13374986 -0.01343833
-0.05072420 0.15878046 -0.02812720
-0.03111490 0.16919017 -0.01218829
0.01684295 0.13368663 -0.03443895
-0.01640480 0.12283284 -0.02409772
-0.06672797 0.11727689 -0.02079324
-0.04174534 0.07599042 0.02919067
0.05278312 0.14403927 -0.02608693
-0.00835106 0.06712602 0.01521162
0.02443710 0.09277762 -0.00576043
-0.06613626 0.11851499 0.00557210
-0.03081152 0.05369472 -0.02033785
-0.05214250 0.14656481 0.01097631
-0.08527610 0.05961357 -0.02466440
0.00756528 0.11436696 -0.00752962
0.06086762 0.07307176 0.02409924
-0.01909642 0.05330218 0.01369274
-0.04650459 0.10036224 -0.00536373
-0.07137845 0.17065157 0.00765974
0.02299226 0.05332512 0.00060586
0.01644354 0.09091973 -0.02527478
-0.05142071 0.05589703 0.00813402
-0.02317269 0.16903456 -0.02306156
0.01446550 0.14064100 -0.03521701
-0.06608186 0.15150253 -0.00731965
-0.02702015 0.15826590 -0.03283872
-0.05342562 0.14269100 0.00569749
0.04763716 0.08319423 0.02755894
-0.04714773 0.15682971 0.00129258
-0.05497438 0.09661834 -0.02259539
-0.02562660 0.06094621 -0.02956740
-0.00811375 0.10465888 0.00130455
-0.06779659 0.08475950 0.01445417
0.00834718 0.10400068 -0.01322101
0.06456326 0.07374068 -0.00861432
-0.05462674 0.05840568 -0.03528474
-0.04335791 0.07131208 -0.03288857
-0.04194289 0.11497402 -0.02204940
-0.01924625 0.11299653 -0.00505016
0.03140758 0.05704924 0.01100113
-0.04452528 0.18084861 -0.01077394
-0.05131621 0.14859805 -0.02825210
0.08611952 0.14500178 -0.00621251
-0.03968828 0.12925492 -0.00211270
0.03077459 0.13475144 -0.03509563
0.07012115 0.05331919 -0.01387622
-0.01989272 0.10746276 -0.02757032
-0.02422196 0.15877602 -0.02502324
-0.04701406 0.05518356 0.00128076
-0.07026243 0.08136676 -0.03114813
0.02672450 0.09013825 -0.00349000
0.04241057 0.09386910 -0.00492586
-0.05088182 0.11213475 0.00476944
-0.06877796 0.17554431 -0.01790159
-0.08303753 0.07594272 0.00954964
0.05091992 0.07818007 -0.02755564
-0.06391692 0.09288075 -0.02755946
-0.01068067 0.07053481 0.01757436
-0.02285847 0.16121450 -0.03905290
0.03763743 0.09848103 0.02651992
-0.02377342 0.05619387 -0.00162967
0.03841082 0.05774495 -0.04562293
-0.02548851 0.16922697 -0.02345852
0.06882667 0.13241231 -0.01815706
-0.09698823 0.15173128 0.01328821
-0.06406011 0.11675084 -0.02176165
0.04097093 0.05526791 -0.00926721
-0.02800969 0.05336330 -0.03066469
-0.01172142 0.18775141 -0.03128742
0.08208895 0.08549434 0.01824125
-0.08411554 0.07742525 0.00967132
-0.08897021 0.18080163 0.00426714
0.05903500 0.05478258 -0.02036639
-0.10033903 0.15261066 0.01111155
-0.06499618 0.08551407 -0.03624120
-0.04043528 0.05452554 0.00914682
-0.06645991 0.06496169 0.03163803
-0.07817255 0.10707681 0.00521437
-0.04676235 0.11469325 0.00143284
-0.04178950 0.14840828 0.00305906
-0.05299906 0.06801103 -0.03451733
0.04423434 0.05429819 -0.01039940
-0.05465369 0.07707511 0.02884639
-0.05847156 0.09107743 -0.02442922
-0.07844435 0.05956747 -0.02261716
-0.06477770 0.14279002 -0.01128272
-0.05155731 0.16719407 -0.03154982
-0.01530747 0.11442577 -0.02951814
-0.00130827 0.09847045 0.00016858
-0.02010777 0.15994017 -0.00429618
-0.01607967 0.08369135 0.01287111
-0.03641193 0.15599895 -0.04017415
0.02725089 0.09956534 -0.03137884
-0.02772935 0.09732300 -0.02680001
0.06248657 0.12987751 -0.01341057
-0.02944085 0.05394848 0.00150244
0.07860515 0.10044284 -0.01019021
0.00443209 0.13019040 -0.00125453
0.08273764 0.09663607 0.00304035
0.07841998 0.08246292 0.02008680
0.07393398 0.12180132 -0.00571830
0.06440575 0.10819468 -0.01272575
-0.07058593 0.17156467 -0.02035342
-0.08727140 0.14359903 0.01900871
-0.09817266 0.16918537 -0.00480784
-0.03865206 0.14452203 0.00247037
0.05732520 0.06670012 -0.00651186
-0.08383485 0.06746246 -0.00256463
-0.08077782 0.09713776 -0.01726864
-0.03040204 0.16206181 -0.02742703
-0.08542061 0.07450681 -0.00471030
0.00477534 0.14875084 -0.03079074
0.04406254 0.06407779 0.02117518
0.07683865 0.14902054 -0.00612982
0.00512004 0.09221707 -0.00738934
0.05862337 0.05822393 -0.02453525
-0.04301303 0.17101613 -0.00004436
0.04287206 0.08966322 0.03027862
-0.08291301 0.09498584 -0.01523079
0.03377635 0.09168879 0.01356639
-0.04746684 0.16349909 0.00400252
-0.01716021 0.08537270 0.00837803
0.04714905 0.08100000 -0.02035129
-0.07533248 0.14866361 0.00945734
0.02703258 0.05404268 0.01882368
-0.05298417 0.05331233 0.00674019
-0.06536582 0.05484800 0.02526741
-0.02461199 0.09752429 -0.00087444
-0.03599306 0.18603560 -0.02313248
-0.09344251 0.17755403 0.00475462
-0.01399337 0.17048219 -0.00839394
0.00175172 0.12985775 -0.00239196
-0.06711678 0.16768110 -0.02572524
0.02565927 0.10797080 -0.01540598
0.03385182 0.12262027 -0.00971905
-0.02829077 0.15475293 -0.03615580
-0.06742714 0.14098755 -0.01655881
0.04196774 0.10947654 0.01544574
-0.05839544 0.05510293 0.00822605
0.00888504 0.06618851 0.02119510
-0.07229691 0.17241316 0.00105601
-0.05105939 0.09528812 -0.01638816
-0.00698337 0.13708971 -0.02574056
0.03073798 0.07580685 0.01990280
-0.02905664 0.05201399 -0.01308012
0.02761024 0.05277729 0.00081406
-0.05002878 0.14628743 0.00163170
-0.04099445 0.14487600 -0.03276634
0.01912020 0.05814226 0.01118742
0.00541495 0.15280050 -0.01934158
0.02560843 0.06173888 0.00569120
-0.02665385 0.15185212 -0.03906426
-0.04607976 0.07784649 0.02855334
0.00078566 0.12085125 -0.00069808
-0.01485422 0.08510019 -0.02971112
-0.01496565 0.11980553 -0.02567725
0.06635758 0.08730292 0.01918800
0.04608545 0.07906476 -0.00140732
0.04401211 0.07299383 0.01556130
0.02113970 0.07328283 -0.03264197
0.04514280 0.08005388 -0.00504254
-0.01748031 0.10641452 -0.03039321
-0.04409762 0.10340568 -0.01368319
-0.03377322 0.16854852 -0.03121118
-0.04322457 0.06258135 0.03280398
-0.07964034 0.06315477 -0.00558175
-0.05528920 0.11078598 0.00761592
0.07666747 0.14135140 -0.01794945
0.08392639 0.10269441 0.00323117
-0.02422664 0.17859831 -0.02361437
0.03577549 0.06811139 0.01852282
-0.01356152 0.13259077 -0.02163864
-0.04119633 0.15711403 -0.03696269
0.04871972 0.09295698 -0.02308943
-0.03816488 0.08765707 0.00969879
0.00531000 0.08913636 -0.01203069
-0.02866871 0.15350260 -0.03037564
0.02235551 0.14373602 -0.00266651
-0.05128178 0.13462241 -0.02499592
-0.04980102 0.16024345 -0.03436417
0.05441151 0.10062157 -0.01691902
-0.01860098 0.11933166 -0.01313409
-0.05596621 0.08569576 -0.03264842
-0.03466407 0.06023347 0.01539393
-0.01386917 0.07991921 0.01179005
-0.03968323 0.05597932 -0.02695478
0.04118738 0.06479880 0.01939073
0.04598567 0.08361142 0.02574288
-0.04531791 0.06204987 0.02537796
-0.05344446 0.05896413 -0.02503488
-0.05312739 0.08013054 -0.03647215
-0.08016880 0.10436329 -0.01437593
0.03165508 0.08677180 0.02362254
0.01304568 0.11342292 -0.01990414
0.02060073 0.09921593 -0.02593290
-0.02449669 0.13126367 -0.01735936
0.07366253 0.06506769 -0.00466819
0.01494161 0.07825299 -0.02277226
-0.03894487 0.07106072 0.02667229
-0.06490988 0.05453508 -0.00013023
-0.08431110 0.14044705 -0.00939236
0.09024279 0.13738397 -0.00946096
0.06588988 0.05686180 -0.01774957
0.05432955 0.09606223 -0.01461281
-0.07366676 0.08067708 -0.02699365
-0.02943909 0.09854685 -0.01749231
0.04181260 0.06093487 0.01090840
0.03873832 0.06093896 -0.03711667
-0.03870951 0.12194441 -0.02476457
-0.08174343 0.07240355 0.00777986
-0.06908596 0.11854017 0.00373167
-0.06698050 0.11563526 -0.02085296
0.05172889 0.09872340 -0.02760630
-0.08998221 0.16357544 -0.00862767
-0.06280972 0.15043221 -0.02117923
0.05014773 0.06737994 -0.02912943
-0.01871538 0.07731567 0.01206468
-0.08692443 0.16345698 0.01073396
0.05621494 0.07275567 -0.00678494
-0.03331260 0.13002200 -0.02613393
0.04918591 0.14623469 -0.00521144
-0.05720618 0.15980181 -0.01250725
0.06859688 0.07565502 0.00308827
-0.07316136 0.17572275 -0.01033147
-0.01580059 0.17054661 -0.01062471
0.04193122 0.14071904 -0.00022314
-0.07894229 0.09395571 -0.01813648
-0.03666778 0.12806743 -0.00404604
-0.05081381 0.16020699 -0.02892872
-0.01181211 0.13544030 -0.01166489
-0.02629889 0.14810704 -0.02568283
-0.01938435 0.06383447 0.02319299
-0.03410508 0.05266134 0.00433396
-0.09585844 0.15388827 0.01581230
-0.00378545 0.08138284 -0.02500168
0.04250325 0.08657219 0.03037936
0.06318177 0.11445757 -0.00951602
0.02953790 0.09104480 -0.00053166
-0.01925002 0.05458503 -0.01394221
-0.06708095 0.12293462 0.00146310
-0.04567160 0.17308849 -0.02899016
-0.06839486 0.08514787 0.01349976
-0.00762577 0.18951282 -0.02871614
0.04892221 0.09534364 -0.02453122
-0.00173898 0.08171739 -0.02053817
0.06001938 0.08286376 0.00259286
-0.08202671 0.13908333 -0.01081540
-0.01456101 0.15963864 -0.00885973
0.04136116 0.08984862 -0.00503872
0.07201896 0.09476061 0.01813134
0.02672236 0.15437469 -0.01047323
0.03750153 0.10882381 -0.03251560
-0.05289862 0.16780993 -0.03004338
0.05408829 0.07140951 -0.01683801
-0.05486063 0.14307636 -0.01776177
0.01362227 0.07833422 -0.02414503
-0.08126879 0.06712388 -0.03614090
0.01195230 0.11587927 -0.01367873
-0.05674654 0.14529635 0.00023849
-0.08290780 0.14183357 0.01730308
0.08506154 0.09448408 0.00355987
0.04221850 0.09035315 0.01546925
-0.04249569 0.18882200 -0.02216824
-0.04223415 0.07513513 -0.02918069
-0.05668793 0.11370952 -0.02127576
0.07517003 0.08252375 -0.00205428
0.05614485 0.05375700 0.00150250
-0.04774472 0.09350204 0.01567211
0.06524150 0.09676141 0.01029016
0.05580679 0.14415964 -0.02034710
0.01611848 0.06543454 0.00444742
0.07419138 0.14553022 -0.01512417
0.04824677 0.09591128 -0.03033516
-0.06137186 0.09650335 -0.02228046
-0.04036421 0.15211725 0.00243102
0.02718446 0.05939138 -0.02535945
0.06929472 0.05277209 -0.00409385
-0.07585569 0.14506966 0.01515817
-0.03912908 0.05584271 -0.02225623
-0.00990691 0.08473711 0.00579613
0.06236419 0.05278270 0.00946617
0.00967124 0.15142027 -0.01272913
0.00496526 0.13366717 -0.00179634
0.03963454 0.12183337 0.00860049
0.06852686 0.05994774 0.00482305
-0.05069419 0.16998936 0.00519036
-0.01499732 0.07792927 -0.03072092
0.05790430 0.10590602 -0.00976952
-0.02621981 0.16966078 -0.01172944
0.01880778 0.06505229 0.00398781
0.03974401 0.14791307 -0.03006750
0.00885848 0.10687636 -0.00884305
0.03425981 0.12973072 -0.03096500
-0.02367022 0.06313811 0.02263916
0.04359370 0.07233466 0.01939534
0.02525783 0.14022216 -0.00251857
-0.01291357 0.06354597 -0.00306645
0.03154378 0.13188781 -0.00490944
0.02627531 0.06183983 -0.03091383
0.07162173 0.05989566 0.01247089
-0.09203851 0.15257883 0.01626271
0.03819180 0.12918933 -0.03328789
0.03372336 0.08641811 -0.00114549
-0.07026555 0.14874995 0.00988052
-0.04248972 0.16054434 -0.03450690
0.06648502 0.10627339 0.00092482
-0.05581990 0.07399452 0.03403297
-0.05861731 0.17525691 0.00731488
0.04830792 0.07659365 -0.00967023
0.02457195 0.05205136 -0.01638450
-0.01273398 0.18713105 -0.02435661
0.03441829 0.10463823 0.01904506
-0.04520942 0.10037904 -0.00220263
-0.06392670 0.16363521 -0.02557667
0.03739624 0.10519373 0.00788782
0.04807669 0.07809255 0.00025234
-0.01283134 0.18615307 -0.02685579
-0.08683395 0.14710195 -0.00748757
-0.05307357 0.09227408 0.01990608
-0.03061215 0.18514234 -0.02002920
0.03930911 0.06475072 -0.02982869
-0.02310251 0.14889602 -0.02639544
-0.04073089 0.11503634 -0.00637819
-0.08735110 0.08609967 0.00076310
-0.05421281 0.16282529 0.00724597
0.04957851 0.09900068 0.01562827
0.02175575 0.07786424 -0.03737699
-0.05101358 0.07128651 -0.03593786
0.06595396 0.06918968 0.02651416
-0.00588972 0.07113887 -0.00311413
0.04588199 0.08901118 -0.01658813
-0.06949506 0.14361168 0.00910500
0.01449542 0.15189196 -0.02939907
-0.01053601 0.10743576 0.00425321
0.01486765 0.06179344 -0.01834172
-0.06091680 0.14253226 -0.02004466
0.02896421 0.07904105 -0.03483722
-0.08176552 0.06929668 -0.01302491
-0.07001583 0.09738509 -0.02462115
0.03742735 0.10621698 0.01961036
-0.05877674 0.08943707 -0.03132687
0.07257409 0.10536548 -0.01111990
-0.01597967 0.05389371 0.01467280
0.01137806 0.10922722 -0.02211081
0.03538577 0.05654576 -0.02298202
-0.04452762 0.09763135 -0.01370657
0.04827560 0.08505970 -0.01152430
-0.01889569 0.18189205 -0.02353215
0.01907720 0.07953392 0.00527960
0.01961331 0.06946447 0.01159225
-0.06027025 0.17828450 -0.00100262
0.08785410 0.13565180 -0.01659255
-0.03514376 0.17618026 -0.00133546
0.04003583 0.07649088 0.01135008
-0.07552657 0.08682291 -0.02275180
-0.04308443 0.17814031 -0.00501102
0.01550716 0.07190916 0.00364866
0.02379171 0.08393780 0.01278373
0.09035783 0.13790107 -0.00859556
0.06919960 0.06113134 -0.01093674
-0.02574684 0.05354708 -0.01528831
-0.01874528 0.07538680 -0.03626487
-0.00793047 0.13863517 -0.02277964
-0.03354068 0.12660210 -0.02467142
0.08336776 0.08740190 0.00864404
0.03423338 0.09304360 0.01466262
-0.05829976 0.12248991 0.00399485
0.02285633 0.13002299 -0.03203592
-0.03665513 0.05146609 -0.01737490
-0.02333835 0.08688751 -0.03740056
-0.03241073 0.18319643 -0.02466156
0.01301193 0.05876705 0.00864443
0.03757176 0.14849144 -0.03121493
0.01029457 0.13483001 -0.03695508
-0.09512309 0.14209245 -0.00307590
-0.08100007 0.06377814 -0.01553746
0.01488030 0.06551502 0.02079804
-0.01668738 0.16707891 -0.00824057
0.02669576 0.10900252 -0.01077669
0.03887539 0.10309112 -0.03567480
0.06221751 0.07050006 -0.00706466
0.02265627 0.12407847 -0.02214321
0.00660755 0.10994717 -0.00509738
-0.00581169 0.07614702 -0.02598504
-0.04590119 0.05347126 -0.03204125
-0.00744784 0.14125896 -0.01515008
0.09145567 0.13564064 -0.00972052
-0.09038732 0.17768115 0.01049083
0.08141187 0.10073937 0.00805209
0.04757434 0.05979772 -0.02168161
0.06416904 0.09515765 0.00333250
-0.05904583 0.10346258 0.01333444
0.02138027 0.13086848 -0.00548650
-0.08724730 0.15979400 -0.00516960
-0.04634526 0.11085140 -0.02575417
-0.05957671 0.06356630 -0.03423800
-0.06204376 0.11585176 -0.02209596
-0.03310668 0.18176304 -0.00638279
-0.06039534 0.10735325 0.01018006
-0.06127172 0.13118632 -0.00377777
-0.06054846 0.05496407 0.00473004
-0.09645094 0.14386426 0.00357089
-0.01265988 0.05642153 0.02203483
-0.02468240 0.08624451 -0.03196221
0.07268614 0.14345516 -0.00908420
0.09187098 0.14245717 -0.01154190
0.03941663 0.10963061 -0.00191875
-0.06840070 0.10808171 0.00963911
-0.06952796 0.15543352 -0.01627507
0.03862872 0.12491794 0.00561063
0.05670023 0.07425925 -0.01474457
0.03459127 0.05518201 0.02088846
-0.08290086 0.09560786 0.00543933
0.03794057 0.12289944 -0.00057806
-0.05980781 0.16304614 -0.02693642
-0.06326222 0.14583369 0.01253528
-0.01339946 0.10223126 0.00309661
-0.01402016 0.09511577 -0.03548530
0.01029402 0.10987475 -0.01230007
0.02891111 0.10478307 -0.03118754
-0.02818040 0.14542219 -0.02971004
0.03609989 0.10327907 -0.03465646
-0.02907122 0.06566630 0.02126367
-0.04341158 0.07679991 -0.03064705
-0.06456287 0.06465290 0.03701059
0.02121030 0.12481818 -0.01268508
0.07845280 0.07165988 0.01444208
-0.02397830 0.05664561 -0.03683876
-0.04917733 0.05486277 0.02924553
0.07150876 0.12022904 -0.01872984
-0.04367468 0.08161180 -0.02647655
0.04421588 0.08398508 0.02177810
-0.06026096 0.16242495 -0.01191181
-0.02812033 0.05400904 -0.00518253
0.01948394 0.07668774 0.01084228
-0.09292263 0.16825595 -0.00105324
0.07452311 0.12994854 -0.00829364
-0.08081180 0.15074192 0.00035552
0.02920821 0.14704634 -0.03592311
-0.06271790 0.16236421 -0.00309272
-0.06707852 0.16219774 -0.00495964
-0.01745313 0.06149615 0.00429501
0.04657132 0.07434446 0.01810927
-0.03177239 0.17407513 -0.03916154
0.07501081 0.07176554 0.02317406
-0.09836533 0.14033079 0.00005443
0.06242852 0.13868476 -0.01540624
0.03555474 0.06317557 -0.02653503
-0.07031044 0.17877643 -0.00656076
-0.04871132 0.12637304 -0.02557899
0.08947618 0.13682619 -0.01254653
-0.08574085 0.08225726 0.00140790
0.03796094 0.11186627 -0.03237759
0.05941550 0.13735726 -0.02304916
0.04681227 0.11922187 0.00054695
0.07945077 0.11380638 -0.00682162
-0.01474878 0.17375608 -0.01085505
-0.00275434 0.07085915 -0.01550725
-0.07660264 0.06074732 -0.01384162
-0.03540342 0.16366282 -0.03840805
0.04827775 0.07537411 -0.02766518
0.00796860 0.05567899 0.02396204
0.06704945 0.11530411 -0.00232713
0.04781441 0.13536938 -0.03461625
-0.01578917 0.10800741 -0.02981713
0.05066374 0.06674477 -0.03339101
0.07654315 0.11729587 -0.01337394
-0.06222933 0.09861669 -0.02063661
-0.08440470 0.16640005 0.00698019
0.05378816 0.14042944 -0.03117575
0.00597154 0.12954816 -0.03608166
0.01857735 0.12250596 -0.02715612
-0.08066317 0.14304088 0.00826039
-0.00668264 0.08971919 -0.03342054
-0.05667469 0.10335359 0.00929886
0.06382719 0.08241483 0.02395140
-0.05774918 0.10338347 0.00965446
-0.03157171 0.07607947 0.02024181
-0.02588760 0.06002699 -0.02670936
0.02303936 0.07316616 -0.03096190
-0.03175065 0.17821999 -0.00338841
0.06378721 0.05439203 0.00479799
-0.07971990 0.06740925 -0.02086096
0.00669888 0.06423558 0.02362793
-0.05845094 0.07409167 0.03756918
0.08079524 0.11293620 -0.00516277
-0.07790343 0.08185822 0.01245822
0.02696592 0.12569252 -0.01095011
-0.00244887 0.11061965 0.00118597
-0.07734431 0.16331621 0.01185321
-0.09410142 0.14267780 0.00591874
-0.05658813 0.10509762 -0.02224750
0.08241123 0.12769194 -0.01129062
-0.08463746 0.16683656 0.01446212
0.03580220 0.05813475 -0.00365645
-0.02483557 0.06200412 -0.02859724
-0.07738681 0.06113482 -0.01628999
0.04641115 0.09825858 0.02637977
-0.00710183 0.13610344 -0.00801972
-0.02943623 0.12790066 -0.02333426
-0.03395238 0.17597726 -0.00676059
0.07632551 0.14504580 -0.00835775
-0.09739561 0.13984944 -0.00387087
0.02290495 0.13884179 -0.00164669
-0.08460066 0.05964432 -0.03096981
0.01829919 0.13823228 -0.03495106
-0.03642675 0.05456790 0.00874677
0.00900819 0.10689133 -0.00877266
-0.06355043 0.06202800 0.03629636
-0.07536426 0.15922290 -0.02160755
-0.06430399 0.09118792 -0.03175627
0.05104790 0.15022346 -0.02445554
-0.08205327 0.14138995 0.01812454
-0.03664790 0.12176597 -0.02208094
0.07190175 0.14530921 -0.00968268
0.02267892 0.05409975 -0.01210841
0.03297724 0.08369097 0.00581719
-0.03580691 0.05637132 -0.02409219
0.07479594 0.13394359 -0.02074908
0.08280226 0.08895001 0.01269939
0.03153528 0.07717361 0.02332741
-0.04155190 0.06615518 0.01629907
-0.02703851 0.05241257 -0.01169120
0.04266705 0.10943715 0.01356062
-0.00794976 0.08793136 -0.03296196
-0.04744692 0.09202366 0.01430185
-0.06137125 0.07928747 -0.03550795
-0.05120795 0.18026897 -0.01720380
-0.07751504 0.05760942 -0.02144732
-0.01772267 0.11642056 -0.00628046
-0.05967358 0.14740486 -0.02393523
-0.06669469 0.05287403 -0.00135042
0.03426555 0.09589104 -0.03442873
-0.02734679 0.05234525 0.01535764
-0.04244579 0.17824654 -0.00864428
-0.07537517 0.16243212 -0.00673728
0.04997052 0.07710412 0.01954608
0.03759459 0.06060744 -0.00397157
-0.06891666 0.14626250 0.01200434
-0.02001921 0.14915290 -0.01000757
0.03369192 0.13276185 -0.03384967
-0.03179685 0.12793617 -0.02465326
0.05931265 0.06773916 -0.01389703
0.05447970 0.11369324 -0.00344420
-0.07458163 0.15016779 -0.00768386
0.06001689 0.11550041 -0.02340977
-0.04269281 0.17831805 -0.00022698
-0.07193223 0.17051154 0.00970373
0.03991953 0.06400515 -0.03144164
0.07316570 0.05789181 -0.00447231
0.02954680 0.15743393 -0.02552995
-0.08215718 0.16105956 -0.01736132
-0.03125539 0.14029336 -0.02903503
-0.01946935 0.05702357 -0.01647436
0.04731944 0.07810663 -0.00493398
-0.08677626 0.06061556 -0.02010091
-0.02453452 0.07361399 -0.03431209
-0.10355809 0.14311853 -0.00024563
-0.03878994 0.08638769 -0.02547311
-0.02945299 0.14970146 -0.00252340
-0.00632059 0.18873782 -0.02781704
-0.08992119 0.17801180 0.00977612
-0.07353797 0.06159225 0.00899720
-0.03007119 0.13618271 -0.00768474
-0.01207387 0.08699628 -0.03034383
0.04658173 0.07897856 0.00110580
0.09261677 0.13760945 -0.00980896
-0.05749238 0.05901924 0.03384877
-0.06359778 0.15419064 -0.00587029
-0.00752755 0.12387688 -0.03083492
-0.05754150 0.09531485 0.01456012
-0.04276988 0.06536640 0.01814335
0.08593133 0.13593620 -0.01376306
0.07758433 0.06894125 0.00621659
-0.03929830 0.07559205 0.02736594
0.02256064 0.09698460 -0.02703847
-0.00418293 0.08015686 -0.00460243
0.07125506 0.13170418 -0.01912566
-0.04447172 0.11715577 0.00248454
-0.06845133 0.10507478 -0.02228856
0.04560969 0.05644545 -0.01718864
0.02520757 0.14453772 -0.03605909
-0.06705713 0.10339588 -0.02097210
-0.07216273 0.07540976 -0.02433322
0.07027887 0.14187376 -0.01068460
0.02382691 0.06289363 0.01748212
-0.03360502 0.05619580 -0.04356113
-0.05603801 0.10045291 0.01100376
-0.07085213 0.05882066 0.00903030
-0.02423886 0.10231119 -0.00455783
0.07618251 0.11965050 -0.01819211
-0.05252787 0.06159890 -0.03799322
-0.06811789 0.16361508 -0.02410637
-0.04459890 0.11128493 0.00090560
0.01447070 0.11822864 -0.02862300
0.03643935 0.10800996 0.00599371
-0.06915930 0.07302393 -0.02183425
-0.02455669 0.15121911 -0.03907275
0.02617992 0.09576015 -0.00573581
-0.01396873 0.05723545 0.02369354
0.02319859 0.05869500 -0.02201824
0.04395356 0.05756253 0.00192004
0.07628223 0.12366132 -0.02004540
0.06000981 0.05309441 -0.00540818
0.04150482 0.08111812 0.00406554
0.03414936 0.06255288 -0.04510529
0.03293469 0.11580642 -0.01371712
0.04909228 0.15604469 -0.01800694
-0.02078828 0.06494386 0.02626687
0.02884335 0.08944730 -0.03525469
0.01489945 0.05975071 0.00775286
0.07124514 0.09553794 -0.00550651
0.03048277 0.05663855 0.00962112
-0.04053668 0.13955219 -0.00196118
0.00622980 0.13756175 -0.03573221
0.05101063 0.07630170 -0.02408257
-0.03873080 0.15264863 -0.00029503
-0.03056904 0.14837514 -0.04076927
0.04261377 0.15721115 -0.02233539
-0.02180165 0.13685933 -0.02163080
0.04167366 0.11544973 -0.03458111
-0.05382251 0.11065719 -0.02308325
-0.02677258 0.05629400 -0.02996843
-0.01809974 0.08532833 -0.03173329
-0.01807554 0.15481025 -0.00560036
0.05054460 0.07350200 -0.02799293
-0.00373846 0.07785763 -0.00749001
-0.02484510 0.13743642 -0.02616527
-0.00083461 0.12529285 -0.03446561
0.05563911 0.05314442 -0.00411109
0.03655890 0.08897582 0.02911780
-0.04309306 0.05437522 -0.01392117
-0.07316811 0.07087702 -0.03772131
-0.04639816 0.08341882 -0.02554504
-0.06266039 0.08091514 0.01899012
0.04488136 0.07824238 -0.03350495
-0.10357659 0.15654261 0.01406695
0.07550571 0.07426752 -0.00184700
-0.03743260 0.17844510 -0.01327629
-0.02865260 0.12569174 -0.02148342
-0.03202720 0.05322810 0.00729713
0.00841144 0.14757565 -0.02697232
-0.00855900 0.07520764 -0.02715645
0.00107968 0.10326268 0.00008388
0.04112185 0.06624568 0.01220138
-0.00671085 0.11385578 0.00065995
-0.03496514 0.06306611 0.02406920
0.05897922 0.06835458 -0.00684675
-0.05431961 0.05783456 0.03648042
0.08412904 0.09953463 0.00708894
0.03933417 0.11610556 0.00738022
0.08995230 0.13948393 -0.00890816
-0.00978675 0.12882854 -0.02939071
0.02993482 0.08441440 0.01868987
0.01147493 0.07710294 -0.01921077
0.02952505 0.06254262 -0.04177756
-0.08772404 0.06200098 -0.02081833
0.01251968 0.07111795 -0.00921388
-0.04525123 0.14750397 0.00466653
-0.03947699 0.06502010 0.01825562
-0.09277638 0.17421970 -0.00609794
0.04055878 0.06358232 0.00631535
0.04056362 0.11877124 0.00970785
-0.06702802 0.06745801 0.03293734
0.07460932 0.07039733 -0.00122082
-0.04127276 0.09276746 0.00177666
0.03329504 0.06380528 -0.03784412
0.05491058 0.13054515 -0.02873875
0.00783718 0.09734753 -0.00908032
-0.10086101 0.17338124 -0.00242115
0.02566253 0.08653799 0.00312193
-0.01449479 0.09085688 -0.03231379
0.05443478 0.10253376 -0.01167255
0.05736481 0.05519167 -0.01834891
-0.05396342 0.05888356 0.01551064
0.03555809 0.07884376 0.00970333
-0.06802593 0.16224529 0.00030857
0.01816036 0.07755211 0.00555742
0.03473383 0.05526706 0.00163618
-0.07428239 0.14070597 -0.00874218
0.02932690 0.08579536 -0.00320106
-0.05136118 0.05458289 -0.03227349
-0.08430499 0.08158877 -0.00925449
-0.08712699 0.07867283 -0.00248342
-0.07130317 0.06928779 -0.03276989
-0.02367209 0.16880639 -0.00444021
-0.00847047 0.09040252 0.00486545
-0.08438884 0.06150153 -0.03254242
0.03075652 0.08153505 -0.03422032
0.05110968 0.14494243 -0.00811343
-0.02713880 0.05614358 0.02346018
0.08759014 0.12995519 -0.01158711
-0.00401194 0.08352156 0.00028906
-0.02907952 0.15383759 -0.00038626
0.03516661 0.14308554 -0.03324427
-0.08889644 0.16228470 -0.01290968
-0.07561088 0.10262542 0.00762302
-0.02661794 0.05253945 -0.00045823
0.02774759 0.06900180 -0.04483627
-0.02980436 0.05163103 0.00327382
-0.00471014 0.09338002 0.00263047
-0.05652491 0.13058287 -0.02262315
-0.04137105 0.11917602 -0.02328896
0.02637340 0.12353005 -0.02077184
-0.05282468 0.05813359 -0.02779571
-0.03885073 0.17540082 -0.02376926
-0.04389398 0.13877915 -0.02916862
0.01428336 0.05923620 0.01961853
