1.28886211 -2.42892647 40.21827698
0.83124191 0.70687574 41.69953537
0.77873272 -0.38487741 41.44849396
0.86170959 1.79835892 41.38572311
1.79292297 0.20615368 41.37156296
0.16745913 -0.09860349 41.06614304
1.42968035 -0.17171033 38.75026703
0.84243464 0.38069093 41.65664673
1.94545960 -0.27565059 38.76211548
0.31059951 0.06956454 41.34588623
-0.28718519 1.56178570 41.64618683
1.14699304 -0.15089053 38.93369675
0.43596244 -0.57977456 40.84216309
-0.04889059 0.57838917 39.83559036
2.16985703 0.22469088 40.24216461
-0.31889415 1.95689785 40.07133484
2.70253992 2.13057899 39.96374130
2.18230319 -0.08324028 41.13254929
1.60861444 -0.17298652 39.43066025
0.68311805 0.47930878 41.64527512
2.01154876 0.48318189 39.80307388
1.33958268 0.68854094 41.68344879
2.54074430 1.44014311 41.79351044
0.61329544 1.89580333 39.13272476
0.22368866 -0.22952725 40.01474380
0.16878378 0.14281268 40.97454453
1.85050762 1.37217009 39.18645859
-0.30693829 1.94535661 40.78797531
-0.26522279 1.45036757 41.67832565
1.99397349 0.52299148 38.70569611
0.99430466 -2.01370144 39.60939407
2.19342303 1.12035954 38.93504715
1.96319222 2.28115654 39.22182465
1.70030308 -1.36528707 40.41423798
0.94312316 1.97567093 40.33039856
1.53582406 1.19512773 41.73385239
1.83821547 -0.43590903 40.36257172
-0.04615891 0.25644338 40.96760559
0.15193474 1.70649779 39.04998398
1.03359473 1.71648669 39.06399155
2.68484998 1.58411252 40.16680145
-0.26685739 2.01805305 40.06764603
0.57990694 -1.93822372 40.06798553
0.92529058 -1.77617359 40.87649918
0.33711773 1.08406556 41.87675095
2.12010098 1.65847123 41.86393356
0.84923148 -2.28827143 40.65855789
1.26166272 -2.45926428 40.33166885
0.54657173 -2.18501234 40.51433182
0.57981110 -1.83128881 40.70342255
1.12319970 -0.74433386 41.29728317
1.35508180 2.25659895 39.22335815
0.47021043 0.10756518 39.44485855
2.64504337 1.65914750 39.27405548
2.04441142 1.88232851 40.80907440
0.84307134 0.34971842 38.87895584
1.91259456 0.22882611 41.11066437
0.33055675 0.59699857 38.79368973
2.46787262 0.04912036 40.99672699
1.45157456 -1.39026713 40.23971939
-0.30536854 1.97075975 40.55295563
1.25120163 1.83487284 40.82629013
1.89930773 0.17785333 39.58325958
0.22013491 2.00333452 40.14589310
1.36234808 -0.40268779 40.09611511
1.22289741 -2.44102192 40.50762939
0.36192584 1.98046887 39.15338135
2.40493369 0.07216888 40.49687576
2.69945240 1.77781200 41.00259018
-0.26665258 1.14475667 40.75861740
1.78551769 -0.53778660 39.82376099
2.48292398 1.72395980 39.16881180
2.53484154 0.94870830 41.00637817
2.35303259 1.36861873 40.90810013
0.26980895 -0.00877171 40.93864059
0.02148068 0.59991866 39.56020737
0.84333742 1.88198566 40.89019394
1.72647643 1.75631154 41.56066513
2.27020025 0.37728456 38.72289658
2.25242257 1.45900631 39.07859802
0.77174783 -1.52434707 39.75631714
1.49665952 -0.02589789 39.19600296
2.50794458 1.11007440 40.90192032
0.62179768 -2.21687603 39.93569946
1.33605397 -1.04090798 40.11151123
0.44231194 0.60565621 38.85665131
0.27021897 -0.10287981 41.07453156
2.64637613 1.26404464 40.33681488
0.58195114 0.28790990 41.59915543
0.79667532 -0.21468323 41.51325989
0.62806278 -1.00772476 41.13966370
0.13872564 2.08676720 39.37979507
0.21954280 0.38794529 40.06661606
0.60472834 1.70042026 41.71231079
-0.13550651 1.62782848 39.25934219
2.44680786 1.24750471 41.88648605
0.57857400 -0.87130833 41.08329010
0.87819535 1.78835654 38.97078323
2.62797832 1.10431314 40.00035858
1.42106473 2.02927732 39.90884018
0.22639596 0.42988971 38.60542679
1.85403872 0.19843385 39.62857437
2.45510316 1.27537954 39.06789017
0.42151785 1.86784256 39.07133102
-0.32903254 1.64510691 41.43994904
0.45254862 0.20122887 39.19836426
0.90136462 2.05045652 39.64455032
0.58989692 -1.32048249 41.09822464
0.33556223 0.14496291 38.69746399
1.85187078 -1.29266858 40.90124893
-0.24147213 0.52293336 40.52237701
-0.19997275 1.00559247 40.88389969
-0.22267985 0.45276457 40.92958069
2.26792598 1.09256554 41.91496658
1.31349969 -0.22618966 39.89480591
1.39906704 -1.47071075 40.26520157
0.29317957 0.14341496 41.16486740
-0.00687706 0.74659824 41.67337799
1.99331641 -0.83096921 40.59805298
1.89302897 0.02983395 41.23501968
-0.08671379 1.83817446 41.39327240
2.54351640 0.62006509 39.90605927
0.59604192 -2.23188877 40.42283249
1.68756580 -1.45682669 40.65102768
2.15490365 0.73510146 38.76554108
1.67884552 0.44778517 39.37419510
1.46188533 0.65356445 39.24379349
0.55310524 0.55042762 41.62114716
2.31086349 2.09996462 38.97362900
1.57439113 -1.32600737 41.04618454
2.42331934 0.62172508 39.03710175
2.21732306 2.00752211 40.00814438
0.79713678 2.15000439 38.94787979
2.23296976 0.40368214 40.07433319
2.65610504 1.71917760 40.53864288
0.84935814 -1.97574067 40.83804703
1.89010096 1.01172650 39.15622330
-0.18274474 0.73808390 41.60391235
2.13657260 -0.12303754 39.23263931
0.27817196 -1.04565167 40.52666092
1.20135677 1.90174937 40.72276688
0.65869755 -0.82560426 41.17708206
1.59748173 -1.89605784 40.38769150
1.89826083 0.26511154 39.83517838
0.50825554 2.05704689 39.68916321
1.89629316 1.48418999 39.30979919
-0.16632855 0.56787652 41.19791031
0.09173834 -0.24009620 40.40967560
2.21143866 0.15952201 38.66761017
0.74868155 -1.76172757 39.76531601
1.48028040 -1.89140940 40.68468857
2.40526819 0.46032307 41.47068787
2.00320864 2.03482723 39.72150803
1.81999946 0.66603005 41.86768341
1.39189839 -0.29589781 39.94059372
0.71495342 1.96524489 40.37814331
0.42251956 -0.24686866 40.26541519
0.21361512 0.12356040 39.19655991
1.83405387 0.25877467 39.67910767
1.56477630 0.80646253 41.70003128
-0.15959203 1.17623353 39.24128342
1.36584425 -0.42561850 41.42724228
0.65891236 -0.72298807 40.12889862
1.08350527 1.85185063 40.84962845
1.20592713 -1.68986285 39.66165924
1.63063753 -0.50746310 40.09298325
1.61434233 -0.23677804 39.79874420
1.73809981 1.49904299 39.30530167
0.38897532 0.06443378 39.42236710
-0.28740585 0.72325683 41.22933960
1.35236394 0.38105693 41.60542297
2.66865730 1.06245089 39.82500839
1.48718345 -2.22409487 40.25458145
0.73113203 1.72109795 39.35910797
0.54496384 1.78478634 41.39620590
1.84598112 -0.42812172 39.18429565
1.96742904 0.87638479 41.95884705
2.56864095 0.65783542 39.80043030
1.68194258 1.90704751 40.70389175
0.61366069 2.11059189 38.89260483
2.69876885 1.61796641 39.96764374
2.55007696 0.39969048 40.84825516
1.92799115 -0.85594153 40.97177124
0.77013433 -0.85032719 40.05553055
0.98480541 -2.45032310 39.91734695
1.95943570 -0.27323997 38.95953369
2.20408821 1.78724647 41.44321060
2.54443502 2.19068050 39.96573639
2.18936014 0.55350608 41.85028458
2.68084669 1.80436921 40.09434509
-0.24765456 1.06165850 41.75921631
2.76058722 1.69542921 40.85381317
0.20455045 1.72176123 41.66256714
0.04954481 -0.31130525 40.71549606
1.96472824 0.88330865 39.00670242
0.06500089 0.59777647 40.01410675
2.63081431 1.71606135 39.93820953
-0.15675914 1.85898042 41.38040543
2.31183910 0.20741875 38.71609879
0.70760250 -1.94262469 40.77195740
1.01629162 1.78339779 39.13863373
0.92074132 0.45529106 41.70906448
2.78138447 2.13714695 39.79300308
1.72829962 -1.15379381 40.37899780
0.86201406 1.37074125 41.78103638
2.44176054 1.12989163 41.75840759
2.72941875 1.97369111 39.56107330
2.52363920 1.86676884 38.99712753
2.33882999 1.37779415 41.09528351
1.82099199 -0.34153053 40.85136795
2.40263700 0.35469535 38.90471268
1.26552236 -2.03689575 39.74361038
2.56553507 1.35249770 41.46755219
0.40751892 0.81912845 38.91972351
0.91413701 -2.18445110 40.71452332
2.31672764 0.89104909 39.01885605
-0.27992058 1.23213243 39.53082657
0.71722007 0.40631506 39.35224533
0.34055650 0.51671422 39.56594467
2.65569353 2.00249147 40.43381882
1.39113426 1.88720572 40.53184891
0.63307273 -0.07827969 38.71878433
2.76909590 2.11654949 39.12783813
1.87472272 1.75244951 39.04713058
0.63040286 -1.63252175 40.91427231
0.54604983 -0.96262109 41.05690384
1.03083861 -0.67186272 40.03829575
0.05901885 1.11548102 38.99571228
2.47452378 1.28988016 39.12638855
1.79468083 1.07161498 41.93263626
-0.17253423 1.01548052 39.37453842
1.59150195 2.24226379 38.93100357
2.39552283 2.06700516 40.14667892
2.07963061 0.44555500 39.69661713
-0.00276065 0.61878461 40.76024628
1.88493419 0.78720379 39.24654007
2.65161037 1.24175560 40.13405991
1.37854600 -1.71806407 39.78860855
1.47343230 2.12477112 38.86683273
0.53880543 -0.25581789 39.69440460
0.27392066 -0.24384420 39.73652267
0.31254619 0.01966039 39.29315186
1.95018196 0.51807070 39.73757553
1.69148183 1.36178184 39.15674973
0.60489684 -1.75946391 40.11221313
1.51085258 0.27842027 38.90147400
0.56203830 -1.70518851 40.17711639
2.34737587 0.01573946 38.81498337
2.35636091 1.37488806 40.87905502
2.09961557 -0.11974231 40.38110352
1.79789686 0.91825968 39.23282623
-0.13853204 0.77080953 41.68571091
0.70712072 1.80810452 39.15311050
0.49545956 -0.20201732 39.58539200
-0.19587922 2.03184032 40.49853516
1.37998426 0.00357092 38.74816895
2.01959085 -0.95898598 40.63261414
1.44936800 2.05289507 39.62032700
0.51856154 1.80934334 39.10934448
1.22779047 -0.21022718 39.98389435
1.80564857 -0.82459390 40.32627869
1.47522926 -0.26714331 39.00891495
2.51383424 1.61752939 40.70746994
0.43950015 0.89872676 39.09202576
2.21390033 -0.28892002 38.91644669
0.30560571 1.80807102 41.29116821
2.62097383 0.89757282 40.30733490
-0.05529153 -0.21780349 40.77645493
2.60769415 1.05647457 39.34582901
1.04477835 -2.31290197 40.00995636
1.92885923 -1.20633066 40.89952469
-0.32336593 1.54568982 39.86137009
2.06524515 1.86792374 40.86314774
2.56590033 1.14191258 40.59394836
0.38619483 -0.34772837 39.28632736
0.36885285 -1.37387848 40.39814377
1.42179346 -2.01600361 40.54843521
-0.28634679 0.60036063 40.38033295
0.38847029 0.46708328 39.99655533
1.07956505 -2.23577642 40.01345825
0.77577639 0.01377707 41.56969070
0.78544247 0.47814631 39.31373978
0.50726628 -0.74498475 41.04689026
0.48554248 0.27557635 39.04068756
2.24296713 0.23767745 41.04132462
1.51065350 -1.62097001 40.83315277
1.51433313 -1.30689371 40.45748138
0.21163952 -0.11912514 40.19560242
1.49694085 2.30256414 39.22668457
1.08468664 -1.61063802 39.55852127
0.50665832 2.10877752 39.58603668
-0.33739042 1.37255454 39.91476059
0.22699803 0.04877131 38.60217667
0.93162727 0.03497224 39.48967361
-0.06466889 0.87060606 39.15338135
1.64842391 0.39233914 41.52100372
0.08650219 0.89539230 41.81318283
0.62927896 -2.25996447 40.01237106
0.58241963 1.85859025 41.06116486
0.60019130 -0.80733979 40.14241409
-0.12824821 1.36811864 41.24446487
0.30747044 0.67287421 41.62545776
0.62482864 -2.18139029 40.54745102
1.02075565 0.00658200 41.59521103
1.47190166 -2.34895515 40.33391571
1.21768880 -0.09310018 38.97452545
1.75360072 -0.37601545 40.26981735
0.32099128 0.17935731 38.73069000
0.30537468 -0.08930087 39.93645477
2.29626417 1.57520747 39.23279953
2.61312103 1.09999716 41.64836884
0.33797890 0.40964124 41.27067184
1.40478730 -0.00653128 38.68262100
1.77233326 1.76353586 41.68094254
1.18549562 -1.24058437 39.79273987
-0.22804129 0.79759896 40.82398987
-0.00598466 -0.09116098 40.62831116
1.29370785 -0.12290566 41.53668976
1.69235015 1.94567537 40.49254990
-0.28337729 1.79635048 39.85396194
2.54657364 1.95600522 41.48396683
2.18890190 0.43671814 39.65422440
2.20189142 -0.16360131 38.89774323
0.52933693 0.41419730 39.61780930
0.08087039 0.90377736 41.83476257
0.50832480 1.75486732 41.42807007
1.48774123 -0.82527697 40.08575058
2.26408339 0.45800897 41.60695267
0.22097838 -0.22354864 39.14736938
0.26133066 -1.12849629 40.77201462
2.54412031 1.16872680 40.73291397
1.85656071 0.94325602 39.18816757
0.52947372 2.12840843 39.15515518
0.35441554 0.32064253 40.01818466
1.30321968 2.05310726 39.73468781
0.39317513 -1.39911294 40.81728363
-0.33669376 0.89003336 41.21577072
2.27075386 0.22636282 40.20895767
1.45661020 1.74418366 41.45923233
1.38471782 -2.23135185 39.91905594
0.83105731 -0.38081938 40.08198929
2.42100549 -0.15131383 41.09253693
-0.20238233 0.23580286 40.57954025
0.11821938 -0.44597736 40.54646683
0.34624875 0.13039084 39.20266724
1.35898829 1.76482558 39.15428925
0.30804425 -0.27429593 40.06293869
0.44949025 -0.30933663 40.19902802
0.08583748 0.28473622 39.34345245
0.49913943 1.60487974 39.13098526
0.49429500 -0.04045811 41.37571716
-0.27630544 1.72480357 41.32129288
0.33557171 0.57109278 39.88015747
1.90431678 0.37212557 41.41082001
1.39880681 1.75060987 41.62775421
0.42964709 2.15573883 39.12408066
1.77472651 1.15436280 41.83013916
0.98066032 1.70488811 39.01309586
2.00072289 0.13592552 40.22245789
0.62532204 -0.32953888 39.82456207
1.93801880 0.33895108 38.72455597
-0.09654427 0.25828037 38.73380280
1.81273532 2.13624763 39.41167450
1.43407011 -1.51938081 40.30309296
2.41122103 1.29343772 41.40607452
0.97173542 -2.33267546 39.77696609
2.05297518 0.11342193 39.38489151
0.14404631 -0.20149069 38.98162460
1.86872029 -0.13926159 41.17943954
1.79517758 0.48959094 39.17263412
0.79026049 -2.34717655 40.25739288
0.20854354 -0.36567897 40.76224899
2.55758333 1.59808528 41.59516907
2.79183245 1.82314658 39.48154068
2.30508852 1.71072733 41.71998596
2.63732004 1.56283820 41.38096619
1.76255822 0.50475961 41.58583832
1.15465999 2.07576656 39.72645569
-0.15014100 1.62987185 41.70760345
-0.24973571 1.39460301 40.58155060
2.74445534 2.07844591 39.58777618
1.72979486 -0.30766922 40.83213043
2.39051485 2.01570129 40.70326996
1.08924258 1.77885807 39.27411270
2.46501255 1.53374231 39.26795197
1.73386645 -0.81720597 40.33839798
2.36628771 1.98075187 40.92506790
2.65904284 1.04513848 39.63347626
1.76662207 0.36395919 39.39854050
2.00638342 1.78781307 39.06293106
2.31531286 0.13424504 40.27639008
0.55127072 -2.08086252 40.28965759
1.01052892 1.88415146 41.23228073
-0.08938873 1.79763710 41.53287888
1.25592923 0.24012771 38.85259247
0.37593168 -0.04918122 38.76581192
-0.33394611 0.57704026 40.55330658
0.55666304 -0.15759733 39.71403503
1.94713855 -0.14499183 39.98583221
1.34426379 -1.78565371 40.88891602
0.19104010 -0.30835602 39.08271027
2.44712973 1.19470346 39.16806793
1.57879353 1.00829875 39.19090271
-0.15067720 0.72491634 39.75020599
2.16873407 2.37216234 39.00349426
0.60457915 1.17701137 41.70565414
2.38110495 1.75768387 41.72536087
2.01096821 -0.17946683 38.65853119
2.45631671 0.51371616 39.41284943
1.43863416 1.12320280 39.13103485
2.57537055 1.66131401 39.17695618
0.73561740 -2.05126333 40.76039124
0.81171536 -0.58654374 41.34320831
2.44277573 0.98711765 39.09903336
1.68691635 0.26491308 41.53656006
2.30917883 2.27225876 39.15613174
0.12251878 -0.05830066 40.39004517
1.15477228 -1.58744097 39.59906387
1.86120772 0.80838490 41.90085602
1.36978769 1.91717315 40.64826202
2.54574871 0.99145865 41.14854431
1.59595442 1.26834238 41.71020508
1.40819991 -2.02086544 39.87396622
1.73845530 1.59884846 39.41489029
2.77761793 1.94385767 39.86777115
-0.26055861 1.40795851 41.49136734
2.44223261 0.18354551 39.24729919
0.01990807 2.01563168 40.55189133
1.30215669 2.01448107 39.65180206
0.86063838 -2.11027813 40.69694519
0.14983916 0.25162947 41.06061172
0.58609974 -2.24042559 40.40050507
2.11714911 -0.05699893 40.38833618
2.01112199 0.88060290 41.98001099
0.60106260 -0.11734186 39.56323242
1.91715813 -0.14778697 38.75395966
1.52069414 -1.60657859 40.07656479
1.94061828 0.44360226 41.19369125
0.91801298 1.83343410 41.03738022
2.42827415 0.19967653 40.40834427
0.21470428 0.25688872 39.35306931
0.60254794 1.97906435 40.19954681
2.18326664 1.43890142 41.84875488
1.69359279 -0.80880523 41.11284637
0.19774830 1.41615701 41.74249268
-0.10297978 1.99876678 40.50886536
1.05535662 -0.02620324 38.93819809
1.03407192 0.30114126 38.92532730
0.22973257 0.38447061 40.10465240
2.05639243 1.04238641 39.00297546
2.57394266 2.22342205 39.56127167
2.34038568 1.80425990 41.64698029
2.49770498 0.88944101 39.28534317
0.87311602 -0.89978319 41.25987244
0.95812559 -0.01576740 38.92766953
2.34854889 0.67788064 39.15323257
0.29356253 0.50756961 41.06089401
1.39164615 1.92677641 38.83975601
2.52287006 0.97882593 41.00221634
2.59000731 1.36782134 39.45515823
2.09176803 -0.04070618 39.26123047
1.59577775 1.72132969 41.72991562
-0.21396112 1.94978070 40.83599472
1.36736202 1.58732712 39.24286652
0.33604521 1.78395247 41.73662567
1.65658319 -1.64435112 40.41651154
2.47652817 1.53134787 40.71334076
2.15279484 0.21859038 40.95451355
0.95426106 2.03988266 39.72851944
0.27817160 -1.05981362 40.87658310
-0.32815480 1.37614560 39.68108749
1.76610303 1.85881674 40.83228302
1.21695411 -0.20790417 38.65268707
1.90881944 -0.13304816 38.83265305
1.21439147 -2.12158012 39.69189835
0.23606098 -0.26188785 39.11276245
1.03627586 -1.38638771 39.67372894
2.48502731 1.95087767 41.62477875
1.60262668 1.63049328 39.22753525
0.00359678 0.07376633 40.97484970
0.85098648 1.98560917 40.05281830
0.03906000 0.68324786 39.66295624
0.85123587 1.96034575 40.13863754
1.08893728 2.04933548 38.79376221
2.63239980 0.97850561 40.16528702
-0.30346572 0.73981929 41.40497208
1.10658717 -2.08298397 40.09403610
2.70214152 1.87161267 40.84339523
-0.07096410 1.48963606 39.14093399
0.26559532 0.40878901 39.54342270
2.41540980 0.68032342 41.82174683
1.87847149 1.91892648 40.50119400
1.47984886 -2.27581310 40.42903137
0.32963002 -0.74062485 40.89736176
0.82437348 0.32191077 41.55791855
-0.10006797 -0.22365470 40.90317535
0.63377249 0.53971034 39.31049728
1.82485247 -0.66857690 40.26833725
1.38830709 -1.32572198 40.01391602
2.41293144 0.25746667 39.29303741
1.97478485 -0.41481891 38.89160538
2.66858578 1.78431726 41.35238647
1.10131383 -0.49182099 41.44984818
2.57639217 1.43727207 39.51460266
1.92594910 -0.17240606 39.32321930
-0.29791331 1.32768357 39.44874191
-0.06482995 2.05782270 40.39215851
-0.24422526 1.18706822 40.05226898
0.65642792 0.87288558 39.24243927
1.68713188 1.71268725 39.18784714
0.21734160 0.08718820 40.34919739
1.56201911 -0.71109396 41.24177551
2.22953653 1.74405158 41.69680786
2.13781714 0.38133439 40.01642990
1.23247802 -0.31508768 39.99312592
2.10365391 0.04741718 40.47514725
0.62971264 -0.27851504 38.96583939
1.68658328 -0.46367598 41.06921387
0.04355049 1.93975103 41.00390625
2.66747880 1.83095813 39.40028000
0.01287365 0.26296920 38.64088440
0.66857404 1.19998097 39.18336868
0.52666491 -1.51920199 40.39830399
0.33771169 -1.29733109 40.89069748
1.23251593 0.00609163 38.75226974
0.99361587 -0.53236997 41.37794495
1.65479004 0.43759829 41.72167206
-0.32383263 0.92979348 41.49278641
1.99349308 1.98508704 39.82995987
0.66454238 -1.38702130 40.18493271
1.98471045 1.10455871 41.88628006
0.54357958 -2.16709661 40.25935745
0.62486470 1.27646685 41.72407532
0.19063568 0.40484643 39.56569672
0.33262873 -0.10396707 38.79202652
1.32270360 -0.50013393 39.93830872
0.21760237 1.80993164 41.38178253
0.65090322 -0.23415111 41.44697189
2.39602232 1.87484288 40.83829880
0.39075178 0.56321096 38.73266220
1.95158625 0.11381672 39.34090042
0.73372269 -0.32598737 40.00434113
2.42185354 1.62205386 40.45615768
2.29240847 1.56608713 40.60748291
0.26610672 -0.18230942 39.30293274
1.42990685 -1.24891388 40.19607925
0.26083964 0.21191338 40.18488693
0.60806894 -1.62399757 40.16637421
2.03521919 0.38786462 40.97648621
0.48261321 1.10371470 41.74410629
2.61173487 0.82951260 39.95726776
0.00038564 -0.08925404 38.76300812
1.54899788 1.93263757 40.36025620
2.17627454 1.93273067 40.21756363
0.42243361 -0.06604738 38.80112457
2.14311719 0.33297578 40.85255432
0.03081203 0.53935593 39.99945450
0.78913260 1.72054112 39.10731888
1.26174212 -0.23957057 38.85028458
2.03825855 0.40603828 41.48666763
2.01634645 1.98970211 38.83607864
1.76476574 1.06607199 41.80094910
0.51169139 -0.30150694 39.71115112
-0.01219428 0.80892819 38.77729416
1.86812782 0.21711713 39.87622833
1.44983053 -0.14242685 39.06826019
2.55566096 1.25075996 41.48538971
0.65649480 -1.47293103 40.97609329
-0.16996384 1.26814306 39.36068726
0.77956343 -1.47896492 39.79051971
0.78374600 -0.23202163 41.46374130
0.91014361 -1.22959208 41.19567871
1.91339099 2.06634951 39.68623734
2.75947809 2.10139227 39.45674896
2.68027306 1.77568746 40.10222626
0.40727949 0.33943635 39.66749954
2.70494843 1.72977316 40.90082169
1.19515634 -0.51160240 40.03582764
1.06355238 -0.33581963 40.05125809
1.30166709 -0.95305735 41.27415085
2.52329302 0.30362770 40.49636841
0.13281977 2.04527569 39.22238922
0.65590715 0.79899210 41.67026520
0.40780747 -0.74035764 40.90586853
1.27245855 -1.34200644 41.16738510
0.37753618 -0.48553610 39.80727005
0.51109201 -0.23855484 39.56433105
0.86240596 -0.71414113 41.32915497
0.96477556 2.03674459 39.88866043
2.77350092 1.78480291 40.39300156
0.67666906 -1.46015406 40.30482483
0.33126676 0.94021094 41.79266357
1.15999794 1.85062575 41.04006577
2.45300531 2.14181519 40.70684052
0.09603310 1.25554740 39.01642990
1.89214098 0.44654262 38.72309113
-0.26718843 1.05811000 40.47064972
2.42003489 -0.01525017 40.79874420
0.79326540 1.87028980 41.11875153
2.13276196 -0.29174808 40.79532242
1.43331349 -1.63022149 40.95607758
2.39909816 1.21078146 41.13951874
0.69957149 1.24411952 39.20967484
1.92112970 -0.38702449 39.53499603
2.40837479 0.14209087 38.95818329
2.05159616 1.83644569 41.16194534
2.65728045 1.79883385 39.75500488
0.36554736 2.07103205 39.36438370
0.01545393 2.02584457 40.16262817
1.41026020 -1.86231196 39.82598877
-0.23675215 1.27194452 41.14330673
1.33925104 1.77783108 41.33269882
0.31326824 0.00068833 41.29906082
-0.22505164 1.31779802 40.77622223
2.01471043 -0.05562894 39.24361038
2.46695662 0.36903191 38.85751724
2.62595320 0.76975644 39.92055511
0.68046939 2.17719126 39.03856659
1.39368904 -1.87446952 40.79429245
1.27789903 1.82182193 41.17522812
1.83813310 0.09559658 39.57555389
0.23540223 -0.23501261 38.64464569
0.82816613 -2.08383608 39.76676178
1.60275960 -0.90958261 41.21570206
2.54122353 0.57942325 40.31636429
-0.23356915 0.90790641 40.61504364
0.95864725 0.04059148 38.70146942
0.48698306 0.37664288 39.57659531
2.66266012 0.75348413 40.33597946
0.57368469 -0.09160006 39.48954391
1.81488776 -1.13929963 40.43273163
-0.03586996 2.01130962 39.28117752
-0.30193841 1.41741478 41.58734894
1.38977253 -0.10679904 41.56409073
0.46807694 -0.40692145 40.86108780
0.19871575 1.35685527 41.83594894
0.29336089 0.13925150 39.87477112
0.52712137 -1.04516566 41.13613892
2.00168514 0.01552926 41.15980911
1.45371830 -0.22602507 39.04949951
1.28938711 -0.65857732 40.06734848
0.39408678 0.52642351 41.37377548
1.69778502 -0.17493258 41.46978760
0.86413056 -2.19629622 40.27500916
1.31120038 0.36501351 41.59928131
2.38330626 2.13063812 40.04469299
1.10585761 -0.01067827 39.56460571
0.00396848 -0.09309677 39.15832520
0.23346823 0.53609526 41.55492783
0.87719560 0.70763290 39.19765854
0.35437959 0.30311561 39.51825333
2.09094143 0.40600139 40.99592590
0.00943816 1.57462406 39.09954834
0.59108859 1.79174531 41.15729523
1.28987324 -1.24576032 39.87078476
0.54983717 1.83620584 40.95866013
1.37307918 -0.83222008 41.23756027
0.79946196 0.32526350 39.05593872
-0.08929849 0.50178725 39.31820679
0.59580040 0.33866039 38.92965698
-0.32029784 1.94991481 40.30375290
0.68833023 -1.53814888 39.88327026
0.90247238 0.27094275 38.95743561
2.04615426 0.66841596 41.92445374
1.00654423 0.81548655 39.21019745
-0.22751868 1.49683988 39.49591827
1.34844542 -0.51022875 41.38662720
0.55028325 0.22628349 39.12843704
1.90594709 2.16505289 39.24764633
1.89037395 -0.61056101 40.40103149
1.94525909 -0.25503993 39.96378326
1.95698690 0.62770849 38.79717255
2.70286059 1.71318460 41.60509109
2.22578001 2.27054501 39.28412628
0.71837175 1.78136992 41.15542221
2.26230574 -0.06300898 39.28549194
1.35239482 2.04034567 39.88506317
0.11065102 1.96386635 40.49537277
1.75244069 2.21905041 39.24158859
0.40095711 0.25526738 39.29445267
-0.25988698 1.72028017 41.42434692
-0.25602674 1.50715065 39.96059418
2.24551392 1.14061272 38.98308563
2.02304077 0.25536695 38.68243408
0.61205512 -0.32665116 38.87429047
0.47608048 -1.89518917 40.18334579
2.53392053 1.43872201 41.58956146
0.87184340 0.23279783 38.77115250
-0.03551543 1.57796371 39.08296967
-0.12469828 1.49800599 40.77228546
2.37843752 0.50503099 40.87623596
1.51675165 1.98963153 39.92695618
-0.28185666 1.51421189 39.66282272
1.19919801 -2.17825603 40.35605240
1.06229448 -0.09961204 39.90884399
2.54160261 1.42101026 41.50222015
2.69468880 2.24929380 39.35382843
2.44626307 2.19238043 39.99370193
1.77203560 -1.42805612 40.86658096
1.07969105 1.68499088 41.83649445
0.84114552 -0.81098723 40.05509949
1.26357436 1.90683472 40.91385269
1.63779759 0.52842730 41.66707993
2.49834824 2.23904419 39.69172287
0.98151553 1.92634320 40.41671371
2.01903462 0.78649074 39.03715515
0.63800067 0.14291413 41.56912231
1.32194662 1.94192564 38.93690109
2.53745842 0.41977707 40.62194824
0.87000144 0.96657503 41.72481918
0.37903643 0.50342906 38.70458221
0.94472241 1.22166419 39.15629959
0.02774787 0.19016778 40.35815430
1.89668262 -0.69308889 40.44035721
2.41224337 0.68839216 41.87578583
-0.27339673 1.44767070 41.27283478
1.06517339 -0.17372279 38.86329269
1.30111027 0.24479795 38.97022629
2.67836618 0.99460065 39.81455994
0.91856945 -2.34208202 39.87093735
-0.17410564 1.57659161 40.08030319
1.92836452 0.24064845 39.44342804
2.59039068 0.86257088 41.66597748
1.75228953 1.01665056 39.23381424
2.32467031 0.93445289 39.06777573
0.77485174 0.68498814 39.22957993
0.72669387 0.54124212 39.28343964
1.03283930 -2.22323370 39.92963409
-0.02190697 1.37338281 41.79002380
1.03736007 0.99855995 39.17086411
1.68188691 1.93140244 40.59662628
-0.30075562 1.50594854 39.82131577
-0.20203233 1.51999319 41.72485733
0.48482382 2.10982847 39.28677750
-0.08037055 1.91932213 40.42393112
1.87407732 0.40976766 39.83991241
2.70585155 1.61245263 39.76390076
-0.29572880 1.80961347 39.95805359
1.11347032 1.99745142 38.90526199
-0.30841839 0.87134892 40.14643860
0.74079704 1.32146621 39.13917542
2.54824138 0.86350936 40.69632339
2.38304281 0.66762090 39.20298386
2.41552067 1.42419434 40.77475739
0.81272531 2.10435343 39.53304291
0.74933976 2.23854733 39.11522675
1.09191239 -2.05311298 40.84213638
-0.15016723 0.82535648 39.05980301
-0.39965129 0.99107850 41.57316589
1.45216537 1.47619951 41.76314545
1.89955878 0.48722810 38.77960205
2.36143446 1.82027018 39.22200775
1.84852695 0.49351966 41.65505600
2.45448637 2.16411018 40.28559494
0.43044615 -0.03411953 41.43178940
0.15578306 -0.22130346 38.88376236
1.51637125 -1.80549097 40.79571915
0.29044300 1.08199978 41.88812256
2.31287432 0.44611502 39.60342407
1.07815170 -0.55923903 40.07341385
0.95658767 -1.32223761 39.76623154
-0.09753859 1.91042352 39.31447220
-0.30730784 1.78085649 39.76482391
1.45053577 -1.36099935 40.30102158
1.28131378 -1.82841802 39.67542648
0.54042745 -0.05403940 41.46459579
1.88701057 1.84500742 39.03740692
1.37450910 1.70897889 41.72279358
2.55693769 0.62514389 40.50896072
1.44820845 0.01123004 41.67587280
2.55507183 1.65870607 40.92349625
0.38115233 0.04942776 41.39928055
2.17165828 1.84440541 40.87872696
2.52255774 1.50395119 39.40461731
0.71622139 1.88715434 41.01864624
1.89044046 -1.18648684 41.00022888
0.16908216 0.26660737 41.01600647
1.91394424 -1.04943526 40.46087265
2.62677622 1.59254646 41.24776077
2.64594555 1.35351348 39.71413803
0.50247878 -1.92323172 40.44089508
0.02627516 0.58117026 40.90248108
0.69866478 -1.85016501 40.76630020
-0.21278381 0.27011907 40.95932388
0.17605317 -0.54763752 40.61075211
1.68743968 -0.49992633 40.16601181
0.58887917 1.55238223 39.24853897
2.54754925 0.44110399 40.33784866
0.06509757 0.96250904 38.75823975
0.57900810 0.88947600 39.17695236
0.41911411 -0.81184220 40.19168091
2.42147303 0.46999288 39.00244904
0.76059198 1.55553746 39.15275192
1.11192107 1.02163601 39.15192032
1.38741100 0.43476939 41.64009857
0.72868317 -1.78977525 40.82972336
1.74072194 2.38986349 39.21490860
0.48392248 0.16151224 39.19025040
0.72331333 0.28766939 38.82946014
0.05558181 1.40570211 39.01904678
0.65548515 0.91584051 41.66278076
-0.00977933 0.50121194 41.19541168
1.14031637 0.74292791 41.69676208
1.24470341 -0.30934304 41.50926590
2.68558884 1.20697868 40.17878342
0.60294294 -1.80666804 40.82241821
2.24768925 0.28899321 38.62952805
2.38708425 1.50694716 40.66279221
0.96022427 1.40099847 41.79878235
2.07303619 1.06000936 41.88977051
2.55674696 1.59930408 40.92049026
1.69554043 -0.52412581 39.98282242
2.46931362 0.51953286 39.47987366
0.73755449 -1.36014068 39.96190643
2.69793510 1.84944963 39.19038391
0.96254516 -0.27642044 40.08779144
2.52077723 0.58599949 41.48777390
2.34479141 0.20438176 39.32872391
2.36691141 1.15212929 39.08252335
1.51509094 0.19027264 38.77705002
0.78993326 -2.34050035 40.39468384
2.13570523 0.54048407 41.80215836
0.48931479 -1.72720385 40.32326508
0.64356512 -0.12684467 39.76811600
1.21616781 -1.48053932 39.69842529
0.58126026 -2.25777769 40.05104828
1.04465282 -2.11157227 39.67150497
0.70680559 -1.95907402 39.88600159
-0.17366731 1.09919846 39.20468140
-0.27433014 0.65154207 41.44245148
2.31501555 0.33659413 40.02917862
0.66743189 -0.33306152 39.89558029
1.11469066 -0.04947530 39.04991150
1.02116787 -1.12228763 41.26963043
-0.23803186 1.70854259 40.10351181
-0.26160097 1.21374047 41.01689148
1.60968542 1.91303551 40.57180405
0.79462540 2.00361872 40.26007462
2.47788811 0.66277140 41.25332642
-0.07607138 2.07070971 39.55854034
0.79907596 -1.94640505 40.82713318
1.85827756 0.46606529 39.68814850
1.90054250 -1.23609626 40.65081024
1.05514300 -1.05233324 40.06860352
1.13070607 1.30051017 39.10063934
1.09354150 -0.98970091 41.33417511
1.76196468 0.16917050 39.30309677
0.54669356 1.68598104 39.18775177
1.50778782 -2.16593456 40.29453659
-0.28230655 0.74431884 39.87703705
0.13402331 0.24435839 40.33128738
2.37067604 1.98711264 40.58925629
2.61367130 2.16561890 40.33996201
2.02518797 0.21161982 41.02912140
1.03071427 -1.86670005 40.82450867
0.40744632 -0.12413778 41.41391754
-0.05953336 1.91435111 41.10464096
1.33685184 0.33754009 39.14097977
-0.06709659 0.83058929 39.11367798
-0.10072553 -0.08744588 40.98637009
0.85329199 -2.04703188 40.42578506
0.40469557 0.10440576 39.55630112
1.10394597 0.94095975 41.73872375
2.73172188 2.00446033 40.17963791
0.02480221 -0.27551723 38.73922729
0.72538507 -1.36132407 40.11717606
0.81063569 -2.20278263 39.73748398
1.74206567 -0.47032624 40.24280167
0.15999842 -0.33301264 40.43642044
2.67071533 2.22283888 39.73955917
2.28188562 1.30614662 41.30005264
0.58857954 1.75689244 39.23193741
0.03256440 1.08034718 39.01638412
2.49047232 0.40504503 39.95092773
-0.23855901 1.53152227 40.90140915
2.79062414 1.96260297 40.27202988
1.92038345 1.28292191 39.14920807
1.14026415 -2.34868002 39.81624985
0.72142494 -1.27004695 40.00588989
1.12594080 0.02989747 39.12034607
2.30927682 0.48719162 40.86999130
0.67225462 -1.63881767 39.82733917
1.29252696 1.94282818 40.32934570
0.22283590 2.14922857 39.54816437
-0.28666127 0.32428196 40.73784256
2.42138886 0.68715239 41.14911652
2.29446030 0.10607329 39.27325058
0.64897072 2.09449434 39.43686676
0.37430787 1.92484975 40.87963104
-0.27291751 2.08149672 40.10570908
1.42252517 2.36148453 39.06210327
1.10545158 2.14380407 38.87021255
1.56034422 1.51803386 41.77364349
2.11842775 1.34863925 41.81395340
0.96059716 2.00264978 38.86803818
1.38614500 0.74717653 41.71902847
2.79605913 2.00181913 39.23416519
0.18535137 1.87238920 39.16961288
1.55760133 -0.37808460 39.00609589
-0.16373682 2.00185299 40.70660782
1.10778809 -2.39275122 40.60162354
0.46678191 0.66691971 38.85762787
0.60152233 -1.80103004 39.98007965
-0.22780824 1.31879163 41.18956757
2.74697399 2.05283070 39.90993881
2.25055861 0.64162201 41.81439972
1.20704436 0.45135313 41.72785568
1.72337925 1.97269571 40.32435226
2.26581264 -0.36924261 41.01074982
2.43689823 2.27886152 39.32293320
0.50987852 0.34403998 41.53603363
1.36594164 -1.08318257 40.04778290
0.45474815 -0.67535162 40.21649551
1.67497361 1.96575606 40.21917725
0.81993902 -1.94874573 40.80277634
1.17586553 1.84829593 39.22481918
0.66324627 0.30215314 38.92573547
1.31217992 1.56955445 39.23027420
0.03094649 1.09431052 41.83623123
2.35900307 2.07841825 39.98068619
-0.30484450 1.76360154 40.11166000
1.42599249 2.32178736 39.20043945
0.46878713 -0.30859113 41.29479599
2.01860571 -0.37461704 38.72928619
2.63423920 1.12669456 41.27215958
0.78534186 -1.21703625 41.10475922
2.18786526 0.88524324 39.02343369
0.65347207 -0.17989783 38.73395920
1.05256045 2.26379919 39.18054962
1.97664046 0.16013952 40.30094528
0.95890647 -0.39744359 41.43426132
-0.24863243 1.42099106 39.66117096
2.23755455 -0.15741184 40.67687988
1.37736201 -2.08544827 40.70864105
-0.32701969 0.79673040 40.08848190
0.68886542 1.86795533 40.84919357
0.30656260 -1.39104581 40.66652298
2.55264139 0.95530158 39.45897293
0.63881832 -2.30753613 40.16991043
-0.25348616 1.53077126 40.00704193
1.92638302 2.05027628 39.90126801
1.16816139 2.13391066 39.54511642
2.58397150 0.29618555 40.53830338
1.60288703 -0.43269145 39.03611755
2.07683873 0.42525321 38.66168594
2.38361740 2.13089514 39.63570404
2.44174433 0.58467847 41.71317291
2.42350864 1.70232928 39.28509903
1.56379390 1.58344114 41.84621048
2.19082689 1.95588100 40.21142578
0.35844886 1.52007532 41.78773880
2.36726189 0.58588672 41.68288422
-0.39509010 1.21967661 41.22225571
-0.38636971 1.80534732 40.89255905
0.18342626 -0.52026951 40.35924530
-0.25759590 1.27434170 40.70225906
1.90609765 -0.45590526 39.36502838
-0.29078424 1.26891828 40.59041977
0.88073862 -2.32948542 40.57009888
1.05977690 1.78007472 41.51699448
2.11148214 1.81765711 41.02451706
0.95958161 0.34824985 41.64707947
0.23523766 0.46393198 41.48940659
0.60465294 1.04928637 41.73529816
1.74811745 1.16946101 41.79562378
0.48507363 0.40115300 38.91578674
2.71497679 1.84987319 41.34262466
0.26068312 -0.13181445 39.25871277
1.64765632 0.29351091 39.06145477
-0.26907158 1.14180791 39.90643311
1.32568800 1.59789658 39.15375900
0.59258330 1.85925615 40.76602936
1.59469664 0.07673433 41.55974960
1.10111248 -2.45869017 40.48206329
1.77207065 -0.08066569 41.44899750
0.65579259 -1.46827281 40.98459244
0.73942721 -1.83162045 40.89645767
1.61843073 -0.63187397 41.19298553
0.28737473 -0.30972683 39.33620834
1.68464732 1.37769032 41.68818283
1.08867419 -0.30143192 38.77404404
0.44427514 0.53443313 39.75384903
0.47346050 -0.43220463 40.03792191
0.55241030 1.15373135 39.15065765
-0.02028775 1.83524370 41.40558624
0.53534889 2.09554529 39.61399078
2.44963956 0.46180284 40.92336273
0.86592221 0.32456726 39.21290207
2.30072665 0.47944260 41.19255447
2.70864868 2.11222935 39.11446381
1.65249133 0.85543650 41.72890091
1.74267650 -1.14532578 41.08681488
1.65576994 -0.16831805 41.47818375
1.39362717 1.11268401 39.14841080
2.46781826 0.37113327 40.99277878
2.14014721 1.73305893 41.78745270
0.63257068 2.03663778 39.86266327
0.16859734 0.01659162 38.57568741
2.10445499 1.78576791 41.20793152
1.54862463 -0.21697724 39.13802719
0.43218690 1.94634914 40.71698761
1.04552698 -2.11970663 40.74362564
1.57261884 2.04153347 39.63756180
0.94570607 -1.95151699 40.84333038
1.78525114 -0.66875482 40.35821533
-0.19189131 1.47401845 41.74794006
0.68274796 -1.72537553 39.82880783
1.77218199 0.43683410 39.52385712
2.09693980 2.03015423 39.68985367
0.31691164 0.58138555 39.64733124
-0.05156696 0.50247377 39.37424088
2.10856700 0.37809983 39.58883667
-0.28292620 0.67355794 40.36652374
0.35754126 -0.50446200 40.86101532
0.51339793 -0.44815621 40.21310425
1.78058386 0.62102872 39.33640289
1.96999192 -0.35204110 39.12847900
1.79701173 0.39143285 38.94648743
1.53004599 1.36807203 41.81894302
2.07978320 -0.28868955 39.15597534
1.73628700 -0.35794291 41.26505661
1.39796674 0.07652575 38.75496674
0.32259834 -0.08937825 39.66611862
0.71362424 -2.39135647 40.18007660
1.94100642 0.09162673 39.85799026
2.75678444 2.02309465 39.39131165
0.19827276 -0.20172720 40.25373459
1.08583593 -2.33895016 40.70029449
0.30826432 -0.00725628 41.10480499
2.24206448 0.16305548 39.42364883
1.64199233 -0.32196349 41.35849762
2.51823854 1.23558211 39.23171997
1.82167697 1.07745731 41.92409134
0.20990086 0.90248585 38.73859787
2.44276190 0.19823815 40.68682098
1.59389687 0.30345288 39.17678070
1.95377147 0.47750342 39.76111603
1.83306098 0.18611872 41.29618835
-0.33331633 1.59427583 40.06003571
-0.21353340 1.85792243 40.25715637
1.95051098 0.53449368 39.59675980
0.16385722 -0.21007462 40.72613525
2.55381012 0.76119298 41.38766098
2.72300673 1.69114161 40.60526657
1.69127297 -0.31800544 39.21342850
0.83430326 1.13105845 39.16163254
1.77845216 -0.53421074 39.98294067
1.53219557 -0.49588558 39.98508072
1.77796304 0.27458638 39.48495102
1.24630916 -2.40586519 40.17905045
0.36833972 1.24287152 41.81950378
2.70459604 1.95204377 40.57673645
-0.13209832 -0.05355958 40.63465500
0.68284422 -0.17085575 39.76582718
0.43741500 0.29113692 38.83127594
1.04014266 1.61969924 39.19214249
1.57741535 1.78358102 41.63132095
0.24742544 -0.16979322 38.60615540
0.46990216 -0.42277247 39.88454056
1.83453858 -0.94880521 40.39007187
0.93328953 1.64365411 41.80162048
0.46575320 0.52602571 41.59741592
1.28295541 -1.78494978 39.73166656
2.10063171 -0.23188248 39.27541351
2.56867027 1.56233084 41.16381454
2.50107622 1.66065204 41.80483246
2.53079510 1.18715906 39.28376007
2.40970087 0.23868072 39.19594574
0.70276713 -0.60270238 41.31412506
1.91708922 -1.12133837 40.73918915
0.41664225 0.11685324 39.33491135
0.89116824 -1.41008186 41.14607239
2.05151010 -0.10445938 40.02295303
0.17240489 -0.61065465 40.74284363
0.61071301 0.87718534 41.70681763
0.24853343 -1.19388533 40.68536377
0.35307562 -0.36387789 40.79602814
0.21013135 -0.77404571 40.46625900
-0.31417561 0.77647644 40.49903870
2.65059638 1.84001017 41.44197845
2.08737516 1.95054030 40.31940842
0.46573979 0.41862717 38.97882843
1.90710092 0.54603750 41.80746460
0.82912791 1.93247759 40.63554764
1.46904922 -0.18386541 41.52558517
-0.25666797 1.22381377 41.75666809
2.72286725 1.90495872 41.01243210
2.13520813 2.25570202 39.34110260
-0.16839814 0.59316033 40.08979416
0.24353009 0.57813537 39.98641968
1.73030400 -0.41348654 39.11395645
2.79391718 1.89850116 39.98799896
2.52849078 0.15315588 40.51541519
0.58312070 1.34437299 41.74065781
2.71460485 1.12587821 39.66020584
0.70953274 -0.13998215 39.82025909
2.49204397 1.53245223 41.64045715
1.33246768 -0.29614839 41.48118591
0.91767788 -1.25476706 39.93519592
0.21597981 0.05582215 41.02307129
2.32434988 0.54232967 41.13597488
-0.27090323 1.29363465 40.32933044
0.80688357 1.79773045 41.36168289
0.72814262 -2.17259073 40.67758179
2.50446463 0.45912963 40.06245422
0.22904491 0.13732061 40.23191833
0.01205146 1.50212646 41.80087280
2.33113861 0.49644619 41.71479797
2.39578438 1.50719500 39.18514252
2.51801467 1.24040806 41.75658035
-0.28274786 1.68486464 41.51197433
2.32573891 1.76653636 41.26119995
1.33153486 1.06613076 39.12918854
1.24255371 -1.45988488 39.66397476
1.42065322 -1.52595723 39.80082703
2.57733488 1.64653134 41.11838913
0.58365166 -0.46672985 41.28495407
0.17906213 -0.86649972 40.67712021
-0.31713140 1.19139111 40.43508530
0.73935485 0.10409392 41.63693237
0.45882499 -0.22762318 39.41547775
0.54944479 1.93564403 40.73331070
1.54247403 1.08438933 39.13125992
2.64974928 2.15319729 40.31082916
0.00168824 0.52277803 39.43802261
2.30918598 2.24436045 39.28837967
0.94873542 0.03542669 39.22215271
1.74306190 0.09060535 39.32109070
1.20381212 -2.13590717 39.65668488
-0.12568247 0.71145380 39.37872314
1.55614412 -1.12662792 40.25955200
1.39351988 2.19884729 39.22490311
0.22323442 1.92897773 40.29086304
0.70960182 -2.03676748 39.81774521
1.41815174 1.87826443 40.89544296
0.64810538 -1.51877511 40.01205444
2.42667747 2.18907404 38.95654297
-0.07536137 0.94185680 38.94238281
-0.34830379 0.96418798 40.32419205
0.69557631 -1.28085053 40.26177597
-0.14618695 0.03205387 40.84206390
1.91744566 -0.39249554 40.14885712
0.46864945 0.29191020 39.63840103
2.43932867 0.04361543 40.55102158
2.74564791 1.83152938 40.18424606
0.94181120 -2.01556039 39.71954346
2.15345860 2.29544306 39.17511368
0.09820211 1.60601068 39.03232956
1.73243761 2.28126240 39.01378632
1.33161950 1.71460378 41.78157425
0.51044667 -1.32179701 40.41592026
1.52531326 1.79999745 41.35699463
1.38647103 -2.03563595 39.83784485
-0.16762793 1.41973913 41.31507874
0.33833361 0.47975618 40.94651413
0.50060850 -0.26383233 38.90433121
2.79572392 2.06022596 39.28367615
0.62743241 -1.51608634 40.93281937
0.43297923 1.84922242 40.96114731
0.43881691 1.97122324 40.50666428
1.48486257 1.61430573 39.12521744
2.62103057 1.98398364 40.93019104
1.52504277 2.11403894 39.18268967
0.62239194 -2.27509117 40.48517990
0.35422832 -0.04979093 41.41102982
0.60581034 -1.57355416 41.00123596
2.28384161 -0.20144081 41.22229767
0.40904719 0.56596255 39.80621338
2.48594546 2.01244068 41.11018753
1.12193024 2.26868439 39.20356750
2.05758095 -0.25828815 38.67443848
2.51276994 0.28194320 40.35920715
0.14050472 -0.03445105 39.19881058
1.21065319 1.44363689 41.76020050
2.14241385 2.09459400 39.22980499
1.91787434 -1.12945151 40.74102402
2.08729863 -0.64162409 40.85844421
1.59880173 -0.01709826 38.75751114
2.01006985 1.67069471 39.09574509
2.16850424 0.69941717 38.73661041
0.84314924 -1.36292088 39.80285645
0.32975453 0.80396086 38.77886963
1.88811493 1.09231186 39.13202286
0.48368496 0.81813598 41.67366028
-0.31525314 1.41955054 40.29354858
2.60548019 1.36383772 40.52299881
0.33421659 0.24661663 41.18959808
0.03414309 2.17416811 39.49557114
0.61877888 -0.33977327 38.75965500
2.48855877 1.08605695 41.13410187
0.97250390 -0.24350008 41.50994110
1.32702053 -1.80719388 40.91590500
0.94162941 -1.18329608 40.02910614
1.34707546 0.51776356 39.27956390
-0.09963512 0.49050260 39.98205948
0.96035707 -2.16125631 40.04330444
-0.39118588 1.10141623 41.60858917
0.61928630 -0.04111992 39.40969849
2.44646692 0.11563605 41.06583023
1.04934382 -1.13669932 40.01718903
0.78683400 -0.04214875 39.01319885
1.53222215 2.15364122 39.28774643
1.87809265 -0.25665221 40.89123154
2.09489965 -0.33778843 41.09151077
1.39861667 1.96012056 40.00824356
-0.30606472 1.34378350 40.17662430
2.10215092 -0.57090104 40.59779739
-0.17555654 0.07195412 40.87309647
2.49689388 1.18229628 40.80879593
1.82666516 -1.00176239 40.35744476
1.76515126 -0.47692713 40.92733383
1.95856309 -0.34153420 40.11380005
1.95471013 -0.18450686 40.03096771
2.63292122 1.34139371 40.23389053
2.08607292 0.35204819 41.16910934
0.48583668 0.37285736 39.52511215
-0.18286586 1.47779453 41.09323120
1.03277421 2.03758335 39.77040482
1.73692119 1.76663888 39.17871857
1.43677187 1.55087829 41.80220032
1.25192285 -2.37097406 40.56449890
0.24856663 -1.21857893 40.73483276
1.91048944 -0.11312114 39.39466095
0.47234964 -0.68168163 40.25997543
1.52978814 -0.04134911 39.36697388
0.32928574 0.42163253 39.55830765
2.62552118 0.73606747 40.08525085
1.95344138 -0.43674701 40.82027817
0.38552803 0.50530076 41.15405273
2.51000309 1.07411778 39.24799728
0.67904556 2.08201313 39.73125076
2.29817605 -0.24185406 40.88106918
0.41840315 0.43327251 38.80228043
1.96414304 0.02989749 39.89897537
-0.12076652 0.56566602 41.44816589
0.21239316 -0.38070655 38.63772583
2.64184093 1.74229681 39.93798447
2.40999365 0.73779410 41.12487030
0.32169992 0.54081380 39.65242386
1.36437535 -0.69674218 39.94454575
1.86091852 -0.22238617 40.98239517
1.24064636 1.35461235 39.07621002
0.02921474 0.60861492 39.64232254
2.00891185 0.31189018 40.05656815
-0.05746758 0.97552252 38.93408966
-0.05168414 1.62083566 40.60331345
2.41824007 0.53979558 39.29816437
2.48317099 1.51244724 39.21900940
-0.19166243 1.16137695 40.91955566
-0.00053668 2.03127098 39.98554611
2.03165197 -0.83525372 40.86489487
0.61898464 -0.52387881 40.03233337
1.30490518 0.98743594 41.74931717
1.86122382 0.43916315 41.27379227
-0.23406136 1.39963400 41.34691620
2.41680193 0.66387182 41.58897781
0.65362561 -1.49437332 39.89996338
-0.15261602 1.73365879 39.42855072
1.99246907 -1.10778999 40.84337997
2.24199009 -0.10521470 41.16357422
0.92838937 -1.26649845 41.13723373
2.80135226 1.91168141 39.28990936
0.40619111 -1.46383023 40.73949051
2.35842037 0.52413362 40.96836090
1.24866867 -0.05703908 39.66702652
-0.08433998 1.69053972 40.67994690
2.52114058 1.34491754 41.76987839
0.94760293 -0.20651224 38.64004135
0.33204222 -0.57623690 40.84634399
2.22316551 1.54698026 39.18312836
1.22763598 -2.33235836 40.28200912
0.82288885 -0.94825751 41.23456955
1.17161655 0.98494864 41.72461319
2.34992838 0.51142228 41.54987717
1.58543420 1.71459258 41.76555252
2.07957983 0.49053645 41.71258926
2.53548884 1.04722440 39.18402100
2.18411517 0.14814687 41.01912308
1.83051252 -1.42952740 40.71599579
0.44059193 -0.28601405 40.94839478
-0.05181432 1.07775199 41.80868149
1.14996922 0.24224350 39.30746460
1.19743538 -1.16627455 41.21007156
-0.22083783 0.79053551 39.92736816
2.34495831 0.41382280 38.77560806
1.31586635 -1.95367527 39.76462173
1.77869093 0.12510395 39.16445160
1.97733784 0.11533731 39.70941162
1.49748254 -1.60468841 40.93695831
1.53621042 1.80159247 41.33437347
0.85113722 -2.32052708 40.02592087
1.96893787 1.42595828 41.84743881
2.00418949 -0.56863713 40.49306488
0.34623694 0.53248942 41.11867142
1.98491967 -0.46219549 38.92868042
0.96184599 0.04268263 41.55624390
1.48578572 -0.89883834 40.04319382
2.25695276 -0.32101867 41.08968735
2.55874252 2.24682999 39.47613525
0.03673923 -0.18892394 39.18730545
0.36882609 -1.09393489 41.00056458
-0.24241436 1.75666726 41.42721558
0.72839320 2.07761765 39.57770157
2.01002359 0.47648931 41.65432739
1.95422375 1.62292564 41.88162613
2.60680628 1.05442810 40.61364746
1.29409754 0.12324013 41.64213562
0.81532073 -0.61565888 40.04178238
2.20478058 0.43417746 39.69522476
2.34669781 0.00894488 38.96199799
0.36635607 -0.24224274 39.04006577
1.99194956 0.37620375 39.99678040
2.06466746 1.77223849 41.37599564
2.50428891 0.32635391 40.80337524
1.68175948 0.67072314 39.33300018
1.00987935 2.01604557 39.94074249
2.06401682 1.50773883 39.15518188
0.01711583 -0.23421693 40.94802475
-0.25618112 1.36785030 40.15652084
2.31331658 1.27424240 41.07315826
2.25266814 -0.07357915 38.62361526
1.17062366 -0.41069379 41.43830490
1.75384188 -0.14700337 41.31697464
1.67511988 1.88152289 40.82169342
2.10739112 -0.22879139 40.30209732
-0.36561596 1.01623678 41.11796570
0.97914314 2.10806513 39.49813461
1.22646916 -2.29484367 40.56455231
1.76866770 -0.27904096 41.01818848
1.00553012 1.92260432 40.40637589
0.98986661 -0.02880009 38.98836517
1.49383473 0.91550070 41.78762817
2.48181009 0.96986151 39.13504791
0.45590931 1.96592844 40.09169006
1.48355293 1.90533781 40.95629120
-0.08256292 0.86444908 38.88143539
1.99966002 -0.31087399 40.11540985
2.40947819 2.23811197 39.66812134
1.32831323 -2.02382898 40.77305222
-0.14305234 1.93710673 40.82482529
0.96237254 -2.19496441 40.00960541
0.80355191 -0.04915588 41.53982162
-0.32799160 1.21165502 41.20229721
1.78661382 0.12484451 41.43726349
2.34594393 0.47063321 39.49597168
2.04918289 1.81711113 38.91591644
0.45895606 -0.27524328 39.37598419
1.26859462 2.10148287 39.40314102
1.69044077 1.44524002 41.83071136
1.95286179 1.92590952 40.44245911
2.66180801 1.53170013 41.55638504
0.39015734 1.43363297 41.80147171
0.48171002 -0.22825333 41.30979538
-0.17157793 1.94908559 39.42448044
0.09100080 1.85410631 41.36568069
0.52421433 -0.51767570 41.14078903
1.01111543 1.93081939 40.33809662
-0.22779369 1.62484694 39.39479065
0.25797731 1.78064120 39.10683441
-0.25854897 1.64144921 39.78801346
0.42333400 0.98816466 41.76725769
2.65494013 0.92742652 41.23220444
0.04762578 0.06191587 39.01525497
-0.15974951 0.69467431 39.22497559
2.35794950 2.04220676 39.63477325
1.20031881 -0.65651673 40.01178741
1.67586899 -0.26197466 41.49533081
-0.26430881 1.20007002 39.91118240
1.78873348 2.14511824 38.95068359
0.26210964 0.67019296 38.72534561
2.05124807 -0.17835547 39.27186203
2.73852158 1.88314378 40.76200867
-0.05925167 0.18104766 38.99343872
1.54304945 -0.18904190 39.65160370
1.97769690 0.21499076 40.11651993
-0.31120384 2.04930401 40.01729584
1.43033504 -1.46640897 40.15948868
0.02758098 0.48075181 40.06482697
-0.30180776 0.55674386 40.77083206
1.52809548 -1.48616314 40.42872620
2.76649618 1.82743692 39.75950623
1.75650954 -0.74556142 41.01287079
1.97244215 0.15954225 40.23513794
0.44666690 -0.85645115 40.99291229
0.41828895 -0.41947210 39.58770370
1.25081468 1.12448144 41.79760742
1.47579956 -1.41366076 41.11217117
2.65678453 1.98544300 41.09951019
1.83619857 1.82072675 41.33319473
2.24723816 0.42158410 41.36422348
0.45817673 0.53480279 39.32239532
0.01436019 0.89555252 41.74734116
1.98524857 1.97883117 40.00791168
