0.03158724 0.06810093 0.01208565
0.03510085 0.16180590 -0.01156911
-0.00297413 0.07664789 0.00458498
-0.01706479 0.12523593 0.01183042
-0.02414719 0.16165435 -0.02345683
-0.00751579 0.08230519 0.00780701
0.01658149 0.07944448 -0.01500015
0.00565296 0.07871517 -0.02499572
-0.01297095 0.21864204 -0.01790790
0.00461692 0.15350603 -0.03388053
-0.02515958 0.17695567 -0.02857974
0.01660531 0.05963720 -0.01563743
-0.00013418 0.23363483 -0.01182592
-0.02782852 0.17995641 -0.02423850
-0.01756205 0.17346881 -0.01191938
0.01372371 0.18181142 0.00050996
-0.02293932 0.18165249 -0.01445670
0.02349524 0.07988222 -0.01903832
0.01461013 0.06191372 -0.01432454
-0.02080353 0.06056833 -0.02887221
-0.02231638 0.14863434 0.00181638
0.02827823 0.07423609 0.00587487
-0.01389887 0.05474772 -0.04323631
0.02600455 0.14626780 -0.02520467
0.00402503 0.07184111 -0.04368269
0.03164559 0.20547631 -0.02191832
-0.03258170 0.08362007 0.00852846
0.00057527 0.08697198 -0.03608644
-0.02410299 0.06249006 0.01401577
-0.02858837 0.15052795 -0.00239371
0.00225198 0.18023086 -0.03016976
0.00212260 0.08037455 -0.01514353
0.01331124 0.18253484 -0.03041396
-0.03054329 0.08959469 -0.02998118
-0.00779827 0.05734489 -0.03637731
0.02065458 0.16013508 0.01049247
-0.03749315 0.06217856 0.01425826
-0.02473546 0.07240782 0.02724911
0.01512673 0.06830427 -0.04084181
0.00029500 0.21744496 -0.01694530
-0.04063434 0.09079325 -0.00152566
0.02829502 0.05064124 0.00907227
-0.02702599 0.13991907 -0.02626800
0.00366974 0.20780167 0.00989337
-0.01571760 0.17518711 0.00203251
-0.01389267 0.06152013 -0.04504910
0.01349420 0.05982140 0.00094874
-0.01166471 0.12600844 0.00693648
0.00065203 0.07934044 -0.02109364
0.02181978 0.11067308 -0.02313238
-0.01667396 0.17484583 -0.01822042
0.00712986 0.22696799 -0.01328380
0.02935593 0.21839529 -0.01592706
0.03248736 0.21465050 -0.00918361
0.01541301 0.20216261 -0.00106202
-0.02817825 0.12221264 -0.01372784
-0.02634188 0.11907028 0.00091799
-0.02007331 0.18051651 -0.02731810
-0.01109323 0.24220860 -0.01858665
0.01285334 0.13488568 -0.03515640
-0.01954355 0.11647139 -0.02692153
-0.02994535 0.11571443 -0.02082202
0.01802115 0.14510265 0.01109340
0.02398495 0.18939097 -0.00721178
-0.00265892 0.07032032 -0.04539812
-0.02180347 0.12059885 -0.02149856
0.02930473 0.13692011 -0.00763466
0.03128627 0.24111009 -0.01993853
0.01305091 0.13571611 0.00974099
0.00083325 0.18364200 -0.03087908
-0.03248931 0.05592037 0.00325486
-0.01834593 0.16485010 -0.01795318
-0.01906474 0.18766141 -0.02525357
-0.03507973 0.05067033 0.01005981
-0.00846291 0.19646408 0.00975391
0.02510208 0.14024220 -0.02560141
0.00637613 0.09514128 -0.00609244
-0.03024764 0.17030136 -0.02246344
-0.02890748 0.10447408 -0.00163510
0.03364691 0.16054171 -0.01091511
0.02909303 0.16653940 -0.02720822
-0.02690253 0.14092731 0.00113452
0.02140691 0.19910416 -0.00666123
0.02855195 0.24037980 -0.01336594
-0.00529887 0.14960565 -0.03297507
0.02233839 0.09363817 -0.03133619
0.01059284 0.19332400 -0.03219326
-0.02690668 0.06240216 0.00937199
0.01299379 0.18705259 0.00015204
0.02451909 0.18259971 -0.00721003
0.02670894 0.06174441 -0.02854395
-0.02947344 0.18895216 -0.01585679
-0.02906489 0.10170269 -0.03174999
-0.01371446 0.20232832 0.00708950
0.01774259 0.06761286 0.02824927
-0.00291887 0.07878775 0.01127320
0.02337221 0.16886368 -0.01967239
-0.02895023 0.05593008 -0.03195632
0.01148131 0.09735513 -0.01628034
-0.01509741 0.08819267 -0.02978094
-0.03331498 0.10500925 -0.01140677
-0.02661562 0.07764092 -0.00953174
-0.03051832 0.14632848 -0.01081447
0.03472239 0.15168217 -0.00982496
-0.01123964 0.15663177 0.01995164
-0.02000381 0.14303617 0.00485149
-0.01651460 0.12921223 0.01005265
-0.01020281 0.16507527 0.01733923
0.00645957 0.11884242 0.00798591
0.02326666 0.12513207 -0.02291276
-0.02516370 0.14880386 0.00317177
0.02319368 0.16973026 -0.01266028
0.03452635 0.20032820 -0.00916737
-0.02813164 0.07578479 0.02377247
-0.01431995 0.24601980 -0.01052805
-0.02849185 0.09342780 -0.02386246
-0.00632030 0.20161872 -0.03162218
0.00301327 0.05976546 0.00913571
0.03631332 0.23710872 -0.01925009
-0.03209409 0.09276937 -0.01694792
-0.02475717 0.12458384 0.00344243
-0.02211981 0.07339896 -0.03689278
-0.03359074 0.05764098 -0.01567302
-0.01376618 0.08242121 -0.01786313
0.00106514 0.06242593 0.00919637
-0.01661762 0.08495341 -0.00461728
-0.00523063 0.10752367 -0.03464899
0.03385485 0.14984529 -0.00872062
0.02994234 0.15800874 -0.00124680
0.03054687 0.07626197 -0.01724706
-0.00693887 0.14592795 -0.03521892
0.02399490 0.11948541 -0.00849470
0.00897297 0.22211774 -0.00994850
-0.01732445 0.08035600 -0.01667847
-0.02133363 0.20064960 -0.02995554
0.02388528 0.20853505 -0.00989938
0.01846405 0.12876704 -0.02901169
0.00152416 0.22405770 0.00249972
-0.02828727 0.11993650 -0.00914255
0.02464853 0.05123569 -0.00852895
-0.00511761 0.21959196 -0.00604699
-0.00060677 0.16959876 0.01627195
0.02877215 0.07827011 -0.01431017
-0.02508887 0.20639595 -0.03168581
-0.00617359 0.24245524 -0.01475886
0.00090991 0.12360417 0.00218919
0.00988904 0.12571523 0.00594333
0.01018079 0.09646259 0.00041955
0.01028222 0.19974990 0.00498759
-0.00049629 0.06094441 0.00333676
-0.00292636 0.07807028 -0.00826005
0.02970803 0.07636566 -0.00911004
-0.01331474 0.06183990 0.02019822
-0.01993709 0.05498759 0.02314464
0.00379841 0.19299161 -0.03390823
-0.01056880 0.13922517 0.01469919
-0.01034537 0.18597300 -0.00037949
0.00245748 0.16981417 0.02069859
0.00150459 0.09569837 -0.00271340
0.02681384 0.07863721 -0.01869265
-0.01513464 0.17489696 -0.00100898
0.02534323 0.13892432 0.00406228
0.02857920 0.17538622 -0.00314887
0.00608729 0.05632859 -0.03469717
-0.02023560 0.21673873 -0.01009970
-0.03538144 0.11721021 -0.02299333
-0.00011886 0.08214032 -0.02313027
0.00939135 0.06147569 -0.01063333
-0.04262792 0.07264456 -0.01644715
-0.03033888 0.11492297 -0.01248148
0.00064965 0.15215206 0.02214060
0.00183626 0.09131232 -0.03108876
0.02055440 0.13337289 -0.00433333
-0.02032626 0.24205023 -0.01395806
-0.02275176 0.12133063 -0.02329516
0.01258444 0.21800424 -0.01507087
0.03059520 0.07171529 -0.02457546
0.01353154 0.06135502 -0.00056598
0.01673480 0.08738691 -0.01437245
0.03505215 0.23545960 -0.01784236
-0.02852535 0.18993455 -0.02382116
0.03223182 0.19300848 -0.02606027
-0.02179631 0.07828090 -0.03380512
0.02517551 0.18083259 -0.00737166
-0.02066997 0.18160902 -0.01297793
0.00580066 0.17246020 0.00995856
-0.00671983 0.11513056 -0.03481686
-0.02420597 0.16135125 -0.01473197
-0.02613278 0.20832765 -0.02459786
0.00001038 0.12009999 0.00474789
0.00170047 0.06033594 -0.02616412
0.00940260 0.05925231 0.03143566
-0.02851866 0.12245239 -0.01093811
-0.00766412 0.19018187 -0.00110391
0.02170557 0.09339233 -0.02590822
-0.01182198 0.16496190 -0.02712153
-0.03036837 0.07884617 -0.00696408
0.02881137 0.20596436 -0.03138701
-0.02141713 0.14459775 0.00750129
0.00399357 0.07909605 -0.02794371
0.01884844 0.15420038 -0.02453431
0.01456666 0.10545312 -0.00605633
-0.02714976 0.16758417 -0.01852987
0.02229485 0.17398095 -0.01986263
-0.02798432 0.05692812 -0.02499738
-0.00308720 0.06159271 -0.01250268
0.02276794 0.16983195 -0.02526723
0.01535062 0.24390393 -0.02378454
-0.00474732 0.14214930 -0.03533312
0.02475295 0.13281301 -0.00128690
0.02056074 0.12217746 0.00015830
0.00210987 0.06183852 0.01048285
-0.00170121 0.17310163 0.01273542
-0.01847075 0.08089303 0.00448917
-0.02362149 0.12733440 0.00410399
0.00192483 0.24774012 -0.01347711
-0.03157666 0.14493923 -0.00354087
0.00761469 0.22370622 -0.00210469
0.01093927 0.20070469 0.00339241
-0.00918852 0.21166511 -0.00232997
-0.02787169 0.08690630 -0.01821932
0.02197128 0.24458624 -0.01602663
-0.00484375 0.21676809 -0.01208460
0.00068988 0.07631475 -0.03247025
0.02614157 0.14512609 -0.02583057
0.01609534 0.21426387 -0.01548963
0.02032038 0.13183379 -0.00376609
0.01469238 0.05850264 0.02762851
-0.02642533 0.13053644 -0.00486519
0.00613120 0.22938073 -0.01728629
-0.02327112 0.24011272 -0.02417028
-0.02474060 0.15483858 -0.00583697
-0.01275654 0.17419630 0.00956841
0.03275721 0.07026896 -0.00184328
-0.01668992 0.16774543 -0.01554446
-0.00924977 0.07846829 0.01437750
0.01816633 0.24299455 -0.02135390
0.03255505 0.06688767 0.01163304
-0.03395422 0.08324524 0.00842019
-0.02426897 0.18533559 -0.02528611
-0.01189823 0.06095330 -0.00919144
0.01726616 0.08011301 -0.03486092
-0.02229876 0.23395717 -0.02053886
0.02948545 0.13548958 -0.00862722
-0.01247496 0.06175411 0.01950450
-0.01606707 0.24494810 -0.01907159
0.02479761 0.08010848 -0.01345031
0.00304744 0.12776038 0.00602609
0.02623473 0.23434579 -0.01939456
-0.02234896 0.11260109 -0.02740669
-0.02852911 0.08001043 -0.02441894
-0.02841024 0.08125596 -0.03125168
-0.00490869 0.20766562 -0.03003108
0.02153642 0.13117687 -0.02862569
-0.02555572 0.20269486 -0.03185227
-0.03238491 0.14595796 -0.01300138
-0.01102897 0.14449550 0.01443876
0.00821556 0.09240657 -0.02293541
-0.00711826 0.06234433 0.00282626
-0.03042864 0.07819454 -0.00290778
0.01007702 0.24177757 -0.02501993
0.00657264 0.14294533 0.01573998
-0.02501451 0.20401703 -0.01264283
0.03206515 0.14645682 -0.01270879
-0.03316469 0.09772848 -0.00280546
0.02129231 0.13171160 -0.00123340
-0.01147280 0.09166506 -0.01180997
-0.03510846 0.06000116 -0.03041486
0.00836769 0.12751605 0.00661284
-0.01533371 0.10212575 0.00139314
-0.02158878 0.22696570 -0.01759276
-0.00808961 0.12620768 0.00833493
0.01920316 0.16768703 0.00501378
0.00156290 0.06241208 0.00147462
-0.01283571 0.07987995 -0.00971401
0.01956671 0.18962692 -0.02918821
-0.02921832 0.17569843 -0.01956104
-0.01986957 0.08029575 -0.03441645
-0.02035966 0.13767254 0.00788338
0.01352548 0.21185990 -0.02853266
-0.02699356 0.17893352 -0.02366450
0.03181085 0.24456005 -0.01606302
0.01341854 0.07510412 0.02418605
-0.01073061 0.08158389 -0.01563446
-0.01859496 0.15796801 -0.02711700
0.01201502 0.09628400 -0.01386395
0.01449180 0.07958157 0.01430105
0.03055732 0.18602473 -0.00663621
-0.00718386 0.15053424 0.02004080
0.00940654 0.11205828 0.00073983
-0.00714750 0.07869092 -0.03025969
0.02049058 0.05942106 0.00394277
-0.00594721 0.08076798 -0.03510210
-0.00946149 0.21040785 -0.00080519
0.02475795 0.05326631 0.00278887
-0.00534796 0.20422532 -0.03055294
-0.00424096 0.14466442 0.01721201
-0.01739762 0.08615962 -0.01378651
0.01320560 0.17776364 -0.02923512
0.02324217 0.07481448 -0.02837859
-0.00506922 0.06108934 -0.01429981
-0.02981104 0.05638348 0.02077711
-0.04091120 0.08973573 -0.00880693
0.01988360 0.16875541 0.00414695
0.01182861 0.16605203 0.01324212
0.02822498 0.05568088 -0.00894798
-0.01022825 0.14240386 -0.03321344
0.02394440 0.09880455 -0.02578816
-0.00803039 0.17511694 0.01263160
-0.01001930 0.18933330 0.00520601
0.00507245 0.11668460 0.00415754
-0.01469694 0.08000530 0.01372000
-0.02053224 0.07064323 -0.04206476
0.01361607 0.08478274 -0.00553780
0.00569542 0.15801966 -0.03010389
0.02660416 0.06003154 -0.02902136
0.03468563 0.07043505 -0.00349720
0.00403779 0.09438751 -0.00831128
-0.02375579 0.17297195 -0.01791404
0.00158453 0.13132401 -0.03512670
-0.01672173 0.11933474 0.00214009
-0.01138788 0.19888090 -0.00458930
-0.01158915 0.08020982 0.02835128
-0.01052621 0.13926217 -0.03094450
0.02180023 0.10766339 -0.02425721
0.01467576 0.05913000 0.01384971
0.02841069 0.17645878 -0.02533209
0.02170247 0.24035445 -0.02252241
0.00533713 0.12910667 -0.03523814
0.00164833 0.20590380 -0.02565913
-0.03157723 0.06171779 0.00126209
-0.00849675 0.11953656 -0.03430391
0.03086258 0.23604983 -0.03037699
-0.00735774 0.09210484 -0.01657828
-0.02559239 0.20795798 -0.02469622
-0.00785747 0.11623899 0.00712755
-0.03099246 0.07987162 -0.02279088
-0.01681443 0.13841705 0.00793518
0.02154242 0.10230549 -0.02620617
0.02731647 0.19604185 -0.00737541
-0.01097818 0.20595753 -0.03194104
0.00738407 0.13221473 0.00760683
-0.01418898 0.07348331 0.02813698
-0.01969035 0.06575954 -0.04559086
-0.02058375 0.14953792 0.00560491
-0.01701916 0.11297695 0.00393960
-0.03727803 0.08746375 -0.01959600
0.00367637 0.13021274 0.00924177
0.02727550 0.17378747 -0.01959280
0.00336639 0.17240313 0.01360540
0.01323156 0.19496374 -0.00359812
-0.00228526 0.06144132 0.03364059
0.03136069 0.14373739 -0.01848627
0.02777833 0.14040533 -0.01099747
-0.01365501 0.05901519 0.02280291
-0.02373584 0.12850949 -0.02235171
0.02788319 0.17216468 -0.02533538
0.02535866 0.16425763 -0.01991677
-0.04531224 0.06863534 -0.00549419
-0.00174925 0.09018335 -0.01040337
-0.02378911 0.11503553 0.00180595
0.01422440 0.05985872 0.00305211
-0.02808641 0.13519342 0.00386360
-0.00164627 0.06067246 -0.00257685
-0.02588631 0.06562012 -0.04106870
-0.01974311 0.18131122 -0.00489077
-0.00639828 0.10995004 0.00539238
-0.01046019 0.06371988 0.01377972
0.03382261 0.20133334 -0.01001140
-0.04455903 0.06593425 0.00388953
-0.03588634 0.11726327 -0.01653106
0.02501407 0.14773765 0.00750037
-0.02403465 0.08657478 -0.00937639
0.00901684 0.16031256 0.02105657
0.02512217 0.12276958 -0.01532479
-0.01458992 0.08726913 -0.00601033
0.00303065 0.08289433 -0.01539635
0.01714106 0.20502405 -0.00044544
-0.01232142 0.06663542 0.03442089
-0.03452463 0.13650827 -0.01762536
-0.02972867 0.23754740 -0.02049390
-0.03037256 0.13129377 -0.02171029
-0.02833502 0.18223846 -0.01870847
-0.00691495 0.24142727 -0.02060596
0.01584895 0.21298715 -0.02577283
0.01265420 0.08030647 0.00862277
-0.00324654 0.12196466 -0.03597798
-0.03377774 0.11798296 -0.02624778
0.00639793 0.12803599 0.01164092
0.00081578 0.10694639 0.00254158
-0.01019811 0.21341506 -0.02870736
-0.01511841 0.21867086 -0.03162873
-0.01709050 0.10822439 -0.03338969
0.01222684 0.12886654 0.00727032
0.02091508 0.08157548 0.01674652
-0.02679555 0.18810746 -0.02352576
-0.00338296 0.17113079 0.01891421
-0.03281084 0.13811417 -0.00286024
-0.02739206 0.13690715 -0.01861005
-0.03095648 0.07176454 0.01924955
-0.02076957 0.12333681 0.00001659
-0.00634207 0.06334565 -0.00525236
0.01542575 0.18227474 -0.02767694
-0.00920268 0.08922894 -0.01310390
0.03366185 0.05969750 -0.00268739
0.00824230 0.16816846 0.01482241
0.00580410 0.15715662 0.02123980
0.02417476 0.11299844 -0.01310345
0.01884614 0.20485573 -0.00536263
-0.02954165 0.11475630 -0.00769916
0.00874942 0.10433519 0.00389220
-0.02884300 0.10801649 -0.03127586
0.00205087 0.11356977 0.00922658
-0.00673851 0.13790172 0.01297530
-0.00480296 0.09098828 -0.02597793
-0.02759581 0.12209209 -0.00702767
0.03245334 0.22623745 -0.01861219
-0.03617310 0.11042189 -0.01410346
-0.01761962 0.06675968 0.03416855
-0.02036933 0.14544857 0.00302375
0.01533243 0.09518768 -0.02736456
0.02398418 0.17050846 -0.00912745
0.00146168 0.12498877 0.00538135
-0.03979571 0.05199423 0.01557318
-0.00280100 0.06048701 -0.02215531
-0.01490884 0.06168042 -0.00257996
-0.02156892 0.06156313 -0.00765963
-0.01611443 0.12186805 0.01000746
-0.01355627 0.24095130 -0.01420211
-0.01399696 0.05996889 -0.00033776
0.02229712 0.13085496 -0.00705695
0.00789648 0.11561097 0.00667069
0.00456168 0.19249445 -0.03330391
0.01012518 0.11424817 -0.03159746
0.01537874 0.09711982 -0.02186490
0.00017252 0.20171198 0.01022358
-0.01597456 0.11623146 -0.02807160
0.02496991 0.17958684 -0.02354622
0.02825103 0.24172983 -0.02725892
-0.01329665 0.10440280 0.00167676
-0.00562612 0.24429443 -0.01182528
0.01807445 0.06184773 -0.03849913
0.03082542 0.19462143 -0.02923811
0.02592220 0.15739566 -0.01944226
-0.01567986 0.09534752 -0.00179656
0.02700504 0.16726919 -0.02647572
-0.01217121 0.20737919 -0.00508659
-0.00359621 0.19116682 -0.03027737
-0.01725383 0.15615331 -0.02609481
-0.02192829 0.16061035 -0.02184526
0.00397304 0.22294067 0.00079175
0.03145254 0.16505560 -0.00251494
-0.00802449 0.05285321 -0.03475538
-0.02864799 0.21454641 -0.01976660
0.03028245 0.05606986 0.00909005
0.03094176 0.05432535 0.01034074
-0.03097672 0.07816340 0.01820657
0.00994121 0.07446384 0.02779395
-0.00876933 0.06186367 0.01938906
0.02645448 0.14591552 0.00511601
0.01532110 0.06014827 0.02519856
0.01903029 0.11389539 -0.02607746
-0.01216357 0.20315759 -0.03094688
0.00224350 0.21904495 -0.01898937
-0.00967016 0.12641072 -0.03444440
-0.02427280 0.06442881 -0.04190088
0.02716382 0.13145259 -0.01420452
-0.02470696 0.15838267 -0.00908634
-0.01740089 0.18334940 -0.02301142
0.01930355 0.05942449 -0.03682309
-0.00119255 0.09355597 -0.00506013
-0.02124028 0.17882711 -0.01945324
0.00747779 0.11225112 0.00607285
-0.02794095 0.16943893 -0.02179804
0.00965908 0.10229844 -0.00233114
-0.03791358 0.07460185 0.00431417
-0.02408674 0.14317068 0.00029493
-0.01303674 0.22271520 -0.02758502
-0.02266092 0.18053068 -0.02806955
0.03328788 0.19559996 -0.01233192
-0.02354032 0.20681477 -0.01563548
-0.01272934 0.06310772 -0.03343128
0.02211725 0.05571988 -0.02158870
-0.02974287 0.08047776 -0.02845584
-0.00477720 0.07827131 -0.00391411
0.01430293 0.09633058 -0.00898735
0.00154972 0.06280790 -0.01209308
-0.01810651 0.11745945 -0.00165289
0.03206513 0.17268990 -0.00030100
-0.01992187 0.23894712 -0.01531405
-0.02265076 0.05468026 -0.03721679
-0.02893820 0.12901869 -0.02046539
0.02812030 0.07103964 -0.02681401
-0.00235359 0.17179528 -0.02912759
0.00704073 0.20814413 0.00898741
0.02371912 0.06993552 0.02232067
-0.02918168 0.10102697 -0.01602553
-0.03288648 0.05455945 0.00824463
-0.00390884 0.07659846 -0.04345755
0.02894746 0.19123161 -0.00960960
0.01678898 0.09161641 -0.03068720
0.00924819 0.17135599 0.01637783
0.00617278 0.21653923 -0.02154819
0.02718136 0.07050497 0.01664302
0.01173431 0.06032068 0.02838832
0.02857793 0.23465118 -0.02869914
0.03064358 0.05522308 -0.00726312
0.01783774 0.24204038 -0.01615475
-0.01209409 0.09585960 -0.00514975
0.01698554 0.08100669 0.01977280
0.03201626 0.18058738 -0.02749010
-0.01144752 0.07986265 0.01490168
0.01603840 0.09591927 -0.02584334
0.00803761 0.22176617 0.00601304
0.02686595 0.24306566 -0.02146726
0.02413248 0.07909255 0.00573950
0.02610427 0.17631486 -0.01009027
-0.00224925 0.07951481 -0.03202591
-0.02063775 0.09115577 -0.03260384
-0.01741510 0.05107225 -0.03676679
-0.00791308 0.19367811 0.00928835
0.03408302 0.20403972 -0.02536892
0.00975896 0.05744396 0.01553794
0.02948350 0.07012718 0.00741164
0.00646211 0.11775874 -0.03574711
-0.00481381 0.06801015 -0.04684193
0.00169471 0.18327245 -0.03112259
0.01434877 0.17781293 -0.02847234
0.01190891 0.07959890 -0.01889672
-0.01796402 0.15239368 0.01462015
-0.03299608 0.08605496 -0.01070031
-0.01134430 0.09648092 0.00064781
0.03234133 0.04941164 -0.00035441
-0.03134841 0.10524039 -0.00110866
-0.02304788 0.07857393 0.02348878
0.00563593 0.07819104 0.00350936
-0.01761733 0.18503335 -0.00453979
0.00601121 0.21662308 0.00889915
0.03164265 0.22026706 -0.01535945
-0.02555329 0.16981144 -0.02285835
0.00429250 0.12788637 0.01221856
-0.00076976 0.07991698 0.01677947
-0.02290135 0.07972599 -0.03275992
-0.00474046 0.06249780 0.03315154
-0.02133444 0.05826162 -0.04101402
-0.01613097 0.09828105 -0.03214715
0.02792152 0.13033462 -0.01016327
-0.03107025 0.10020977 -0.02150767
0.00380364 0.05963667 -0.02001698
-0.00151630 0.13686241 0.01848546
0.01752728 0.13529623 0.00524382
0.01487452 0.24500632 -0.02143000
0.03411160 0.16894695 -0.01326461
-0.00829433 0.06079774 0.03602252
-0.01617012 0.21324709 -0.02950499
-0.02398722 0.22276902 -0.02928962
0.02243528 0.07583299 -0.03050032
0.02478358 0.07842666 0.01602509
0.03347659 0.21964236 -0.02598559
0.02626167 0.06766804 0.01960198
-0.00430035 0.08216833 -0.02551013
-0.02673341 0.06014776 -0.03631163
-0.03031840 0.08060485 0.01783240
0.01019492 0.09956095 -0.01092533
0.02673816 0.06791648 -0.03080975
0.02390750 0.18360081 -0.02742846
0.02140011 0.07734770 -0.01874837
0.01812566 0.05871459 -0.03693913
0.00797733 0.06154243 0.01117512
0.02937769 0.17800702 -0.01225064
-0.04249533 0.05254405 0.00891670
0.00636292 0.17605987 -0.03100109
-0.01245086 0.17864157 0.00695536
-0.02071427 0.06767613 -0.04285035
-0.02282957 0.06221175 0.01747313
-0.02995175 0.13468212 -0.02234328
0.00375206 0.17576705 -0.02987455
-0.02249754 0.18582773 -0.03071116
0.01416777 0.10789524 -0.00465257
-0.04478370 0.06316750 0.00054917
-0.02989233 0.10946426 -0.00452077
0.00324949 0.05536187 0.02503760
-0.03909581 0.05920634 -0.01362000
0.02879118 0.19394913 -0.00779714
0.03163200 0.16866392 -0.01019296
-0.01520888 0.07849490 0.02898742
-0.01462713 0.06968687 -0.04656509
0.03045966 0.19512871 -0.00664574
-0.02864249 0.23354664 -0.02873607
-0.02048345 0.05799331 0.02738100
0.02253210 0.09740113 -0.02119925
-0.04655456 0.06945451 -0.01544259
0.01506154 0.10156116 -0.02783813
-0.00361434 0.08994737 -0.02824087
-0.02242210 0.15553184 0.00907123
-0.03101624 0.08155593 0.01225355
-0.02772842 0.22708595 -0.02923745
0.02636186 0.18379869 -0.00809072
-0.00776656 0.09677187 0.00461341
-0.01646060 0.06187344 0.03000628
-0.03537290 0.07893750 -0.00090307
-0.02095886 0.09171984 -0.00329514
-0.03416359 0.07797616 -0.02781283
-0.02644194 0.14202215 -0.02667883
0.00718907 0.12522790 0.00576975
-0.00531109 0.11972904 -0.03380435
-0.03675214 0.05646329 -0.01566883
0.00836633 0.13820510 -0.03662854
-0.00877379 0.24452062 -0.01968984
0.00882601 0.10533260 -0.03055820
0.03409904 0.07037801 -0.00938344
0.03075064 0.18408559 -0.02319782
-0.00076744 0.07908370 0.00150230
-0.02757846 0.06248972 -0.03944170
0.00232197 0.17005429 0.01763777
0.02720766 0.20103154 -0.00741284
-0.00932582 0.15959126 0.01973934
-0.00895903 0.21203110 -0.01574798
-0.03360917 0.15424447 -0.01918912
0.01680825 0.05663755 -0.03229623
0.00838479 0.14956731 -0.03554939
0.02128243 0.24185771 -0.02510552
0.02235403 0.08057863 0.01735545
-0.03394017 0.08771843 -0.01126918
0.02901829 0.18454437 -0.00495564
-0.03575590 0.05287743 0.01751156
-0.01912880 0.16311342 -0.00582622
0.01099091 0.16264214 0.01810746
0.02937560 0.07908278 -0.00670383
0.02648121 0.19444880 -0.00780882
0.02604671 0.24068132 -0.02285347
-0.03991813 0.07906668 -0.01406051
0.00217419 0.11939482 -0.03420401
-0.01010479 0.24785784 -0.01593012
-0.01978200 0.21655554 -0.01209540
-0.00820656 0.15147877 0.02058121
0.02564877 0.13873866 0.00375078
0.00883709 0.10796696 -0.03178756
0.00847466 0.13283411 0.01334207
-0.03039233 0.14552246 -0.01971108
0.02493654 0.09486140 -0.02262967
0.01834690 0.17316306 0.00601851
0.03418860 0.06628250 -0.00409686
-0.01616222 0.06206198 0.02990059
-0.03379902 0.13989183 -0.00896147
0.01929781 0.16905360 0.00746535
-0.04053984 0.08810565 -0.00924866
-0.01459798 0.09957843 -0.00103773
0.00234316 0.10677347 -0.03249331
0.00864193 0.09738281 -0.00129027
0.01452687 0.10932290 -0.00227353
-0.02731342 0.13031361 -0.01705984
-0.01572560 0.17367679 0.00512097
0.01245685 0.09698009 -0.02656107
0.02767359 0.17095061 -0.02557119
-0.03486583 0.05974232 -0.00668309
-0.02867250 0.19370981 -0.02802489
-0.03199662 0.11855140 -0.01681683
-0.00792082 0.13807425 -0.03510571
0.00948407 0.11394934 -0.00057888
-0.01259451 0.05574623 -0.04479788
0.01150162 0.14810045 0.01649481
-0.01663573 0.14416476 -0.03077314
0.02768258 0.18523553 -0.00468277
0.01353988 0.11220224 -0.00664133
-0.00369102 0.13347064 0.01096158
-0.01153735 0.24711511 -0.02003676
0.03179920 0.17962782 -0.02247867
0.00788084 0.20979415 -0.02254810
0.00265335 0.05906082 0.02034040
0.00475219 0.17980094 0.00855625
-0.03331993 0.14441058 -0.02066455
0.02783633 0.05154932 -0.00363101
-0.02585156 0.08624450 -0.00731607
-0.01380750 0.06028087 0.00510047
0.00898640 0.06141216 -0.00646300
0.01028990 0.21898896 0.00751812
-0.03070577 0.12517668 -0.02203651
-0.00918220 0.06111371 -0.01989871
-0.00580540 0.06140620 -0.00559241
0.02218854 0.13188490 0.00301150
0.01703676 0.07438317 -0.03480068
-0.02178998 0.14917512 0.00045749
0.00698257 0.14887884 -0.03390158
-0.02217049 0.07856175 -0.02988868
-0.03325705 0.08299863 0.01220434
-0.00234522 0.06057227 -0.00589655
-0.01420238 0.08672953 -0.01581691
0.00976841 0.15788934 -0.03200059
0.03273514 0.19018671 -0.00949335
0.01994407 0.11902435 -0.00671307
-0.00786779 0.20012800 0.00890147
-0.02447956 0.16036740 -0.00885635
-0.01946830 0.09008197 -0.01251340
0.00542651 0.19868624 -0.03305790
0.00749935 0.07924680 0.02220162
0.01796630 0.14951777 -0.02888279
0.00993903 0.20654914 -0.02353732
-0.02428456 0.10180639 -0.00407671
-0.00215799 0.06205593 0.00958678
0.03472518 0.18664876 -0.01097638
0.01713942 0.06341915 0.00425839
-0.03921053 0.07782255 0.00892806
-0.03185812 0.05808128 -0.02899281
0.01132910 0.22167212 -0.00612624
-0.01949606 0.07500955 0.02700676
-0.03398114 0.07879089 -0.01322334
0.00235489 0.06010528 -0.00718537
0.00904793 0.06010189 0.01482786
0.00064071 0.18540603 -0.03166275
0.01264488 0.11785628 -0.02976217
0.01888150 0.18433084 -0.00250429
-0.02937486 0.07858527 -0.01846189
-0.00840515 0.17672540 0.00897150
-0.01396808 0.17648488 0.00729613
0.03177586 0.17318463 -0.02748490
-0.02809271 0.13665548 -0.00780388
0.00600212 0.10876163 0.00324319
-0.00460021 0.17907894 -0.02779154
-0.02979744 0.14122897 -0.00436102
0.00528386 0.11469275 0.00978165
-0.00497628 0.18106863 -0.02713596
-0.02804561 0.21836969 -0.01700703
0.01145707 0.05774330 0.01858771
-0.01924207 0.17401293 -0.00982442
-0.03263663 0.12812592 -0.00487423
0.00528137 0.20254403 -0.02920702
0.02739767 0.05276068 -0.00181222
0.03555611 0.18575108 -0.00163265
-0.02126940 0.19451410 -0.03099264
-0.01309070 0.13117938 -0.03237010
-0.00025061 0.05998006 -0.03435983
0.03051621 0.10067548 -0.01671301
-0.02911392 0.18477523 -0.02073404
-0.02910258 0.07889862 -0.01157498
-0.00044010 0.05935396 0.03070267
-0.03022206 0.10431101 -0.02337762
-0.01876610 0.07919832 0.02114007
-0.01249699 0.07058648 0.03189114
0.00595463 0.07855643 0.01013446
-0.02343721 0.16517445 -0.02408370
0.01722689 0.16143216 0.01442844
0.00977479 0.09357066 -0.01129568
-0.03236618 0.11550920 -0.02753806
0.02489576 0.15709765 -0.02659740
-0.02745807 0.14299360 -0.00484802
-0.00761960 0.07981243 0.02880856
-0.02552406 0.06089471 0.01146611
0.02871718 0.17860498 -0.02956504
-0.00208123 0.09331340 -0.00859640
0.00773582 0.18115622 -0.03108513
0.01191753 0.09221604 -0.02889405
-0.04412584 0.06610136 -0.00913959
0.03144616 0.05366711 -0.01004003
-0.01342587 0.09297806 -0.00558801
0.00502944 0.12229826 0.00868399
-0.00647861 0.24234504 -0.02401257
0.00661102 0.05975471 0.00101930
-0.00017084 0.07276025 0.02997188
-0.03344917 0.08641711 -0.01810191
0.02717279 0.13062778 -0.01236408
0.01195213 0.08095892 0.00321216
0.03196371 0.21068567 -0.02316096
-0.01745084 0.19644494 -0.02795061
0.01771973 0.06268952 -0.00513469
-0.03906278 0.06893859 0.01458764
-0.01346883 0.05019198 -0.03855299
0.01867957 0.07300059 0.01980022
-0.00025942 0.09456630 -0.03462517
0.02509318 0.17791794 -0.01849644
0.03416445 0.23381945 -0.02265299
-0.02657766 0.18907329 -0.02555526
0.00003990 0.14684939 0.01753480
-0.04193028 0.05847093 0.00306792
0.03074781 0.07444923 -0.00891792
0.02934981 0.07547571 -0.00189572
0.01123639 0.24136510 -0.02202787
-0.00693806 0.18716662 -0.00151211
0.02958139 0.05842035 0.01458906
-0.01204493 0.19702090 -0.00466388
-0.01826038 0.21730793 -0.03248519
0.01576621 0.13100664 -0.02968900
-0.00574961 0.10733587 0.00408160
0.00138249 0.14640689 -0.03762516
0.02973180 0.17802912 -0.02766627
-0.03975394 0.07189195 -0.02240563
-0.00860544 0.09095033 -0.03197053
-0.00587080 0.09549569 0.00313601
-0.02148414 0.05273838 -0.03587569
0.02747216 0.18310617 -0.00339930
0.02371221 0.08084156 0.00707052
-0.02304161 0.21453461 -0.03076874
0.02622784 0.13726483 -0.02513760
0.00431101 0.09161728 -0.01423352
0.03442947 0.23842855 -0.02210653
-0.00067593 0.07861508 -0.01878399
0.00596576 0.22707239 -0.01795569
0.01284947 0.13461345 -0.03519078
0.03163694 0.15676731 -0.01120382
-0.00155991 0.13907957 -0.03773697
0.01340449 0.06183418 0.01353883
0.00983488 0.21803981 0.01062151
0.00116934 0.06107113 -0.04482957
0.00967971 0.10780013 -0.03004245
0.00689169 0.13360265 0.01260625
0.02124655 0.20666210 -0.00923224
0.01624542 0.16912618 0.01229256
0.03048956 0.16635793 -0.00365565
-0.01173823 0.18113169 0.00446280
0.00006801 0.23474662 -0.01599675
0.00448143 0.24076124 -0.00855076
0.00257238 0.06034309 -0.04289992
-0.00263931 0.06171955 0.01055067
-0.00172749 0.07807819 -0.02424219
0.02363676 0.09645896 -0.02364993
0.00673233 0.18189076 -0.03090418
0.02936690 0.17560242 -0.01015200
0.01209328 0.11781159 -0.03177441
-0.02796543 0.22329640 -0.02171795
0.01240698 0.09667049 -0.02905625
0.00082394 0.18258780 -0.03069952
0.00444679 0.06162715 -0.00368188
-0.02386368 0.06045967 -0.04346632
0.02065038 0.05334979 0.01137227
0.03167449 0.16100869 -0.02596747
0.02915949 0.19427001 -0.00670621
0.00830641 0.13731115 0.01787890
0.03083068 0.17381558 -0.02589306
-0.00577833 0.20983370 -0.01003445
-0.01651069 0.07755276 0.02844573
-0.04188576 0.06189226 -0.02389589
0.00769690 0.16541246 0.01818438
-0.01981518 0.17317303 -0.00834079
-0.00511201 0.09845550 0.00552305
0.03162430 0.16348931 -0.00340604
-0.02822915 0.07792466 -0.03313530
-0.02194976 0.08667263 -0.03335879
-0.02867750 0.19264618 -0.02431022
-0.02075021 0.24441390 -0.01554930
-0.00534915 0.09416632 0.00478983
-0.00667414 0.17138472 -0.02688345
0.03172053 0.15333730 0.00100651
0.03172867 0.22740243 -0.00914481
0.02611419 0.24215937 -0.01639960
0.03094659 0.21807554 -0.01485429
0.03193246 0.07728516 -0.00950342
-0.02345069 0.19151185 -0.02892916
-0.00300919 0.24009609 -0.02681763
0.02643564 0.07877796 -0.01500366
0.03376649 0.20896414 -0.02475549
-0.00687292 0.19223073 0.00391009
0.02180301 0.15172398 0.01070234
0.03110828 0.19796418 -0.02188508
0.01631813 0.07968402 -0.01976871
-0.00241531 0.20865905 0.01147649
0.01280840 0.09821939 -0.02893978
0.00606897 0.13455430 0.01452138
0.01601524 0.24197091 -0.01772304
-0.02207481 0.23701587 -0.02207942
0.01702962 0.21849793 -0.00811760
-0.03418197 0.11813503 -0.02306887
0.01604320 0.16106434 0.01360659
0.02732303 0.14353749 0.00098990
0.01627526 0.24322861 -0.01345668
0.00575624 0.13415560 0.01480240
0.02459265 0.07771344 0.01877823
-0.02568328 0.05966158 -0.00734464
0.03272706 0.20102963 -0.01711231
-0.02507595 0.07896793 -0.03417260
0.03249567 0.24052103 -0.02492235
-0.02851253 0.13216294 -0.01421762
-0.00824265 0.06033042 -0.03107356
-0.02822427 0.15666427 -0.02028613
-0.02723476 0.23810586 -0.02884738
-0.02966783 0.15477143 -0.02475689
0.00178772 0.22234450 -0.01414125
0.02269567 0.16434781 -0.02261178
-0.01510286 0.12632619 -0.03224416
-0.02854438 0.10147662 -0.03025464
-0.01381243 0.08626379 -0.01838704
-0.01185151 0.08855388 -0.01106804
0.00916538 0.10415548 -0.00182017
-0.02908688 0.18750851 -0.02573403
-0.00611256 0.13728480 0.01621804
-0.00394460 0.20109057 0.00760883
-0.02036782 0.09029837 -0.03476248
-0.01255261 0.07932099 -0.02418399
-0.02258211 0.15766580 0.00798369
-0.00151386 0.23637794 -0.02328332
-0.00547337 0.05882634 0.02237112
-0.01476081 0.16342905 0.01448093
0.01632131 0.11260657 -0.02927128
0.02467220 0.10458630 -0.01857677
-0.01542435 0.12111043 0.00498715
0.00607065 0.08080851 0.00721601
-0.03360023 0.11812582 -0.02058335
0.01117806 0.14696863 0.02069855
0.02338868 0.23858351 -0.02345283
0.01320193 0.20580454 0.00420816
-0.00365543 0.21813595 -0.00230372
0.02096045 0.11450732 -0.02663624
-0.01210087 0.19456561 -0.02883870
0.02492693 0.05549463 0.01420268
0.02993844 0.16256693 -0.00419626
-0.00502996 0.09347651 -0.00407273
-0.03448690 0.07974955 -0.02215167
0.02764271 0.15319891 -0.02756643
-0.02447761 0.07822953 0.02187140
0.02101026 0.24306181 -0.02718942
0.01384049 0.08044416 -0.00396273
-0.00293479 0.05878154 -0.03413616
-0.01743256 0.11769413 -0.03143582
-0.01351938 0.15741244 -0.03030670
0.00409695 0.07933979 0.01292396
0.00369480 0.14815563 0.02010739
0.02444530 0.22462276 -0.02006578
-0.03122207 0.09070519 -0.00764054
0.02375757 0.07567240 0.01202846
-0.01060374 0.05607053 -0.03542893
-0.02462998 0.14246766 -0.00196596
0.02354159 0.18754610 -0.00558193
0.00414151 0.06218068 -0.02085948
0.02099514 0.22072661 -0.01688888
0.00425208 0.07784618 0.00521635
0.00550779 0.19719723 0.01007912
0.02966064 0.14715017 -0.02616351
0.01112927 0.18919636 -0.03046914
-0.01198647 0.13274898 -0.03477141
0.00959548 0.17763989 0.00890292
0.00156092 0.20448832 -0.02379630
-0.01638233 0.06167782 -0.01093637
-0.01865377 0.06958313 -0.04352133
-0.01604613 0.15349384 0.01328031
0.02729238 0.16610187 -0.02359367
0.02101772 0.05388742 0.00900032
-0.02292447 0.16173938 -0.00960324
0.00796317 0.05701897 0.02168414
0.00986668 0.14294331 -0.03640791
-0.01145270 0.11192869 0.00735150
-0.02916834 0.24022794 -0.02003130
0.02412714 0.06081133 0.01896119
-0.02806191 0.10304187 -0.00065541
0.02623433 0.12732577 -0.00823118
0.02056713 0.24168959 -0.02282385
0.01515771 0.07791828 -0.02084797
-0.01369746 0.21231303 -0.01221686
0.03457870 0.23803857 -0.01659579
0.02858383 0.17894764 -0.00455571
-0.01877515 0.07960659 -0.04003523
0.00425956 0.07977210 -0.01288990
0.00800871 0.18782714 -0.03241212
-0.03032295 0.12164590 -0.00359433
0.00433964 0.08799507 -0.03289621
-0.00818327 0.06065041 0.01765247
-0.01240324 0.12212269 0.00808607
0.03248302 0.17741011 -0.01250770
0.01176521 0.10064070 -0.00123242
-0.01349561 0.10816365 0.00314952
0.01717915 0.15556806 0.01702905
0.01302117 0.24230033 -0.01544558
0.02645902 0.12539087 -0.01547667
0.02618647 0.12402560 -0.01823179
0.02408174 0.19026226 -0.00686430
-0.02271448 0.06041300 -0.02610973
0.01928169 0.09556018 -0.02960434
-0.00916607 0.07964006 -0.00609749
0.01207363 0.07917024 0.01954309
-0.01713844 0.06110397 -0.00172612
-0.02439946 0.12255055 0.00643775
-0.00366636 0.09140375 -0.00713829
0.03107650 0.07040147 -0.02014160
-0.02135101 0.14541937 -0.02709495
0.01883379 0.13068500 0.00135900
-0.01728671 0.08731177 -0.00144996
-0.01800174 0.05937991 -0.01375024
0.00157481 0.18660319 0.00398171
-0.00853177 0.21301422 -0.00849357
-0.00611027 0.21072127 -0.02669617
-0.01568411 0.07963205 -0.02373316
-0.02627379 0.08652541 -0.02467077
-0.00122453 0.24646890 -0.01051852
-0.00272315 0.21585354 0.00780485
-0.01712576 0.06129910 0.00238256
-0.00977619 0.07940105 -0.01796224
-0.03316302 0.08186024 0.01293950
0.00377884 0.09290670 -0.03641107
-0.03316531 0.13017115 -0.00732151
-0.00605735 0.20464477 -0.03206457
-0.02237007 0.06238722 0.00758645
-0.02221128 0.17545831 -0.02013067
0.00710714 0.09637369 -0.01240061
-0.00699043 0.07680845 -0.04562153
-0.01127484 0.20881127 0.00406819
0.01373223 0.13893703 0.01504237
-0.01498206 0.05061612 -0.04292005
-0.01071313 0.08852276 -0.01511710
0.01442433 0.08856241 -0.01066264
-0.02753396 0.14936039 -0.02402684
-0.03228494 0.11451926 -0.00645714
0.03210690 0.15697469 -0.00766495
0.00301863 0.24060775 -0.02585495
0.00106863 0.23926207 -0.01203898
-0.02530975 0.14017375 0.00641033
0.02541531 0.22495826 -0.01500488
0.02961806 0.10365467 -0.01178157
-0.02571537 0.07127368 0.02708360
-0.03556054 0.05776159 -0.01814893
0.01785625 0.24488753 -0.02399646
-0.01148244 0.08266748 -0.01214486
-0.00775841 0.14833017 -0.03134169
-0.00472980 0.07898470 0.00805785
-0.03281591 0.11165975 -0.01515123
0.03199627 0.18953568 -0.01829885
0.02453141 0.06679295 0.02127051
-0.04014184 0.06362206 -0.02613315
0.02893776 0.18236777 -0.02298701
0.01982222 0.12374650 -0.00862491
-0.00800120 0.06235899 0.03292710
0.03533937 0.06553781 -0.00679911
-0.02358772 0.06182294 -0.00294794
0.03320925 0.22279954 -0.00887524
0.03595106 0.18172018 -0.01041686
-0.02797015 0.05494308 -0.02544252
0.02232176 0.08570655 -0.00092449
-0.02347624 0.06363565 -0.00270013
0.02250062 0.21636307 -0.02942744
-0.00898080 0.06198967 -0.01237412
-0.01127194 0.16846155 -0.03171005
0.00766502 0.20517728 0.01049651
0.01224031 0.11939181 -0.03098675
0.00246009 0.15631102 0.02057860
-0.02810605 0.13201743 0.00449320
0.02938024 0.20980892 -0.02655042
-0.01975438 0.14505875 -0.02906465
0.02058033 0.13180676 0.00192472
0.01813808 0.05825590 -0.03551677
0.03241742 0.15048468 -0.01962574
-0.04266800 0.06410639 -0.02348147
0.00891824 0.06260994 -0.00638241
0.01204743 0.07773562 0.00244174
-0.00654303 0.07312628 0.03075574
0.02896234 0.17738487 -0.00955307
0.00275799 0.18829142 0.00252457
-0.01240996 0.13795544 0.01121194
0.01350478 0.10790648 -0.00223245
0.00619018 0.12220377 0.00675562
-0.01588295 0.16363883 -0.02331430
-0.02167209 0.22394475 -0.02904586
-0.00467003 0.12611775 0.00791110
0.00384205 0.18508390 -0.03304258
0.00466693 0.16219386 0.02064611
-0.02197439 0.23584986 -0.01734145
0.00672027 0.06094041 -0.00583676
-0.01610382 0.22189485 -0.01521803
-0.03465969 0.07123282 0.01666901
-0.01503802 0.18599981 -0.02525999
-0.00257571 0.16145515 0.02330748
0.02969170 0.23093781 -0.02659988
-0.00949505 0.18295355 -0.02869570
-0.01786757 0.15255038 -0.02886016
-0.01244459 0.21553126 -0.01208231
-0.03694163 0.07845429 -0.01416836
-0.04302507 0.06636433 -0.02422670
-0.02705294 0.07945938 -0.00769268
0.02717892 0.15619032 -0.01868868
-0.01656768 0.06060434 -0.03110114
-0.02281373 0.12378803 0.00091641
-0.00329060 0.09207384 0.00311644
-0.01395662 0.05836917 0.02597233
0.01997359 0.07998735 -0.02923496
-0.01384676 0.07997776 -0.04045418
0.01096574 0.07857312 -0.03160349
0.02631448 0.07796794 0.01071784
0.02266517 0.05922057 -0.01288871
-0.02019409 0.08716094 -0.01124971
0.02280840 0.05989499 -0.00398917
-0.02336414 0.12274060 0.00317172
0.00557490 0.23953372 -0.01070088
0.00873828 0.20618093 -0.02336326
0.00758135 0.06013821 -0.02540425
0.02142472 0.21855673 -0.00999931
-0.03692875 0.05556498 0.00398910
-0.00631336 0.12312570 -0.03605817
0.02938786 0.06674746 0.01422232
-0.02954462 0.15776041 -0.02705081
-0.02326626 0.19476807 -0.01323117
-0.01611776 0.06163760 -0.01607872
-0.03161599 0.14587635 -0.01872609
0.01898654 0.14566015 -0.02742315
0.02493839 0.22932254 -0.01840688
-0.01307453 0.19616765 -0.02997903
0.00422180 0.20744844 -0.02300397
-0.00145047 0.09159625 -0.02483091
-0.00142147 0.05462191 -0.03612643
-0.02351618 0.17883816 -0.02750706
-0.03714224 0.07782187 0.00949007
-0.03891629 0.07218114 -0.01880929
-0.00372730 0.15665518 0.02084064
-0.02566446 0.24267331 -0.02513597
0.02011929 0.05736283 -0.02120447
-0.00851649 0.06218119 -0.00459489
-0.00702876 0.06279054 0.01287004
0.02565295 0.05126242 0.00238313
0.03005132 0.07111557 -0.01826571
-0.00753748 0.16828983 0.01662232
-0.01117692 0.06118899 -0.00678840
-0.01329869 0.11652929 0.00701335
-0.04052420 0.07133478 -0.02647890
-0.01177871 0.07953843 -0.02798933
-0.00545190 0.08085213 -0.01547586
-0.02318942 0.07783586 -0.03859372
-0.02484245 0.21027467 -0.03156798
0.01535887 0.20104140 0.00000814
0.02694801 0.18030022 -0.02992402
-0.00775892 0.15281628 -0.03245246
-0.01245780 0.05790401 0.02039982
0.01032393 0.06838780 0.03215668
-0.00858290 0.07876921 -0.00661566
0.02851609 0.16159117 -0.02297748
0.00829034 0.20947576 -0.02201379
0.00246727 0.22285339 -0.00667711
-0.01569309 0.16639058 -0.01957417
0.01790272 0.24016035 -0.01981518
-0.01154695 0.06954963 -0.04689182
-0.01421450 0.08027644 0.00619799
-0.02365107 0.20528492 -0.02984233
0.01788697 0.12529656 -0.00429258
0.02475666 0.05513545 -0.01318583
-0.01254903 0.05894569 0.03243919
0.03354499 0.19453900 -0.01776361
-0.03171641 0.11220355 -0.00560441
0.00792431 0.08040901 0.02765195
-0.00060879 0.22247641 0.00472741
-0.02711317 0.18432318 -0.01468073
-0.01326435 0.24250485 -0.01922478
0.00759070 0.08474397 -0.01367176
0.00635384 0.23585594 -0.01405494
0.01696959 0.07786848 -0.02774739
0.00730779 0.07909884 -0.00483607
0.00944320 0.11709413 0.00029315
-0.00478459 0.07993225 0.02506256
0.03132549 0.05195718 -0.00294095
-0.02820380 0.22032531 -0.02139040
-0.04324170 0.05863079 -0.00863121
-0.02292328 0.11345041 0.00423380
0.00340813 0.08030616 -0.00512243
-0.04634761 0.06539315 -0.01365365
-0.03089944 0.09425223 -0.01556391
0.00990555 0.17924009 0.00890291
0.01918781 0.14821596 -0.03019187
0.02316106 0.14507864 -0.02834736
-0.03382865 0.05918512 -0.01325700
-0.02008826 0.06200117 0.00116934
0.00055336 0.09084016 -0.03981388
-0.03144595 0.14106408 -0.00636376
0.01761267 0.15017746 0.01507157
0.01887741 0.24374345 -0.01730493
-0.00917410 0.06406882 -0.04574966
0.02329360 0.05873518 -0.03281425
0.01945908 0.07997971 -0.03004513
0.01567611 0.08323760 0.00179350
-0.00977958 0.07760980 0.02864510
0.03407452 0.22476363 -0.02556467
0.00083634 0.10247350 -0.03550714
-0.03834743 0.05676730 -0.01953372
-0.00985761 0.15007341 0.01610580
-0.03673443 0.08105371 0.00563716
0.01746844 0.22050029 -0.02050637
0.03037088 0.05773229 -0.00159960
-0.00497536 0.08065494 0.01593278
0.00739110 0.11902333 0.01035550
-0.01647696 0.17812841 -0.02383099
-0.00837023 0.13189332 0.00873481
0.01868057 0.12492111 0.00172989
0.00734983 0.18775351 0.00062177
0.00466577 0.24589065 -0.01450459
-0.03375864 0.12773347 -0.02151975
-0.00038385 0.06112429 0.01096821
0.00630663 0.24138361 -0.02378270
-0.01495915 0.18889870 -0.02706203
-0.01504906 0.20444496 -0.03172318
0.01899570 0.19438401 -0.00641025
-0.00564573 0.09006017 -0.02282898
0.03184392 0.10376491 -0.00854818
0.02597494 0.12601715 -0.01733659
0.01723122 0.05840685 -0.02343827
0.01486141 0.15690415 0.01617038
-0.02038200 0.05096915 -0.04087867
0.02391715 0.11830822 -0.02125108
0.03073676 0.21112007 -0.02404555
0.03010384 0.06794001 -0.02508338
-0.02421479 0.24182777 -0.02647549
-0.01355540 0.07888920 0.01621781
-0.02620745 0.08756770 -0.00384725
0.01623294 0.12503918 0.00332071
-0.02391162 0.13594262 -0.00505009
-0.00582139 0.11877728 0.00639962
-0.00015904 0.15901443 -0.03144782
-0.03510644 0.05330168 0.01921607
-0.01388098 0.21859217 -0.02702840
-0.02388783 0.07786269 -0.02220631
-0.00390935 0.07925320 -0.01340104
-0.00677772 0.05235526 -0.03708845
-0.01297040 0.05055128 -0.04537892
0.01558363 0.11686154 -0.00611127
0.02037409 0.24264225 -0.01719180
-0.02006748 0.18251723 -0.00911923
-0.01949828 0.17298554 -0.01072349
-0.01834803 0.11123090 -0.00125821
-0.00316253 0.20721793 0.00856425
-0.00758088 0.15807657 0.02005804
0.03369014 0.07882842 -0.00395032
-0.01540408 0.14340200 0.01078869
0.00413860 0.08775806 -0.01866129
0.02583162 0.16223007 0.00318102
-0.02734700 0.23444563 -0.02221218
-0.03370415 0.05206252 0.01130189
0.01698440 0.06486900 0.02549294
0.02047050 0.11026441 -0.01824080
0.00838739 0.20298472 -0.03245212
0.01526166 0.19936135 -0.03327863
0.02080517 0.05969031 0.00762356
0.01025750 0.21998084 0.00599738
0.01956173 0.06673855 -0.03597901
-0.01595613 0.11261950 -0.03011400
0.02763582 0.15805204 -0.02595276
0.01803878 0.16471609 -0.02752810
-0.01685631 0.07879080 0.01453553
-0.00201102 0.09635366 -0.03323636
0.03161106 0.07513187 -0.01033426
0.02535295 0.07800400 0.01355102
-0.01608520 0.22139928 -0.01985841
-0.01519763 0.10180666 -0.00043128
0.01280540 0.05776429 0.02601877
0.02229523 0.05764845 -0.00604785
-0.02410552 0.10588954 -0.03018538
0.00357730 0.08618481 -0.01477557
0.00797382 0.15687893 0.02069982
0.00256939 0.08088150 0.02954522
-0.02730138 0.22922564 -0.01882365
0.00931933 0.20205869 0.00821352
-0.03214556 0.11656182 -0.00979165
0.01761516 0.07418868 -0.03462422
0.02479160 0.08026445 -0.02951564
0.00908443 0.07859708 -0.03408192
-0.02260252 0.15869616 -0.01157585
-0.03284147 0.12513237 -0.02385998
-0.03718640 0.05848033 0.01400840
0.03624727 0.18104079 -0.01317426
-0.02885635 0.10080793 -0.01164642
0.01806092 0.07769178 -0.03263981
-0.02746830 0.21764809 -0.02657429
-0.02575281 0.15240325 -0.02419064
0.00354278 0.06035225 -0.02427878
-0.03018760 0.09005290 -0.01089007
-0.01331575 0.10040793 0.00070214
-0.01882319 0.22707702 -0.02387421
0.02546494 0.05341589 -0.00029114
-0.03794751 0.10612096 -0.00686740
-0.02387179 0.15016665 -0.02478990
0.02269294 0.09776999 -0.02528691
-0.01145267 0.06683827 -0.04640396
-0.02672197 0.06145243 -0.00666800
0.01162300 0.07801002 0.02823611
-0.01757623 0.05464006 0.02230741
0.02323906 0.09587504 -0.02407286
0.01071525 0.09513404 -0.01969250
0.02255430 0.16221797 0.00638010
0.02558316 0.07916587 -0.02675170
0.03057917 0.22123019 -0.02480238
0.02024964 0.13957410 0.00663644
0.00055647 0.09129999 -0.02499921
-0.02241768 0.08492839 -0.01041067
-0.02808072 0.23828900 -0.02806688
0.03290346 0.06581540 0.00782627
-0.01190554 0.07815690 -0.02894195
0.00298159 0.16562425 0.02092006
-0.01324495 0.05022258 -0.04617297
0.00002674 0.06689404 0.03282941
0.00991525 0.06011260 0.00294264
0.03130215 0.15116231 -0.02689912
-0.00074579 0.24802524 -0.01860428
-0.03360872 0.14175767 -0.01145788
-0.02643438 0.17993872 -0.02468892
0.01895923 0.08318941 -0.01412290
-0.00435682 0.17810445 0.00629557
-0.02294282 0.22742811 -0.02803560
0.03061754 0.15105270 -0.01676404
-0.01204039 0.09207992 -0.03240757
-0.02927357 0.14702959 -0.00150730
-0.00686601 0.09023289 -0.02922781
-0.00998837 0.09762621 0.00375625
-0.02595408 0.07955742 -0.01077539
0.00554436 0.07793371 -0.01205985
0.02899947 0.09906278 -0.01918234
-0.00686205 0.24485153 -0.01554541
0.03112119 0.15074356 -0.00469311
-0.03353580 0.05966728 -0.00064615
-0.00056352 0.06202319 -0.00380735
0.02007446 0.07412713 -0.03369400
-0.02614851 0.15793368 -0.02369962
0.00999176 0.09090675 -0.03219010
-0.02398401 0.17898250 -0.01774104
0.01666149 0.06190281 -0.01861135
-0.02119372 0.12326781 0.00119634
0.02207703 0.17308582 -0.00541948
-0.02955387 0.21862715 -0.01881766
-0.01441208 0.11790420 -0.03099110
0.01445237 0.10394394 -0.00927912
0.00108383 0.08604742 -0.02158831
-0.00744705 0.05600319 0.02060651
0.01772922 0.21511996 -0.00114015
0.02190842 0.17116518 -0.00659754
-0.00251624 0.24403349 -0.02348397
0.00977789 0.09929626 0.00278092
-0.01546919 0.15904836 0.01577942
-0.01779560 0.08754978 -0.02838828
0.01885867 0.07951260 -0.02354613
0.01466192 0.16805139 0.01212454
-0.03169357 0.13955890 -0.01056551
0.02460735 0.06632388 0.02287566
-0.00422575 0.21852860 0.00269723
-0.00471295 0.12150350 0.00647367
-0.00824961 0.06028834 0.00831227
-0.02940563 0.12610178 -0.01732815
0.00761928 0.12796474 0.00964710
-0.02115824 0.08131474 0.02382771
-0.02158774 0.08852838 -0.02015913
-0.00550950 0.16669379 -0.03171679
-0.01601753 0.13283315 -0.03028147
-0.00273710 0.17906921 -0.03081979
-0.02550697 0.11895503 -0.02157059
0.03204839 0.05628819 -0.00310658
0.03280886 0.17046943 -0.01162048
0.00287461 0.06247788 0.01740993
-0.01538276 0.17689314 0.00469072
-0.00263315 0.23745459 -0.01108991
-0.00374119 0.19263995 0.00939920
-0.02177561 0.16079327 0.00516712
-0.01236835 0.10229848 0.00495804
0.01568870 0.11298403 -0.03017186
-0.00709546 0.20753124 0.00578363
0.01014799 0.09047395 -0.00982016
0.02029984 0.10018930 -0.01750086
-0.04009075 0.07281126 0.00469523
0.00023103 0.23400851 -0.01676266
-0.00791474 0.18461737 0.00345896
-0.01526907 0.08086464 -0.02214700
-0.02664629 0.09929340 -0.02854652
0.00348386 0.14769460 0.02031829
0.01686437 0.12098879 -0.00096016
-0.02708116 0.10548264 -0.03057703
0.03060372 0.05028265 -0.00001904
-0.02707419 0.20657572 -0.02918348
0.00775965 0.13404806 0.01410703
-0.01947130 0.08036012 0.01728366
-0.01524699 0.12298594 0.00972487
-0.01026560 0.09630932 0.00159749
-0.01686248 0.08597671 -0.03819232
-0.03328501 0.09285553 -0.00466461
-0.02238438 0.18715456 -0.00750460
-0.04091369 0.07027515 0.00988016
0.00246229 0.11423343 -0.03406376
0.02236861 0.07888680 -0.01525811
0.00025188 0.06285907 -0.01165710
0.00528987 0.08190964 -0.01762461
-0.02870261 0.11685289 -0.02193086
-0.02494993 0.07709810 0.02163539
0.01187808 0.19069985 -0.03345969
-0.00027420 0.24393520 -0.01780261
0.03141443 0.16996996 -0.00301439
-0.00347622 0.10695599 -0.03167240
-0.02550128 0.11584670 -0.02048065
-0.02916616 0.16206941 -0.01751149
0.00790163 0.20331788 -0.02481184
0.02187135 0.08064471 0.01364949
0.00531426 0.08098748 0.00090185
-0.03183387 0.07967760 -0.00586806
-0.02356919 0.09411590 -0.00546991
-0.01781649 0.08150231 0.02281857
0.00807562 0.07955898 0.01054424
-0.01354283 0.15176222 -0.02730343
-0.01878283 0.22464439 -0.02496588
-0.00832326 0.14514136 -0.03074246
-0.02856181 0.10676917 -0.02037534
0.00249228 0.07962833 0.01486048
-0.02313764 0.07898715 -0.02801272
0.03290547 0.06590334 -0.01319775
0.02837643 0.23690432 -0.03050951
-0.01450537 0.16560173 -0.02408628
0.02019455 0.10206369 -0.03032712
-0.00527072 0.24388543 -0.01234781
0.02651120 0.07154397 0.01291707
0.00255580 0.12269055 0.00773343
-0.00206508 0.06045015 -0.02106205
-0.01353458 0.21784729 -0.02472830
0.02428288 0.13081966 -0.00448643
0.02632677 0.09527741 -0.02427382
0.01963896 0.15599294 0.01584580
0.03361046 0.06076495 0.00566487
0.02412162 0.12681638 -0.00956907
0.00241832 0.23288451 -0.01696229
