-0.63162363 -0.15908118 -0.54845989
0.10346184 0.12590137 0.80418384
0.37314722 0.70350611 0.00556167
0.74038124 0.19006637 -0.31521595
0.80823839 -0.06046222 0.10548539
-0.49517691 -0.61288536 0.26426610
0.49899906 -0.22536615 0.61690533
0.55249417 -0.36612362 -0.43182805
0.30167085 -0.60431457 -0.48151165
0.24773178 0.74430025 0.14144389
-0.54293752 0.32963499 0.46853819
-0.24842414 0.66681671 0.48664123
0.24620287 0.75940323 -0.38692257
-0.28804487 0.73403680 -0.24721143
-0.30523178 -0.72351789 0.25060588
-0.78491497 0.00607502 0.19188794
-0.51117945 -0.64964008 0.14994970
-0.73501682 -0.09075340 -0.32588607
-0.48156744 0.50784934 -0.36985013
0.43497998 0.68719471 -0.08090848
0.84071171 -0.45290723 0.00296577
-0.07551454 0.41112500 0.70945370
-0.79614031 -0.05335313 -0.15038040
0.18332647 0.54671097 0.65354753
0.39155722 0.19216120 -0.76558423
-0.11583310 -0.70678997 0.58042920
-0.32526079 0.67234421 0.40303966
-0.71554911 -0.10531900 0.36852038
-0.24959415 -0.22212182 0.77276218
-0.81059027 0.30594996 0.12523043
-0.26860246 0.48390546 -0.59518731
-0.44976729 0.67867684 0.02889660
-0.43715397 -0.00696262 0.85274506
0.51151240 -0.14463396 0.71855080
-0.52220523 -0.65001559 -0.05815303
-0.01347553 -0.85619724 0.43854383
0.34608454 -0.45180783 -0.60607743
-0.03054340 -0.83274519 -0.32703105
-0.64816129 0.25254458 -0.47463635
-0.48093984 -0.43788677 0.44929779
0.81204581 0.04941010 0.11800223
-0.65974379 -0.41757745 -0.28850761
0.42196804 -0.58312249 0.37377504
0.30698049 -0.54861915 -0.54401565
-0.61035848 0.10449187 0.63052487
0.79918373 0.24528691 -0.08988714
-0.64426541 -0.05651652 0.53170967
-0.00710903 -0.36956465 0.70002222
0.67620456 -0.32783374 -0.35235950
0.80204296 0.23123747 -0.10945252
0.08434411 -0.82629883 -0.06519740
-0.27440900 -0.74968171 0.04548313
-0.58210731 -0.02296495 0.72591329
-0.85757673 0.49393460 -0.01862796
-0.68887210 -0.47352561 -0.19489463
0.10370890 -0.78625786 0.48820150
0.02296275 0.01346048 -0.84581459
0.60883236 -0.43551552 -0.33848628
0.41311911 0.23027280 0.74204910
-0.38749966 -0.49944732 -0.47653177
-0.04884571 -0.13035876 0.80256879
-0.05445739 0.80791736 -0.13871031
-0.33959812 -0.71489847 -0.18585239
0.50614452 0.51529443 -0.35974512
-0.33393905 0.01843799 0.82697344
-0.19478096 -0.43277258 -0.68664920
0.15853773 -0.13543044 -0.78429985
0.61519432 -0.03960701 -0.62007785
0.30960360 -0.48857209 0.57204318
0.83491242 -0.44459102 0.08240037
-0.58650696 -0.13197568 0.66023862
-0.71867132 -0.48746851 0.14012267
-0.68162370 -0.58948159 0.10528235
-0.63584542 -0.30107430 0.47290418
0.29773447 0.01903965 -0.85414982
-0.57702065 -0.48081806 -0.34404260
0.74998009 -0.19479041 -0.27585524
-0.19199517 0.64351559 0.55090582
0.45866606 0.42269355 0.48425099
0.22989583 0.76772177 0.40699726
-0.44497132 0.20077659 0.73835742
0.11413039 -0.79719007 0.46760386
0.22943437 0.76608813 -0.24817778
0.64451385 -0.45184150 0.29019323
-0.42214423 0.21277213 -0.73080492
-0.51827884 0.65468729 0.13834354
-0.82057464 0.06849197 -0.05860155
0.31268179 0.74340463 -0.31223965
-0.76006663 -0.03098368 -0.25375846
0.43454084 -0.68167913 0.00740851
-0.03535500 -0.32743016 -0.73977542
0.03899743 0.83014536 -0.45781288
0.38793954 0.34172425 -0.63222253
0.27035627 0.38437083 -0.67105615
0.52818227 -0.32176208 0.52253866
-0.58648551 0.05386828 0.66044509
-0.36538202 -0.46442476 -0.53035522
0.14695400 -0.69326806 0.54411459
0.25524634 0.75674927 0.03388544
-0.16195443 0.35922161 -0.72648370
0.50941861 0.13838567 0.73104751
-0.74963307 0.41976303 -0.20146860
0.58697402 -0.53172028 0.24163960
0.10414704 0.68277645 -0.58420861
-0.49507430 -0.26723713 0.61672425
-0.03040654 -0.29346552 0.74343312
0.45033488 0.16835669 0.76486540
0.59567928 0.27869847 0.51581383
0.48467782 0.24656293 0.63702357
-0.11951080 0.66987324 0.60853589
-0.44212770 0.48780340 -0.47185087
0.04311447 -0.22385277 -0.78419399
-0.83472991 -0.11824022 -0.07199883
-0.67326665 0.08724699 0.45504263
0.01553202 -0.38062051 0.68401647
0.47408578 0.03891701 0.84125435
0.68161464 0.22900613 -0.44852123
-0.14428408 0.72061980 0.52280354
-0.61158264 -0.47772592 -0.28289551
-0.34180814 0.12445385 0.79978108
-0.07802561 0.82675517 -0.09994376
-0.21257494 -0.77168107 -0.21070351
-0.38311201 0.71556377 -0.20131528
-0.33748233 -0.50291264 -0.54397905
0.71017230 -0.21085142 -0.38138306
-0.60671914 -0.61363637 -0.14029422
0.83469903 -0.30090663 0.06240829
-0.41251963 0.51745641 -0.46417290
0.53946424 -0.08254137 -0.78345120
0.30887425 -0.57440972 0.48860353
0.19390160 -0.74824870 0.42858934
0.07307404 0.82439768 0.01240626
0.80148733 0.38898942 0.17138930
-0.64636254 -0.42981136 0.30817643
-0.69912767 -0.56135249 0.12007138
0.83523715 0.07280938 -0.07555337
-0.08622804 0.82719851 0.47411028
-0.81536567 -0.28411639 -0.10477520
-0.15238404 0.79779029 -0.04555985
0.81261098 -0.08274638 0.09121200
-0.27121973 -0.70239341 -0.38623798
-0.69539475 0.33983693 -0.35497355
0.77251506 0.09974606 -0.22936402
-0.62803781 0.38830560 0.36256397
-0.73228765 0.23789126 -0.28433406
-0.02909935 -0.83815718 -0.18624018
0.63994420 0.16065559 0.50724900
0.78655922 -0.23266423 0.22879873
0.37943032 -0.69684601 0.01318767
0.53694439 0.42228743 -0.40265402
-0.53581047 -0.32865065 -0.51263428
-0.33549944 -0.29335043 0.73858917
-0.24891299 0.46687776 -0.64485145
-0.70735109 -0.08229085 -0.32287681
0.60783958 -0.58996511 -0.17680179
0.87024760 0.14783125 0.00582262
0.60112643 0.05078003 -0.65690386
-0.80316770 -0.17158747 0.13279933
0.35480517 -0.53484154 -0.48641595
-0.56376898 0.08302272 0.72048628
0.69582939 -0.05447028 -0.41260615
-0.77271509 0.08103258 -0.17847568
-0.56031179 0.28840852 0.50476050
0.47992387 0.67800891 0.14375305
0.82823169 0.08589287 0.07756996
-0.09098771 -0.81524944 0.36493149
-0.33687949 -0.53227639 0.54549146
0.59594560 0.55277264 0.23472165
0.54238033 -0.26189435 0.57294333
-0.82044899 0.06594606 -0.13896979
0.25763929 0.74996960 -0.26413733
-0.03381901 0.27615881 0.75058293
0.18797702 0.77881002 -0.11441564
0.10722820 0.44709116 0.68301868
-0.49474069 0.26459348 -0.62298608
-0.69894838 -0.58206677 0.00624287
-0.05874577 0.76047325 -0.55976439
0.35855803 -0.14351884 0.77310026
0.40758553 0.70479369 -0.00749636
-0.07757384 0.57684088 0.62920499
-0.55874550 -0.59232736 -0.22047445
-0.24015787 -0.36315808 0.71370101
-0.45725226 0.68396759 -0.14212643
-0.30295146 0.21268232 -0.78021014
0.05041201 -0.83719385 -0.45428663
0.16767752 0.79977453 -0.17853877
0.33437851 0.59908438 0.42618856
0.45504615 -0.06791097 -0.81938314
-0.74156451 0.03496013 -0.25819051
-0.60290492 -0.21752755 -0.56000268
0.05477270 0.43882963 0.68661094
0.40358245 0.47836185 -0.50716054
0.63060737 -0.19552810 0.59326351
-0.11821468 -0.80107880 0.23470575
-0.42098686 -0.70296156 -0.17868795
0.03707254 0.73243070 0.57655609
0.41826573 -0.53031170 -0.41169107
-0.69722354 -0.07907242 0.36936283
-0.07907351 -0.22504677 0.76295030
0.01684168 -0.76051128 -0.54946005
0.31535897 0.74357784 0.19174400
0.45067546 0.23551680 0.70360780
-0.04228283 0.60587227 0.61771011
-0.10183222 0.79046440 0.48538440
-0.12729718 -0.30533585 -0.71216416
-0.53743112 -0.13922612 0.70236135
0.59028471 -0.32730821 -0.43902218
0.49459103 -0.61585784 0.24536730
0.03534508 0.69806683 -0.57818866
-0.74302042 -0.02860058 0.32934758
0.75641358 -0.24882773 0.25062588
0.83645988 -0.16889071 -0.09738562
-0.71129763 -0.47246695 0.15646064
-0.08638316 0.81560910 0.11097390
0.16275287 0.66771412 -0.56214333
-0.72811759 0.57297909 0.08549082
-0.04628751 -0.46126720 0.66382611
0.77062392 0.35082948 -0.18296106
-0.14575866 -0.62010729 0.60572565
-0.34475625 0.31879684 -0.71677113
-0.72342634 0.07989943 0.32156605
0.37610915 -0.06631144 0.83062100
-0.38599545 -0.27788883 -0.72071540
0.09205204 -0.65015721 -0.62149453
-0.53212368 -0.02500525 -0.77339470
-0.61740541 0.29431894 -0.49741915
0.85069776 0.12624571 -0.02919571
-0.04329839 -0.58104360 0.62723494
-0.12518141 0.17569178 -0.78795683
0.49366057 -0.61063254 0.27105916
0.43256345 0.13546705 0.79234266
-0.46613482 -0.63077688 -0.30414164
-0.01362874 0.79383504 -0.55033636
0.01888029 -0.11282899 -0.79901814
-0.27562359 0.74072480 -0.14447851
0.06182144 -0.21989873 0.78184998
0.32188046 0.26617733 -0.75024664
0.64399302 0.20866652 -0.54443026
0.12633412 -0.16037734 0.78277588
-0.07572735 0.72914207 0.56049848
0.18506570 -0.07376150 0.81168485
-0.05983758 0.83525813 0.32448837
0.15847461 -0.67438006 0.52407885
0.51836896 -0.07120442 -0.78296578
0.62415516 0.42047974 0.32732347
0.12874514 -0.42151871 0.68264341
0.55354035 0.49405187 0.30653742
-0.27918282 0.35557079 0.69974005
-0.37873131 -0.61658502 -0.39867869
0.51327813 -0.10919097 -0.76075363
-0.56065130 -0.38023186 -0.46305341
-0.38362649 0.69493830 0.19880813
-0.34559062 -0.67154586 -0.38659063
-0.46629700 0.20664664 0.71059608
0.24980168 0.06350779 0.83277047
0.15597257 0.79515505 0.12174517
-0.54041123 -0.62051940 0.21451871
-0.31527409 0.58967137 0.47714210
-0.62855256 0.61338210 0.07260857
0.61607182 0.14047393 -0.59826076
-0.12959920 0.43325874 0.69881737
-0.51928759 -0.24904452 -0.60678875
0.63646758 -0.08461095 -0.58830488
-0.35165539 0.40806383 -0.67420983
0.39549088 0.42510137 -0.58727098
0.25958642 -0.08841747 0.81217647
-0.34140956 -0.05639939 0.84379816
0.41500282 -0.69555771 0.01374535
0.19284622 -0.65973210 0.51740587
-0.24905893 -0.12774052 0.78912532
0.73126137 0.58176303 -0.08003280
0.43759927 -0.65728140 -0.27661192
-0.15450382 0.18452483 -0.78456986
-0.05255166 0.30303767 -0.72198582
0.41539323 0.69621372 0.20538886
0.41155818 -0.52629089 0.47068670
0.69936156 -0.54388142 -0.10410749
0.85215032 -0.10853276 0.02064430
-0.13907133 0.69151747 0.56295013
-0.52566898 0.44082525 0.40028858
0.22910258 -0.61991608 0.51384354
0.51429653 -0.66878676 -0.17346036
-0.54512334 0.35240224 -0.48762515
-0.47599766 -0.09685080 0.80937874
-0.64600968 0.55690360 -0.18380824
-0.19059199 0.07733656 -0.81782556
-0.78492582 -0.39053625 -0.11428718
0.71693146 0.55476916 -0.12158148
-0.05938790 0.83349311 -0.26946434
-0.51934934 0.40203029 -0.47573873
-0.80262911 0.23323680 0.14393465
0.75686228 -0.19547623 0.24550852
-0.47203457 0.47671840 -0.43836826
0.27210385 0.76417017 -0.01614366
0.50190520 0.38213894 -0.50047886
-0.46997392 -0.37779716 0.55340481
0.24825230 -0.76982868 -0.02929149
0.46660474 0.26104906 -0.63073003
-0.17142212 0.38499019 0.71818650
-0.31735995 -0.69893408 -0.39957279
0.69586635 0.20796189 -0.32154921
0.83180714 0.16915046 0.02338340
0.29388839 -0.17502373 -0.77790415
-0.10459190 -0.81406915 0.26147324
0.60207701 0.25623912 0.51739335
0.50240588 0.17703240 -0.69824028
0.36866656 -0.64111555 0.34808651
-0.33887091 0.26305112 0.73778415
-0.00165128 0.58199143 0.63291991
0.58384967 0.29039371 0.49251807
0.24727641 0.52355516 -0.61673534
0.32907557 0.34435999 -0.71751344
-0.56519926 0.50297391 -0.30027366
0.23405750 0.76079655 0.26638553
-0.30493218 0.38299450 -0.70224023
0.28735802 -0.65891671 -0.43990791
-0.75117803 -0.07789881 0.28321719
-0.22111090 0.77955163 -0.11634177
-0.53923869 0.28309831 0.54884982
-0.10743614 -0.74772799 -0.51524246
0.58518326 -0.01280452 0.72607577
-0.10021828 0.82523203 0.20997894
-0.38197577 0.66206884 0.33332977
0.56418002 0.06866950 -0.69461226
-0.07330487 -0.61456060 -0.61708224
-0.72870803 -0.57357216 0.07347826
0.04122854 -0.51793110 -0.64861274
0.60297275 -0.00280095 -0.62267601
0.35091287 0.06769773 -0.81920815
-0.29028741 0.74616039 0.27977252
0.31267703 -0.73256636 0.33143911
-0.67685521 0.03681497 0.45030841
-0.55675876 0.62008619 0.07584130
0.71478045 0.02481022 0.38641718
-0.64327657 -0.40186173 -0.36470202
-0.15357463 -0.75363064 0.44724768
-0.12594311 0.67043364 -0.58365643
-0.12784109 -0.68250847 -0.55042982
0.33344308 -0.72606862 -0.31507602
-0.42198223 0.40247282 0.55352497
0.00480791 0.84850180 -0.22789586
-0.73131263 0.15213712 0.30058894
0.12499898 0.03191617 0.84317899
0.20388983 -0.37115064 0.68237698
-0.55469930 0.31526726 0.52554166
-0.80539584 -0.16118297 -0.19097257
0.80306816 -0.29968423 0.08072771
-0.37075812 -0.29775578 -0.69658637
0.29301009 0.19653508 0.76731527
0.76516092 -0.01448691 -0.24208368
0.72855222 0.19494359 0.36404827
-0.43206242 -0.30285385 -0.62873793
0.37076086 -0.30081919 -0.66824543
0.12136097 0.81024778 -0.11938659
-0.82609737 0.02654244 -0.10003191
-0.75245583 0.57903671 -0.00005007
0.70725548 0.24008079 -0.33406067
0.31387448 0.62108040 0.44592157
-0.17222989 0.49283156 -0.65914428
-0.05636381 -0.81745791 -0.23173834
0.57486355 -0.46841800 -0.31728226
-0.32944062 0.53018737 0.53496242
-0.60389614 -0.42612383 -0.35599607
-0.02661995 0.65867472 0.60850358
-0.35498691 -0.18408757 -0.79390323
0.08183052 0.36143544 0.72491825
-0.12661153 -0.79899776 0.31060034
-0.81248057 -0.53214896 -0.00924986
-0.42397085 -0.67567563 -0.17226179
0.70714915 0.57329893 0.08307612
-0.13522959 -0.24191445 -0.75215864
0.08472811 -0.76646018 -0.52346230
0.15095861 0.79511690 0.29195806
-0.01976094 0.16205198 0.77974820
-0.63557136 -0.63742137 0.06331131
-0.74633646 -0.37472105 -0.24460237
0.40971532 -0.24493214 0.71723986
0.60832107 -0.21839477 0.53221190
0.61055112 -0.29030561 0.46112081
0.81855965 0.10728595 -0.06707960
0.31224149 -0.62536204 0.44452783
-0.18522722 -0.78779769 0.23584262
-0.54334116 0.13762240 0.72116458
-0.20582978 -0.62126517 -0.58464611
0.10049881 -0.69530582 0.57691956
0.04430712 -0.81748128 0.16681367
-0.84469140 -0.34633014 0.06711864
0.80956328 0.31935993 0.08191834
-0.11613891 0.80519736 0.00617654
0.50652158 -0.46969363 0.39900741
-0.67744577 -0.38508239 0.34571409
-0.42357793 0.15991263 -0.76999664
0.20132050 -0.52850497 -0.64077091
0.01351370 0.06871425 0.80842841
0.56787527 -0.29821041 0.54546893
-0.52349126 -0.51919091 0.35433787
-0.51174963 0.64948380 -0.03011357
0.76457512 -0.48591751 0.11752155
-0.45851499 -0.00023072 -0.85464394
-0.84734511 -0.08682577 -0.00639120
0.22432189 -0.68640542 0.45305324
-0.04799843 -0.83506560 -0.20976363
-0.17534924 0.80512643 -0.36779365
-0.74528968 0.51622999 -0.10187690
0.84169352 0.05981402 0.10062216
0.54312479 0.35561708 -0.47674811
0.22005236 -0.52305686 0.62789786
-0.56687570 -0.09951562 0.71319950
-0.49987260 0.60487616 -0.24504857
0.72095168 -0.17622748 0.36103985
-0.64045084 0.47343037 -0.24013136
0.58229196 -0.06674242 0.72597706
0.61571562 -0.10129880 0.64145863
0.19925585 -0.72817254 -0.45103899
0.73343885 0.27504331 -0.29644129
-0.78665388 0.34876445 -0.13754702
0.18968999 -0.78103006 -0.22782345
0.08941180 -0.52971268 -0.63719296
-0.69130445 -0.12972072 0.44342995
-0.27484059 0.75038743 0.23868200
-0.50009108 0.63456249 -0.22527966
0.37308007 0.71669400 0.29941040
-0.61257160 0.06542353 -0.62354791
-0.67064834 0.57949293 0.10138074
0.38283661 0.46002656 0.52702320
0.61045671 -0.61994100 0.07959751
-0.17974494 0.77494478 0.37278339
-0.63288188 -0.11597641 0.56766582
-0.48872939 -0.41555893 -0.45331529
-0.67348683 0.03253984 0.47754663
-0.22070925 0.76128101 0.14778660
0.22036789 -0.26210299 0.75967228
-0.62460411 0.62956965 -0.11737194
0.38686168 0.48295891 0.50069261
-0.76895249 -0.04787114 0.23036556
0.49871844 0.14416568 -0.72388256
-0.61402714 0.12007800 -0.60290885
0.24834067 -0.26663545 0.75493896
-0.00622091 0.74692178 0.56859291
-0.54921675 0.64453053 -0.04540230
-0.36074245 -0.37629583 0.64691675
-0.00878927 0.31610316 0.75764728
-0.48290274 0.60279095 0.25157544
-0.34644768 0.66960847 -0.35694608
-0.06868769 0.80009747 0.51639891
-0.47112688 0.59429491 -0.31937313
-0.74758363 0.16584530 0.29724386
-0.44159058 -0.68318939 0.13415584
-0.71358335 0.40069079 0.28531963
-0.02378502 -0.71949995 0.57756543
-0.11967184 0.31547371 0.73151457
0.15214927 0.31590030 0.72907710
0.26732987 0.03188921 -0.82036591
-0.48611382 0.61788261 -0.28608006
-0.31354466 -0.48043379 0.58961678
-0.55404365 -0.44011152 0.39397386
-0.14200537 0.37439767 0.69137704
0.47519302 -0.31607935 0.58616483
0.80337620 -0.37889132 -0.12801161
0.33798373 -0.59253430 -0.44792274
0.54804575 0.54091418 0.27931175
-0.52453721 -0.54265440 -0.29998827
-0.83887541 -0.46993175 0.01605563
-0.24932100 -0.65791237 -0.45953482
0.15279374 0.44171625 0.67000556
0.57869256 -0.44546947 -0.34780708
-0.44457546 0.30825880 0.60138690
-0.80160153 0.03050830 -0.10640232
-0.19721857 -0.63313854 0.58884561
-0.83808637 -0.20123516 0.03577442
0.75114691 0.06979418 -0.30833530
-0.41589782 0.34125087 0.63404953
-0.67889595 0.16301678 -0.46293971
0.79552829 0.06897402 0.09133556
0.22542840 -0.28852567 -0.74085689
0.58305931 -0.53809428 0.22216621
-0.81772673 -0.24949530 0.07193271
-0.74298537 -0.40013477 0.21767499
-0.37139559 -0.54584980 0.45138061
0.03574101 -0.27421403 -0.75281692
-0.33266926 -0.48772448 -0.55015051
0.46787795 -0.65811908 0.10893098
-0.64772820 -0.19136210 0.54164350
-0.08235678 -0.82643580 0.43064016
0.35520270 0.17391637 0.79342413
-0.31627837 -0.68491924 0.35867891
-0.25800243 0.34651029 -0.73961425
-0.06879973 0.83414340 -0.24724668
-0.42274985 -0.61772776 -0.29929039
0.68638778 -0.58185959 0.09057394
0.62879157 -0.39812270 0.33686554
-0.55805457 0.40722573 -0.41364521
0.29952267 0.14871413 0.79409504
-0.68957937 -0.46369442 -0.20960051
-0.20451488 0.77161622 -0.23877996
0.62537277 -0.53435886 0.23157799
-0.55874205 0.03038407 -0.74926615
-0.72715557 -0.10569460 -0.34786898
0.52755928 0.64071214 -0.08580673
0.59954953 0.11337851 -0.62305021
0.37345883 -0.38897818 -0.62981713
-0.78891337 -0.37570247 0.16479084
-0.25844440 0.32902780 -0.73034668
-0.44000539 -0.59944654 -0.33806276
0.84929621 0.24652308 -0.00800915
-0.19752534 0.08274102 -0.81959438
-0.84586954 0.10805999 0.01139235
0.41744277 0.67395461 0.26377529
-0.75963974 0.17532986 -0.21058187
0.80430520 0.50445366 -0.08899816
-0.27906254 0.43795282 -0.66403687
-0.34976977 -0.61919725 -0.43702069
0.67465854 -0.28838363 -0.43005455
-0.21892837 0.75434577 0.06998908
-0.59239578 0.14681575 -0.61309195
0.49407974 -0.52263665 -0.36402261
0.48816636 0.21212038 0.68914926
0.00940291 0.78022635 -0.54909468
-0.57915545 0.08802517 -0.69152057
0.39780521 0.32562733 -0.65514112
-0.33069301 0.60161090 -0.45282245
-0.69830346 -0.15888178 -0.46729314
0.77890348 0.18134741 0.14950791
-0.68495572 0.49345249 -0.20508587
0.42624709 -0.28761968 0.65676963
-0.08967549 -0.81852293 -0.16791128
-0.06184784 -0.10056844 0.81083667
-0.43043751 -0.40769392 -0.51912069
-0.01963962 -0.27299923 -0.73935163
0.62659252 -0.02371582 -0.60799873
-0.17966039 -0.78036106 -0.25329456
0.54921496 -0.25274289 0.57460821
-0.52982640 0.31659922 0.52827060
0.11458997 -0.78881729 0.40857273
0.32971415 0.71760881 -0.32812735
-0.70749319 0.56157339 -0.06890471
0.19038194 0.78342974 -0.08999482
-0.34287044 -0.47367552 0.53843188
0.19973622 0.16695808 -0.78762591
0.68577611 -0.25393537 -0.42461932
-0.64742982 -0.47005126 0.25052133
0.80830610 -0.42611322 0.07989167
-0.25850207 -0.75322878 0.31823346
-0.23511145 0.75025594 -0.00774295
-0.78278542 -0.23792464 0.14924951
-0.62095630 -0.14944524 0.61005890
0.27308398 0.74822879 -0.20782731
0.32956871 0.61696339 -0.47559452
-0.10535025 -0.47374132 -0.68068635
0.35726231 0.70736945 -0.26898316
0.40310875 0.16191162 0.79743648
-0.59410310 -0.27603957 -0.49964687
-0.30726197 -0.61937046 -0.46684021
0.79079342 -0.14651139 0.15297747
-0.18228465 -0.33534604 -0.73353887
0.27083671 -0.75926328 0.30408841
-0.36555541 -0.60615432 -0.39436185
-0.68875062 0.59289598 -0.05920471
-0.52082837 0.05409496 0.82343984
0.49942955 -0.63664675 -0.04026162
0.09094436 0.82341588 0.32723889
0.83280778 0.44378537 -0.06309511
-0.52818143 0.66437113 -0.08094463
0.57674301 0.45720705 0.34193265
0.08451138 0.79048741 0.49543202
0.74914443 -0.28332636 -0.21500200
0.54768276 -0.15463434 0.64894712
-0.02058996 -0.38745141 -0.70069742
-0.44526643 -0.39381874 -0.55192816
-0.09884609 -0.56110251 0.62653923
0.17229719 0.56345367 -0.65595961
-0.36380649 -0.67844319 -0.32866392
-0.17020230 0.33370578 0.72810674
0.32520795 0.47823328 -0.59310579
-0.37676346 0.14157434 -0.78883851
0.35337970 -0.71140718 0.04903504
-0.62675464 -0.56802356 -0.20480105
-0.77534211 -0.05753479 0.20266742
0.28016835 -0.64469218 0.45946801
-0.38265136 -0.27309838 -0.71952724
0.08765403 -0.83137429 0.30552647
-0.43573174 -0.06791991 -0.84335148
-0.16940415 0.53454006 -0.63612509
0.27468354 -0.32524979 -0.71902454
-0.17854434 -0.14967027 -0.78327382
-0.44116995 -0.11162231 -0.78393149
-0.16479720 -0.77984273 0.09571099
-0.19076970 -0.64396179 -0.53938508
-0.36433432 0.49008605 -0.47846368
0.35920203 -0.41571271 0.60147488
-0.30061340 -0.75416398 0.15881351
-0.47822475 0.40635216 0.49989250
0.14285991 -0.00374420 0.85950136
0.25348595 -0.74635017 0.09969901
-0.26863301 0.69272280 0.42378515
-0.81178021 -0.37777627 -0.09122001
0.53494895 -0.65140581 -0.04288252
-0.54062235 0.01550129 -0.84435320
0.45567292 0.68471611 0.00041220
0.78434730 -0.13549016 -0.15959468
-0.40423143 -0.14075539 0.79681730
0.70043445 0.23768222 -0.41616428
0.54921937 0.56314969 0.27032900
0.15092306 -0.23016533 0.77391160
0.30173784 0.44738069 0.63020194
0.48421168 -0.36262655 -0.53613412
-0.42321351 0.60937810 -0.33784044
0.45845342 0.06790714 0.82349300
-0.12310659 0.78410780 -0.44932455
0.00316613 -0.86519587 0.51178372
0.46012834 -0.67784142 0.25154766
-0.14203307 -0.56556928 0.64383030
-0.37058440 0.69649827 0.00934507
-0.59171522 -0.63785219 0.12348097
-0.73565924 0.41291529 0.23280171
-0.26299489 -0.55934584 0.58315659
0.52116692 -0.44520852 0.39154029
-0.01294526 0.61785161 -0.61099160
-0.30990678 -0.64907134 0.42888609
0.59473717 0.61911476 -0.18134354
0.61218190 0.61588335 -0.11970506
0.65213549 0.24352781 0.49152610
-0.65189230 -0.56084192 -0.14122063
-0.47992709 -0.37897483 0.50581574
-0.41927907 0.15179667 -0.80580974
-0.66071641 -0.49433184 -0.23104028
0.05746116 0.66172576 0.62000728
-0.84424794 0.22461039 0.05450193
-0.25932962 0.67026532 -0.45377189
0.84730530 0.18458635 0.05983333
0.44136953 0.57402813 0.34467313
0.34116405 -0.58425415 0.44872028
-0.56251621 0.32822421 -0.49091774
-0.50860286 -0.39463398 0.48516181
-0.77074718 -0.09806167 0.23037127
-0.40150073 0.62964165 -0.34607574
0.49109745 0.66446054 0.10120755
-0.19957958 0.21690035 0.75902498
0.47082686 -0.20838828 0.72217858
0.18513963 -0.45233387 0.67280686
0.29442757 0.23608765 0.75573945
0.01285305 0.09169028 0.82531178
0.07584379 0.83339548 -0.16714653
0.10838472 0.81093931 0.45266718
-0.27260214 -0.08279927 0.82425261
-0.37436000 0.14690512 0.80467653
-0.65891564 0.11752631 0.50910902
0.62663078 -0.02321196 0.57589006
-0.39481401 0.05521390 -0.81447291
-0.01906458 0.60542023 0.60875642
0.37279710 0.45870721 -0.57294929
0.75207984 -0.29797074 -0.24848580
-0.78235424 -0.12724951 -0.14790620
-0.34292293 0.36178836 -0.69959056
0.51439321 0.56913781 -0.29904121
0.03698569 -0.85400033 -0.20575115
-0.50782299 0.60168517 0.25173911
0.43618315 0.67200017 -0.05776035
-0.04553801 0.83463955 0.17850417
0.14434071 0.52656662 0.64527214
-0.11037933 0.56048524 -0.62082577
-0.37642202 -0.05225770 -0.82755613
-0.71223283 -0.24143220 0.36718941
0.74059498 0.40560311 0.21303013
-0.49394041 -0.45662290 0.42371860
0.62071049 -0.11140482 0.62320721
0.32500273 0.23433062 -0.74922562
0.73935139 0.10406909 0.27523986
-0.30702725 0.48574826 -0.60995460
0.40332901 -0.56249166 0.40527019
-0.56641543 -0.37187317 -0.41838831
0.27640679 0.73488140 -0.36169890
0.07211576 -0.83288443 -0.34621590
-0.39192316 -0.52339423 0.46688300
-0.03411455 -0.51441848 -0.64738727
0.24473040 0.44309977 -0.67561889
-0.20630002 -0.65707326 0.50856566
0.26675305 -0.53471696 -0.60330570
-0.52456045 0.49662974 0.38864276
0.13255291 -0.40378463 -0.68553495
-0.04877004 -0.29340994 -0.72424722
-0.49003649 -0.64249599 0.23105477
0.17960460 -0.19733548 -0.77968085
0.69589055 -0.39723283 -0.28367993
0.40419722 0.07053944 0.81059980
-0.26416352 -0.18863840 -0.78045952
0.51404691 0.59699988 0.28371918
0.49251130 -0.63507950 -0.24364279
0.60053194 0.40699762 0.38705012
-0.49475053 0.21571073 0.65620232
0.69418526 0.14222303 0.40541011
0.08165181 -0.81306171 0.14638519
-0.58142650 -0.04834998 0.70482433
0.65607631 -0.19490288 0.49786693
0.30650896 0.42545134 -0.63629639
0.64576936 0.48194802 0.24101098
-0.56197047 -0.04820869 0.78059077
-0.64845157 0.53811491 0.19129309
0.07726053 -0.81391525 -0.29089347
-0.12873340 0.80609345 0.37879822
0.81875205 0.53000867 0.03239347
0.69408548 0.20203064 -0.44929761
0.59665799 0.58192492 0.16796701
0.08267749 0.81716561 -0.30417904
0.16395661 -0.63104832 0.56478393
-0.46521047 -0.66527545 0.09089944
0.32903948 -0.03053418 0.83760536
0.56651843 -0.63526738 -0.06015381
0.03590003 -0.57790971 0.62980914
-0.47254276 -0.46923041 0.40171406
-0.15964818 0.48519516 0.66613817
0.31386933 0.47833806 -0.55971563
0.38966107 0.66476810 0.31698641
-0.18187189 -0.43148145 0.69351542
-0.41772974 0.64424431 0.30464208
0.01750714 0.04425672 -0.84358287
-0.68682468 0.22395970 -0.44414067
0.54661953 0.11441918 -0.72758627
0.19521868 -0.03618971 0.83255970
0.16153233 -0.59217155 0.61457765
-0.59717357 0.47332141 -0.31916595
0.81476939 0.32880309 -0.10884639
-0.37372336 -0.70954752 0.15119196
0.67952883 -0.04020938 -0.40722254
-0.38159281 -0.31777433 -0.68153167
0.56059563 -0.03192331 0.77564263
0.35323796 -0.09394766 0.81918430
-0.69273293 -0.58613682 -0.02218283
0.46186724 -0.15597787 0.80007660
-0.36064261 -0.31155440 0.69343019
-0.52461696 -0.65141118 -0.08083606
0.12103302 0.78294909 0.48079205
0.71004224 0.10255602 -0.38159087
0.55656838 -0.47573316 0.34286395
0.63255179 0.10703673 -0.58536351
0.37029156 0.31814173 -0.66568685
0.62716568 -0.50440729 -0.25426915
-0.69614470 0.05783788 0.41934052
-0.45649934 0.26809013 0.63789392
0.13481675 -0.45519194 0.68917835
0.08746634 -0.30190554 0.73958445
0.18958446 -0.78190160 0.13907610
-0.37362275 0.38716879 0.60516739
-0.77431297 -0.18731724 0.16144440
-0.51871371 0.39285150 -0.44934928
-0.15965369 0.76967645 0.43865392
0.36318684 -0.60705495 -0.41060811
-0.08469351 0.82128763 0.15175433
0.30020997 -0.38913560 0.71729028
0.36440116 -0.33677217 0.68357098
0.53961658 -0.19521600 0.66736531
-0.36539575 -0.27627540 -0.73155451
-0.80977237 0.42093530 0.04211538
-0.67915630 -0.08695038 0.42256096
-0.54093063 -0.53736782 -0.28892896
-0.17575492 -0.64013386 -0.57535517
0.23805127 -0.58264577 -0.53594172
-0.20167436 0.31605294 0.75139046
0.67496693 -0.60585618 0.07963794
-0.49075282 -0.25791416 -0.61060321
-0.00865183 -0.66037214 0.58670020
0.34268162 0.71830845 -0.06685650
0.08359184 0.83318365 -0.28150654
0.72495782 -0.20640376 -0.30610457
0.53433740 0.41239014 0.40326452
-0.42287982 -0.56658971 -0.39301261
0.09048867 -0.29234555 -0.73133039
-0.80708146 0.16407761 -0.12244081
0.73934388 0.49481288 0.17002700
-0.36811644 0.21824774 0.75655556
-0.81249559 -0.33401522 0.09476358
0.53533816 0.18807377 0.64357555
0.82408547 0.36420119 0.06895324
-0.66742074 -0.25250998 0.45291713
-0.37636214 -0.65047085 -0.32200605
-0.46917030 0.22632363 0.69532633
0.11420075 0.19534856 0.77639425
-0.61896598 -0.07092515 -0.62697744
-0.27055377 0.74266779 -0.11401859
-0.64020514 -0.04670262 0.56204557
-0.41209236 0.07157338 0.80361688
-0.56534886 0.63683224 -0.06428510
0.21196656 -0.55385256 -0.58979499
-0.83334947 -0.34141907 -0.07215502
-0.57184947 0.20855789 0.58464396
0.00240564 0.20774716 -0.77287996
0.36196786 -0.72226620 0.28117964
0.61561692 -0.54495656 -0.22053379
0.46909499 0.31475049 -0.60209703
0.49045822 0.65138221 0.25743318
-0.14770395 0.79298592 -0.13740259
0.22776105 -0.76221383 -0.14702542
0.35416219 0.34014070 0.65421045
0.38804436 -0.43966177 0.58848107
0.12630777 -0.44466129 -0.67972243
-0.41465685 -0.68421245 0.02345657
0.67479897 -0.32544550 -0.40629613
-0.33378083 0.28965035 0.73746932
0.64110255 0.10035714 -0.54822123
-0.54988670 -0.64711154 0.02262316
0.18441243 0.78110111 -0.10884157
-0.74720359 -0.40963820 -0.20587109
-0.35592765 -0.07976356 0.81752336
-0.29190522 0.67665470 0.42484123
0.75849712 -0.48601303 -0.12769787
-0.58859432 -0.32830817 0.45187891
0.68745661 0.06207715 -0.42555341
-0.00391991 -0.88144016 -0.16120821
-0.22843491 0.06765052 0.81216407
0.57806885 -0.42342058 -0.36353892
-0.77917111 -0.55944669 0.00842088
-0.43830359 0.29708409 0.65465844
-0.43415692 -0.69464016 -0.10100038
0.76621103 0.35376281 -0.25591865
0.82363224 0.30155289 0.08504340
0.07128606 -0.49959573 0.67317712
-0.64276075 0.45648742 -0.28159344
0.09244555 0.53248858 0.64540708
0.52476263 0.15091588 0.70016944
-0.63246560 -0.22098939 -0.53468060
0.47951904 -0.51293755 0.36326087
-0.46731517 -0.29756433 0.62872195
0.42045492 -0.21686086 -0.70461833
0.09611544 -0.03788177 -0.84232199
-0.72436917 -0.32577953 0.35366371
-0.10065465 0.31233972 -0.73094869
-0.34092301 0.34211442 0.68911576
0.68599355 -0.28284091 0.40871319
-0.50903296 -0.18942755 0.65999043
0.07279897 0.83305871 0.27235630
-0.79948342 0.47736570 -0.10685930
-0.26723883 -0.55420172 0.57416141
-0.75838685 0.20858061 -0.28862771
0.39931718 0.70047450 -0.07833317
-0.49404579 0.23155992 -0.66077828
-0.39693803 -0.08087731 0.82623267
-0.37837997 0.68352401 -0.34127316
-0.13665687 -0.07003217 -0.82941628
0.22392417 -0.52309036 -0.62283325
-0.31954885 0.73541439 0.34638685
-0.22081243 0.62569630 0.52785718
-0.48476344 0.21473430 -0.67140269
0.56635106 0.04776216 -0.76069057
-0.18783352 0.58601570 -0.60868943
0.77679420 0.22410539 -0.17002541
-0.55917287 0.03406338 0.77795470
-0.71537197 0.17005689 -0.39078784
0.86019492 -0.21618703 0.02128470
-0.24417593 0.19457082 0.76786149
-0.29146150 0.63857293 -0.44467849
0.25353035 -0.59572792 0.53002167
0.61186850 0.26802099 0.49024168
0.79711545 -0.48349261 0.08652647
0.83287573 -0.23676468 -0.06469811
-0.39012167 -0.69442403 -0.20096286
0.36872929 0.55882514 -0.43883121
0.23220158 0.78091943 0.18791616
-0.71032298 0.51202977 -0.18234850
-0.29157099 -0.66676915 0.43444335
-0.05162195 0.12016341 -0.80243278
0.44377553 -0.19807486 0.75461733
-0.61737657 -0.22506215 -0.51940966
0.14347740 0.36334309 0.70415044
0.02106211 0.09340245 -0.82963312
0.27803880 0.59342682 0.47943521
0.51110232 0.57390881 0.31007099
-0.36547881 0.26633906 0.74673557
-0.22901881 0.60889852 -0.55244720
0.14162287 -0.78344858 0.45852944
0.61252153 0.50492489 -0.22402523
-0.73946905 -0.44826266 -0.19429035
0.31407064 -0.71160913 -0.36714354
0.14497222 0.79218018 -0.32441017
-0.80119812 -0.35848615 0.11967614
-0.64976132 -0.04031726 -0.52742195
0.40699151 -0.59937847 0.37050134
0.67806828 0.28473246 0.43298176
-0.57857907 -0.00060388 0.69530392
-0.28534895 0.02993993 0.83030093
0.14775096 0.76823306 -0.47858435
0.13854754 0.46195138 -0.68053210
-0.66562545 0.31053361 0.36670557
0.42102763 0.19412105 0.78730309
-0.03607837 -0.65688324 -0.58254957
-0.13101387 0.79362857 0.22835176
-0.39530221 -0.66449952 0.32903713
-0.45867857 -0.67669868 -0.14012718
0.39622334 -0.04657564 0.83984315
0.45383695 -0.67899621 -0.11078061
-0.36529860 0.50893283 -0.52801633
0.50602472 -0.58762276 0.28523725
-0.32529551 0.70238781 -0.38703027
0.63322520 -0.15186898 0.59642398
0.43443191 0.28776267 -0.64234054
-0.79536164 0.20676233 -0.15497836
-0.54648089 0.39223465 -0.43589488
-0.03691106 -0.65800464 0.62108600
-0.09500545 -0.71495259 -0.56715405
0.54127145 -0.27650413 -0.56239700
-0.18616714 0.24464527 -0.75455034
-0.67840409 -0.54604363 -0.15012582
-0.17248599 -0.09327722 -0.81047547
-0.22423375 0.49246889 0.65969706
0.82304740 -0.46673942 0.09170868
0.15927781 0.80828083 0.37522891
0.79409003 0.23741275 -0.14068292
0.21265072 0.76242018 -0.23827927
0.35960329 0.28358382 -0.74489081
-0.53922319 -0.20008096 -0.64315689
0.26004371 -0.51158059 -0.62605155
0.16713795 -0.31392172 -0.71696043
-0.25212017 0.08818692 0.84169805
0.80314064 -0.04797687 -0.11174116
-0.49142861 0.14414847 0.73011613
0.72632408 -0.26970512 -0.38343510
-0.79730856 0.39330420 0.06761244
0.63250601 0.61878753 0.00126022
0.05319571 -0.82349563 -0.16593874
-0.16676974 0.27966100 -0.74673128
0.15523422 0.07685272 0.82079613
-0.12863520 -0.81549764 -0.23013939
0.84768021 0.06905901 0.03630771
0.73383129 -0.15774430 0.29417062
-0.12894468 -0.75689757 0.47225922
-0.21013597 -0.34512064 -0.70026195
-0.61982107 -0.29496861 0.45176780
0.26327622 0.66207850 -0.47592735
-0.48774812 0.65355086 0.21136296
0.66659141 0.21947218 0.48119819
0.32162613 -0.44390911 -0.62768352
0.65979111 -0.23025697 -0.48996007
0.24423759 0.44344568 0.68014872
-0.35926691 -0.36501572 0.60663247
0.83743548 0.18303880 -0.03560536
-0.02484659 0.73629618 0.58467305
0.76027739 0.13414435 0.25943419
0.25881511 0.65741324 0.40457013
0.27621490 0.75599551 -0.06735595
-0.79056156 -0.43490085 -0.14604031
-0.02246223 0.85525548 -0.44716516
-0.15010580 0.74619520 -0.49307987
0.52440631 -0.48626545 0.34627479
-0.31893381 -0.29496762 -0.71918809
0.65962350 0.10810879 0.52127135
-0.70305085 0.26370898 -0.36301759
-0.61215270 0.45012176 0.34809861
-0.04993855 0.82608879 -0.49868119
-0.29587710 0.54336631 0.51392221
0.58949208 0.62428093 -0.13270067
0.73839438 -0.57189989 0.01717542
0.50385427 -0.22380555 -0.63825560
0.05755883 -0.66192031 0.58750761
0.20203733 0.77668691 0.25019786
0.81893682 0.20942628 -0.06620213
0.44589341 -0.45488772 -0.48868895
-0.65262449 -0.40182680 -0.34010684
0.44345459 0.64717698 -0.31503847
-0.76482558 -0.23582846 -0.21926579
-0.79676175 -0.07590067 -0.14226988
0.53258121 0.05994199 -0.78562534
-0.12350484 0.11122532 -0.79933691
0.45430419 0.38664553 0.53915238
0.22320618 -0.48761314 0.65714979
0.26036334 0.60178196 0.51581287
-0.52812147 0.19541787 -0.65696478
0.35706595 0.57155037 -0.47567073
0.16319402 -0.44909674 0.67803657
-0.53111660 -0.10823800 -0.73000145
0.49958923 -0.12953992 0.72203243
-0.34272939 -0.54042351 0.48337618
-0.30067712 0.73642051 0.23741792
-0.06141720 -0.68751037 -0.58720648
0.55606151 -0.57427931 0.26023191
-0.62017429 -0.31127787 -0.45022038
0.81322670 0.40646365 -0.12980412
0.71349156 -0.48331854 0.17330553
0.03147271 0.34694430 0.71979642
-0.45508847 -0.00367295 -0.85117412
-0.39946219 -0.31338266 0.67328119
-0.38543618 -0.71192133 -0.28139561
0.33743751 -0.27132371 -0.75945091
-0.56094348 0.06672121 0.72870862
-0.16459881 0.66527164 0.54726577
0.42927757 -0.68464184 -0.11836366
-0.42540753 0.65577543 -0.27723488
-0.57535815 0.62788081 -0.03292472
0.64620090 0.13813479 -0.53628087
-0.35228750 0.58596015 0.43839383
0.10906086 0.82973838 -0.41215798
-0.51355994 0.66063857 0.20171474
0.70690334 0.08066233 -0.39063025
0.17908388 0.62927389 -0.54784405
0.02450473 -0.29363292 0.72304618
0.19471253 -0.70002723 0.49903464
-0.48129025 0.43232992 -0.47041142
-0.69445956 -0.05942494 0.38415301
0.71180379 -0.24396305 0.31714320
0.63278472 0.19840239 0.53988791
-0.26192874 0.75538754 0.14636327
-0.23247968 0.65928054 0.46353230
-0.31718200 0.40796149 -0.62341964
-0.23552912 0.28308800 -0.73134625
-0.59926236 0.47387004 -0.30277547
0.01974371 -0.83037364 0.51309228
-0.27676848 -0.73330569 -0.18254264
-0.69632006 0.21822971 0.38574094
0.68700945 0.55222487 -0.15048087
0.16641222 -0.73136783 -0.48730406
-0.51604176 -0.09427226 0.76221716
-0.08059474 0.80065358 -0.25116974
0.35894945 0.71154559 0.19514903
-0.07740293 -0.81975198 0.27084458
0.82454729 0.01805420 -0.11275724
0.29459599 0.69131327 -0.40608376
-0.58424413 -0.11539409 0.69250870
0.47135830 -0.18835932 -0.70746195
-0.82323265 -0.34843376 0.11711194
-0.16095625 0.80171251 0.35576162
-0.60520494 0.62029886 -0.00355577
-0.21751989 -0.76508152 0.21538717
-0.68698907 -0.51661491 0.17153944
-0.65800774 0.33190784 0.37099439
0.61522627 0.60465407 0.11247449
-0.24589644 0.56000769 0.57956672
0.52552283 0.65521216 0.00213088
0.42703485 -0.20516980 0.73082721
-0.79585922 -0.46338126 -0.13461320
-0.57462931 0.17759782 -0.63564396
-0.06402104 0.82678008 0.30037272
-0.48491171 0.07061529 0.81084025
-0.24896704 -0.75354016 -0.19664823
-0.14179617 0.79934502 0.19276287
-0.68812835 0.30038115 -0.38379356
0.00430573 0.84214020 0.26522845
0.79120123 -0.24157524 -0.14950831
0.79286134 0.53492987 -0.02867571
0.37838033 -0.04377127 0.84002244
0.16441759 -0.56694293 0.61712551
-0.69274855 -0.14054941 -0.41636345
0.33544290 -0.46325621 0.57127690
0.01875507 -0.85291851 -0.08433605
-0.41827807 0.69002366 -0.19194596
-0.18407238 -0.76227546 0.43441075
0.47048977 0.64869928 -0.26897910
-0.10826010 0.04274775 -0.81807268
-0.25879312 -0.74026728 0.38289684
-0.72998977 -0.31753454 -0.33557940
-0.08538394 -0.81255269 -0.15683256
0.78292286 -0.04750111 0.21917282
-0.04458495 0.82763457 0.39244586
0.58836067 0.55375123 0.24514991
0.05154780 -0.82941520 0.10733678
0.68311501 -0.32677367 0.36425453
0.74365771 0.46221206 -0.16351277
0.06679334 -0.54170179 0.66027939
-0.54501867 -0.29034755 -0.54277134
-0.36720133 0.05565371 -0.84393609
-0.53380609 -0.16868192 -0.66077554
-0.03802050 0.42490301 -0.69797730
0.54226553 -0.63847470 0.13416466
0.04433073 0.34724677 0.70979345
-0.57954752 0.17345549 0.65017688
-0.38743627 0.62659514 -0.37809128
0.47510973 -0.46058631 0.42588574
-0.04698660 -0.72454989 0.55682540
-0.82143879 0.52958119 -0.04474141
-0.18788682 -0.46397147 0.68586457
-0.58685434 -0.30567786 -0.45960274
0.40176043 0.16811372 0.77733898
-0.02238485 0.09809356 -0.80647254
-0.73445749 0.02249083 0.30877826
-0.66854429 0.10975473 -0.50111806
-0.78056359 -0.24549654 -0.18697686
-0.41598928 -0.34845355 -0.59169412
-0.74185860 0.00474493 -0.25913963
-0.59359753 0.05173546 -0.72113240
0.33673823 -0.27727208 0.75089288
0.42028698 0.62939453 0.32407740
-0.45136222 -0.54762447 -0.37488565
0.52657628 -0.31767333 -0.49638185
0.19725649 0.80431819 -0.30209675
0.22088136 -0.76620352 -0.19418257
-0.25772193 -0.67804992 0.43409881
0.50472903 0.36217496 0.51410127
-0.67183614 -0.36549938 0.29687616
0.62053645 0.34101343 -0.39924252
-0.44855690 0.07183246 0.83378458
0.22648321 -0.76512825 -0.05917823
-0.47839418 -0.18949020 0.68696821
-0.50899708 0.36190030 0.48666227
-0.01809181 0.73630500 -0.56801164
0.61966658 0.05713047 0.57436693
0.69023693 -0.03100880 0.40019724
-0.00754657 -0.85194230 0.10571343
-0.73182964 0.31809548 0.30000848
0.58331454 -0.28856352 -0.47992343
0.61127603 0.28803861 -0.47516802
0.59015286 -0.63389468 0.10439757
0.57344687 -0.18218076 -0.61774206
-0.57579625 0.14719574 0.63667858
0.20858435 -0.51323891 -0.66944838
0.68151593 0.51808631 -0.16416919
0.27003899 -0.77249789 0.13308311
0.55479312 -0.40024689 -0.39964542
-0.44570139 0.29801092 -0.64386940
-0.27626786 -0.46945503 -0.63989449
-0.48772657 -0.61265945 -0.26537484
-0.80663514 0.12025284 0.06207646
-0.24135685 -0.54537404 -0.59790075
-0.71238482 -0.43511447 0.20293756
0.22020380 -0.07185906 0.82791495
0.28788498 0.63683200 -0.44749016
-0.32148561 -0.37914902 -0.68685484
0.21285675 -0.21939182 0.78311729
0.53743458 -0.43396541 -0.41249910
-0.35575083 -0.09693001 0.81194067
-0.74213207 0.30325603 -0.30257061
0.29933339 -0.31847119 -0.72879601
0.41713294 -0.41367427 0.54893541
-0.68959963 0.02466324 0.38965923
-0.19142362 -0.70980179 -0.46786505
-0.72075033 0.09720675 0.34789234
0.53570879 0.57083261 -0.27447644
-0.42108792 0.68592620 -0.02153612
0.84314466 0.43693912 -0.01217395
0.69525921 0.41429126 0.26819536
0.40912426 -0.39179766 -0.56954420
-0.25192577 0.48742300 0.62744665
-0.46797287 0.57853377 0.28979415
0.78809869 -0.31065542 -0.13848123
-0.37627757 0.52021778 0.44863218
0.03262886 -0.45058256 0.69929838
0.32851198 -0.70335460 0.35306257
0.44290197 -0.41233808 -0.54851723
-0.10863285 -0.09260877 0.82032859
0.10232768 -0.71872962 -0.54256368
0.34657830 -0.50492311 0.51886642
0.15468532 -0.79734981 -0.09788714
-0.57808650 0.27855980 0.55090237
0.64492333 0.05771224 -0.57556999
-0.01853940 -0.84249568 -0.03845938
-0.13459139 -0.74356401 -0.48417473
-0.32128111 0.51212204 -0.53625214
-0.68355942 0.58248758 0.02010363
0.25626138 0.06848293 -0.80728674
0.45666900 -0.67742336 -0.08004975
0.76630032 0.00267449 -0.22258984
-0.46962428 0.33502999 -0.59646344
0.56779611 -0.30164424 -0.52187526
0.06939130 0.81410885 -0.28719059
-0.20429705 0.74264491 -0.42081109
0.14792348 -0.79446507 -0.35427740
-0.24850819 -0.50410724 0.60012805
0.14744547 -0.79945111 0.39187971
0.78192365 0.36637792 -0.22240312
-0.74914145 -0.01554175 -0.20103061
0.03901045 -0.11958920 0.79816461
0.27790722 0.21685472 0.75097537
0.16194859 0.78593600 0.19293915
0.45900941 0.45197949 0.45628706
0.18649429 -0.15159890 0.80104423
-0.61618555 -0.48243180 -0.25318944
0.58539522 -0.18161778 -0.61167395
0.53598690 0.22224510 -0.63671398
-0.42558169 -0.45182180 0.50468826
-0.58814859 -0.04964783 0.67239559
0.36014175 -0.06149999 -0.82996809
0.02312073 0.81447542 0.51433921
0.76786554 -0.33886454 -0.18784545
0.03040458 -0.84639680 -0.10490014
-0.32863417 0.39904922 0.65410173
0.69563293 -0.57975161 -0.09357495
-0.41634578 0.67960477 0.28360143
-0.79297292 -0.42850125 -0.11135940
0.39037660 0.69493186 0.23781095
0.31283313 -0.63509345 0.43219939
-0.58513582 -0.18302311 0.62498152
0.51759756 -0.64482903 -0.21764587
-0.81390584 0.32499233 -0.10861211
-0.43794173 -0.54620063 0.40096295
0.35025287 0.13147312 0.80130744
0.08226404 0.22661577 -0.77666533
0.75649440 -0.08390968 0.22734034
0.08251482 -0.49147528 -0.64144516
0.51251638 -0.02730424 -0.86472476
0.34390318 0.25809845 0.76693833
-0.14861421 -0.78832936 -0.27150559
-0.66639805 -0.03349935 -0.50047791
0.14303739 0.80732024 0.18716200
-0.11152110 -0.29973593 -0.73886311
-0.18786947 -0.63566768 -0.56029069
0.41971424 -0.45976728 0.49388972
-0.24713717 -0.74110019 -0.39885408
0.29098117 -0.46946603 -0.63082755
-0.04124070 -0.52350330 0.65992379
0.05704059 0.71842122 0.57926822
0.59186208 -0.00533861 0.63518310
-0.70612276 -0.52943718 0.14018340
-0.71382546 -0.48583591 0.18827541
0.33202857 0.37427989 -0.65921092
0.56512916 -0.38140208 0.42066544
0.61819017 0.57606936 -0.18515903
0.63799345 0.11685977 0.55810666
0.58981013 0.63221765 0.13023166
-0.37397939 0.36828694 -0.64025867
0.37359121 0.14330636 -0.78900278
0.41895473 -0.22585459 0.71631062
-0.63858414 0.31070068 0.44050258
-0.62538970 0.34951919 0.38511559
-0.14467205 -0.74623156 0.47917187
0.60029221 0.02078842 -0.65369892
-0.31347856 0.72109914 0.05509883
-0.57485437 -0.62051606 0.03052828
-0.52784002 0.65227222 0.09387169
-0.43224323 -0.40222451 0.48890132
-0.14672759 -0.79627752 0.19507927
0.44042948 0.11508500 -0.81929338
-0.52965069 -0.57290840 0.26971686
0.09583303 -0.74299407 0.51560497
-0.81745398 0.20686187 0.11512825
0.43374640 0.32428491 0.63693655
-0.12312333 0.48081049 -0.67432392
-0.32246968 -0.35037667 -0.70688987
-0.69286013 0.24862491 0.44437379
0.51383770 -0.34258884 -0.50304794
0.68831754 -0.58960676 0.01877198
0.39883119 -0.03624137 -0.83557713
0.80524063 0.44296518 0.13300452
-0.80294955 -0.06959875 -0.11650968
-0.60734844 -0.29110646 -0.46924317
-0.55598092 0.50179768 0.30623049
0.11496721 0.67239642 -0.56402159
-0.48043376 0.53042805 -0.35101125
0.82329690 0.38695970 0.07563753
0.27291021 0.56767905 0.53185749
-0.66151142 -0.60665381 -0.08352211
-0.00641185 -0.84031069 -0.49484876
0.30174711 -0.68082190 -0.37683773
-0.37478554 -0.65695429 0.35680464
0.33967152 0.03151333 0.83256817
0.53189123 0.20705253 -0.65835834
0.27571630 0.57661343 -0.54103494
-0.01503860 0.84981453 0.07001684
-0.80657899 0.10191616 0.16988656
-0.34094888 0.64250517 0.39987963
0.51763844 0.33151773 0.54386485
0.61258185 -0.11462913 -0.62576342
-0.50049925 -0.20241238 -0.65995622
-0.04718521 0.21745765 -0.76147628
-0.05746393 -0.83066595 -0.38957137
-0.15164217 0.77930307 0.23069122
-0.08041903 -0.82024896 -0.45828637
0.00316510 -0.86103952 0.38012719
-0.73161125 -0.26352099 -0.28098282
0.57202053 0.18621168 -0.59034634
0.75699544 -0.24929592 -0.26593661
-0.69874728 -0.21382876 -0.34340364
-0.03377754 -0.82038236 -0.28763098
-0.15437561 -0.31746820 -0.72400391
-0.02890939 -0.83437550 0.05497606
0.61902022 0.60320401 -0.07539123
-0.44045150 -0.67889297 -0.03351150
0.17292795 -0.77359819 0.19386752
0.76467752 0.34965652 0.22524953
0.50455761 0.48520154 -0.37591600
0.45196095 -0.38403511 0.52497423
-0.39621478 -0.60340989 0.38556564
0.79767835 0.13840453 -0.12036194
-0.47132865 0.69427800 0.08854780
-0.62836444 -0.11613934 -0.64378786
-0.44197720 -0.54392815 -0.43219048
0.47247049 0.34169775 0.55322123
0.29866487 -0.74905574 0.11659289
-0.34558409 0.72181571 -0.08347248
-0.29859352 -0.41986245 -0.65631402
-0.78714776 0.01658047 -0.14616133
0.05740593 0.84198153 0.33871883
0.11584689 0.06483471 0.80964589
-0.80270302 -0.29933888 -0.18818009
0.07194316 0.62464857 0.61960304
0.25695810 0.22405121 -0.77566075
-0.80668569 0.15380773 0.09553034
0.27848625 -0.39956200 -0.70907032
0.05832900 -0.84555852 0.21682042
-0.40692383 -0.36579669 -0.61612523
-0.08648048 0.82021010 0.07276406
-0.03327144 -0.16549475 -0.77529633
-0.00800773 -0.84784460 0.31100479
-0.27164152 -0.22390816 -0.75763965
0.36200351 0.69875836 0.33247843
0.79804635 0.08516825 -0.15813416
0.42293420 0.60551286 0.35678658
-0.10654288 -0.79106510 -0.06138893
-0.73008013 0.56494963 0.07156084
0.18925868 -0.79529631 -0.27521500
0.43966171 0.20667601 0.72757566
-0.40635824 -0.06350497 -0.85811830
0.67361152 0.26424876 -0.46463734
-0.48017132 -0.15439141 -0.72730970
-0.44669396 -0.33108959 0.58688021
-0.02661955 -0.72148180 -0.57245684
-0.33554232 0.61253273 0.47051212
-0.15655245 -0.58658063 0.60877156
-0.49716398 0.10440093 -0.78073955
0.20218618 -0.32071003 -0.72064185
0.22929075 -0.77201831 -0.36562651
0.44601402 -0.32963532 0.59403074
-0.71949911 0.56542802 0.10397546
0.78719640 0.00389237 0.14397915
-0.76756787 -0.24508807 -0.24518025
0.71533906 -0.55905926 0.01079494
0.59069407 0.47415736 -0.29603368
0.51383400 0.45945534 0.40347669
-0.08678021 -0.82229888 0.15925410
-0.82962430 -0.48532850 0.04327049
-0.67200685 0.09800103 -0.43337470
-0.70493054 0.15544887 -0.36496878
-0.11475121 0.39425486 -0.68937314
-0.45015186 -0.41965866 -0.53374493
-0.34080637 -0.65427208 -0.40461406
0.48604518 -0.57508075 -0.27377838
0.15880097 0.24450523 -0.76570141
0.17934468 0.18487835 -0.78197920
0.32784638 0.17835186 -0.80910015
-0.69085312 -0.30452546 -0.37998834
0.14552572 -0.78640878 -0.38542512
-0.76191056 0.00697597 0.21018057
-0.26891625 0.08075283 0.83002079
0.23265801 -0.66651940 0.48939520
-0.46723741 0.27368608 -0.64763176
0.28221780 -0.63411403 -0.47305375
-0.06765165 -0.07781548 0.80634856
0.75727129 -0.22009367 -0.21069728
-0.44812474 0.45039520 0.47636282
-0.67000699 -0.05323023 -0.45565143
0.20608011 -0.30528560 -0.75867558
-0.23976646 -0.73039711 -0.42788473
-0.74799800 0.34504595 -0.28130084
-0.29226473 -0.31847852 -0.71209073
-0.05071951 -0.01963576 -0.84581506
0.33312887 0.44237471 -0.56767070
0.52092874 -0.02275397 0.81915128
-0.49503195 -0.36896122 0.53646672
-0.79733455 0.42851123 0.12748368
-0.79740942 0.21646000 -0.12217010
0.52247155 0.66728795 0.15352638
0.10577988 -0.54734552 0.65239644
-0.66997087 0.45033166 0.25272569
0.28998306 0.57859206 0.53171861
-0.47913116 -0.07510571 0.83426499
-0.20299736 0.54786348 -0.61056852
-0.22145365 0.16177586 0.80380118
0.50718963 -0.09029511 0.76449430
-0.80249298 0.44878918 -0.11444784
-0.56623197 0.29077178 -0.51015067
0.35791627 -0.67065310 -0.35185161
-0.72165966 0.30608696 0.36210123
-0.29570472 0.23596574 -0.76225626
-0.17396244 0.38729882 -0.68848670
-0.82788193 -0.43859923 -0.09007987
0.58596420 0.46417296 -0.35536915
0.72098732 -0.00596566 0.29515001
-0.74352026 0.05489764 0.30370879
-0.06736784 0.49781755 0.65979147
-0.25313821 -0.65944171 0.47161597
0.08075929 -0.51054525 0.65620613
-0.09189183 -0.83310795 0.13398987
0.15315802 0.53077078 -0.65966976
0.34459087 -0.55831563 0.47470930
-0.60122442 0.35106969 0.41547242
0.30541837 -0.71829486 -0.29588342
0.76023436 -0.00014292 -0.19161801
-0.71801353 -0.45137382 0.18895099
-0.70600748 -0.24736150 0.35395575
-0.46499634 0.08194219 -0.80817604
-0.30935499 0.56524730 -0.49683177
-0.21813816 -0.74028277 -0.06671105
-0.72706652 -0.12813590 0.29820845
-0.65259778 0.00893145 -0.53572297
-0.17387818 -0.65762091 0.53338897
-0.64405024 0.59803963 0.14094216
0.07868952 -0.78798294 -0.48646781
-0.84191918 0.23076667 0.05487639
-0.29810184 0.15439841 0.80949450
0.43439624 0.57056832 0.38526925
-0.71236038 0.57260585 -0.05081712
0.47315508 -0.32497472 -0.56940508
0.74450481 -0.13213184 0.23941666
0.37206525 0.64862716 -0.34823701
-0.69816589 -0.35256857 0.28520933
