23.37796402 -39.72450256 12.06250286
8.29501629 -39.90367126 17.39824295
27.12693024 -27.94952583 44.21746063
15.83564949 -7.39370346 16.11929321
17.53965378 -32.53479004 0.63487816
5.16761971 -14.81079865 14.79419899
5.83476353 -26.27782059 19.32084846
25.05118561 -3.90959454 30.41991425
30.63486099 -31.63830185 38.14262390
3.46532631 -21.39070320 13.51032829
48.08393478 -38.19265747 51.46074677
15.06282616 -29.99456215 0.15954590
34.83669662 -13.01511002 25.23120689
15.06706429 -15.01293755 1.34767914
29.45261765 -10.14228058 18.04253197
37.86341095 -37.17997742 21.09442520
36.31451797 -25.22396469 43.37211609
-2.71740723 -20.61398315 -1.43789291
34.28683090 -12.92726421 22.11861038
38.88903046 7.77146721 29.39502144
28.60306740 -42.94220352 20.45476723
39.77113342 -36.10494232 24.44592094
17.31766129 -28.57835007 21.32342339
1.56848717 -34.97608948 -0.66031456
49.65007782 -39.28019714 48.56136322
38.22248077 -20.84335136 22.83132744
21.07748413 -33.05685806 24.34028816
38.16394043 -16.02705574 30.54591560
12.65899754 -12.99423790 22.33517265
1.44537735 -41.39701462 6.75779438
3.65758133 -13.12048721 10.11457825
29.50808334 -29.64233398 17.96284866
12.44595051 -32.48805237 24.56557083
6.82451153 -11.56051445 5.90200233
29.16095543 -1.83710766 18.71527100
15.15074348 -35.42201996 -1.80589676
21.48120308 -27.58876038 9.00387764
36.12208176 -8.32435036 33.88281250
7.24828339 -14.55491447 17.96629333
21.61625862 -36.57976532 39.65540695
33.73467636 9.84525108 21.66805458
36.51049042 8.90183640 25.51933861
35.30561447 -6.68681622 28.40177345
9.55016041 -28.32515144 -2.75939941
28.42807007 -0.54318523 34.20690155
8.86248779 -14.32244301 18.64588737
23.57706642 -3.63643169 17.75946426
14.40739250 -39.78112411 6.97577572
1.32782173 -19.41199112 4.43964005
28.61624718 -23.22563553 13.01924324
41.40834808 3.19179726 33.77506256
18.56374550 -27.44434166 -0.26194954
43.55665588 5.53605270 35.34432602
0.45634270 -29.52863693 -2.25602913
0.42585564 -36.16106415 12.40880013
30.42851639 -17.33691788 41.48128510
21.69854355 4.78218269 15.08894348
23.00368118 9.75560760 17.89155960
41.97218323 -31.24862480 31.52123260
19.80014038 -10.41650009 31.32754898
34.06593323 -6.95462227 33.83706665
31.18825531 -19.22651291 17.71698761
23.82929420 -5.31647396 17.34742355
29.53168106 1.74664879 35.65869522
44.26342010 -29.72229767 47.54561615
25.53136063 10.17166901 23.61293602
35.41027451 -19.66288948 44.96139908
17.75728607 -14.22168159 29.98962784
1.22698784 -35.78874969 14.44993019
30.69799042 -35.44532013 45.06700897
12.02109528 -34.31008148 24.74118614
39.74185181 -17.37305641 33.22572708
19.66595268 -36.32954025 1.51771545
33.45718384 -15.79828072 41.19358826
14.90499496 -15.24909782 27.44157791
1.51171112 -26.94343376 -8.84878349
36.51982498 -2.15934086 34.66887665
33.72766495 -29.38626862 17.31849670
24.29795837 -37.16141510 26.77553177
41.80310059 0.87589455 32.54018784
21.20388603 -32.00396729 7.65883446
17.52224731 -7.23330498 12.14398384
38.08420563 -18.40787506 43.43984985
5.97693920 -36.70374298 18.93265915
5.67017555 -30.20672607 -0.93062210
26.72643471 -3.86610603 32.75642395
6.88433838 -16.31377029 -1.01376915
42.89616394 6.46392441 34.41893005
19.85798454 -40.35728836 12.84802437
28.15661430 -34.91857910 46.52315140
-2.48383713 -33.88532257 1.73011208
21.66308212 -31.78127289 23.71001434
6.55737686 -13.25364685 15.22151756
38.19665527 -3.02264023 29.69194794
12.11883736 -33.75152588 26.65385818
33.53216553 -30.84584999 41.09648132
4.55545425 -35.81720352 3.27129745
31.03802109 -13.60581875 17.21222305
19.04253769 -34.74578857 37.49504852
10.10290813 -33.79726410 22.15885735
10.62622833 -40.67864990 4.92097092
0.68093681 -33.29750824 -4.77683640
15.36054611 -31.65080261 11.69094276
27.08647728 -32.60909653 46.09547424
10.22132683 -23.89859009 -2.72152328
23.64476776 -29.42439461 39.71342087
21.78162003 7.80656433 14.65888596
0.80665779 -32.85115051 -4.67700958
26.17750359 -36.08216095 31.96909714
11.10399723 -16.66291428 22.31014824
31.94330025 7.03865051 38.02966309
48.57144928 -39.56314087 50.45439148
17.34317398 -24.04456711 0.55031395
36.77684784 -28.27220154 42.48057938
26.48784065 -20.59366417 9.10978413
20.43281555 -40.09236908 14.27255726
42.57222748 -28.48671341 47.31085968
-0.99863243 -40.08213806 7.64379406
18.63582039 -23.52183151 34.87294388
36.19798660 -1.53296089 36.31729507
-0.59421349 -26.43761063 7.36761761
29.92458534 -41.23391342 21.56307793
16.55227852 -30.71306992 33.77611160
24.96618652 -28.39937973 17.43006516
21.38434982 -33.42134857 7.95324039
25.55277061 -13.63032818 10.01427841
5.89698505 -40.33803177 11.50564480
38.30230713 -36.90605164 21.82847404
47.79468536 -32.52885437 51.42489624
39.93407822 -19.52716446 32.72874832
23.13891411 -34.09796143 15.07295418
5.24080658 -39.92210388 12.24002361
33.34782791 -37.20873260 28.18938065
42.90412140 -34.43636703 49.71430206
21.28325272 -39.50774384 37.49573517
0.91720963 -25.71190262 2.18546486
38.10570908 7.72310829 41.13990402
15.19066811 -34.29079437 -0.16587448
29.69156075 13.40222359 23.92860413
36.91014099 -1.73159409 25.66710281
18.00533485 -38.35556030 8.16884136
18.58107758 -27.41995811 1.46843529
37.69870758 -20.02070427 44.25819778
43.54964447 -31.57233810 40.44079971
36.47179413 -26.82210922 21.63391685
45.23582077 -29.38409805 38.17602539
20.44553757 -32.47035217 38.99780273
35.66690063 -35.58035278 30.60376358
19.57161522 -21.86145210 3.22780800
45.62738419 -38.66173172 44.96507645
36.10319519 -17.93581581 43.30602646
25.85029793 -11.34487534 12.00794125
47.39080048 -32.48736191 51.27243042
29.92059326 10.57364082 30.11704636
18.89822960 -5.01682186 13.52008629
48.87856674 -38.12034225 49.47154236
8.92931080 -24.09199142 17.81816292
46.03755188 -39.24283218 45.94440460
26.41320992 -23.93717194 11.48659515
21.87001419 -38.48876572 23.44446754
30.32359314 2.93417358 36.77554703
6.57978153 -12.74237823 7.30116844
47.91398621 -37.06784821 50.11473846
35.92439270 -12.83930969 27.15958786
42.96054840 3.18968964 42.73471069
41.66442871 10.92786980 40.05268097
31.19698143 -28.15407562 44.77513885
7.01350021 -38.16717911 20.03762627
2.94769669 -25.97469521 14.96316719
36.33234024 -29.92893600 38.75044632
8.21688747 -28.79702377 -1.68967438
32.73903275 -22.18909645 17.91951942
9.29333496 -26.48802948 -2.86592674
22.43441200 -32.35040283 24.56500244
37.76757050 2.75031281 26.95405197
6.00066853 -30.43017578 -1.26960373
18.25436211 -29.43237686 33.95080948
24.21666718 -32.27932739 22.31941986
21.38807106 -9.07488251 12.50178623
17.18060684 -39.00121307 2.17994308
-2.14264488 -21.51689720 0.06284714
8.48270512 -38.87911224 2.70242691
45.07636261 -30.09490204 48.48993683
25.01396942 -8.74073982 31.13959122
7.60375023 -36.04355621 2.81058502
22.88798332 -13.36774445 36.18761063
27.45474434 -19.57724762 11.26694202
-0.44099617 -30.62822723 -1.25712395
20.56433678 -3.92156029 25.51792908
41.09694672 2.71077347 29.59616470
28.77220726 1.93132782 35.94918823
-0.96924210 -30.28291130 -4.78948975
11.28821278 -12.70543385 20.46716118
39.28003693 -33.64208221 24.63331795
27.89598846 -22.55045319 11.27639103
17.31700897 -34.20747375 -0.31194878
6.19634247 -40.55185699 14.73453331
22.42940331 -9.19548988 13.09779739
34.75597000 -24.30819702 19.18308830
39.12993622 -0.94448471 29.20544052
42.68010712 0.13799286 40.04828262
25.29995728 -4.30756855 16.71440125
15.17714405 -26.27065468 24.36382866
13.61580753 -15.84171963 24.75069046
21.29199028 -3.20680141 27.05476189
42.21909332 9.81398773 35.14253998
42.34497833 4.87168694 38.09522629
30.32235336 -41.49427795 16.91818047
2.88878822 -17.87045097 -0.54654694
22.63359833 -34.66485214 24.96926689
15.69904900 -26.04347420 24.30428696
27.85064697 -28.38167572 45.77494812
28.69241524 -41.48937988 20.97019958
16.74280548 -35.13639450 19.45506096
9.63551712 -40.63780594 7.35462666
24.18094063 -24.88820457 11.16193485
39.66268158 -32.31595993 22.86307144
-1.37612915 -28.38310623 6.11297703
17.04427338 -6.18340683 17.80201721
0.08576012 -37.84396362 10.88525009
5.85176754 -19.81128120 17.81682396
21.72385979 4.70178986 14.04764366
19.65061378 1.46667099 16.53219604
21.56251335 -36.83653259 40.61074066
17.66105270 -31.54833984 34.19695663
14.33129501 -26.99193192 26.59223747
21.76974869 -27.59620285 2.75203133
6.45521355 -11.87789154 14.00784588
37.83937073 -20.05484390 24.05294037
37.08146667 9.74803543 34.07469559
39.97878647 -2.17403126 37.88124466
40.28698730 -14.51007557 37.88926697
25.64780807 -33.77966690 14.42403030
11.45322323 -23.87039185 22.29474449
22.64616776 -13.08103561 7.65093994
8.29895401 -41.07351685 14.50929260
35.86138153 4.65860367 40.27455139
39.31499481 -23.91702652 25.07231140
24.39512825 -9.69788551 12.17201614
26.32227898 -9.87767029 14.03059959
33.55890274 9.18686676 37.67713165
27.14616013 12.66953468 25.31079674
34.13074493 12.05552864 27.11530876
42.05198669 3.34679604 30.12152863
40.97135162 -24.19298935 36.33970261
30.69060898 -32.79953003 46.29093933
18.45461655 -18.99731445 31.77121735
21.12225533 2.63778305 13.90278435
19.89758682 6.06003571 22.14418983
10.64405346 -8.85837650 12.89053249
14.68324089 -41.71200562 17.79639053
19.41767693 -39.95166779 21.27298927
43.37657547 1.39330482 41.64541245
35.18233490 -12.88303375 27.16006851
22.75923538 -7.67807198 29.54360199
39.94368744 3.81842613 29.05333710
27.85348511 -29.25026703 45.48146820
36.73634338 -1.39111900 26.96368408
7.02679920 -35.40187836 21.31328011
34.73220062 -6.67585182 30.84889030
1.41034126 -27.80734825 1.08602905
35.09259033 -17.01819229 43.75815964
1.45498085 -34.06520844 -3.63101578
4.38392448 -13.78927803 -3.35475349
27.63789940 -17.72124672 39.15508270
27.13597298 -32.77124786 18.08069992
4.96255493 -25.23481369 -4.25877380
45.93576431 -33.69329071 52.49287415
39.47853470 -1.92059803 29.23246384
17.53795052 -21.98548126 1.68058968
19.74254417 -25.72034454 36.59587479
29.74135590 -40.10655975 21.27914810
3.90027046 -19.74180412 -9.44334984
36.60423279 -11.13376999 36.53215790
34.97942734 9.57772255 21.41915321
14.81245804 -28.21144485 17.95575142
-3.19833946 -19.44666672 -8.73501396
13.40070915 -29.46493530 25.84568405
23.08372307 -6.90192604 16.11754990
23.01756859 -25.67329979 5.37157249
35.40802383 -16.82234573 42.24204254
40.39198303 4.10319519 28.94709778
6.45067596 -39.55952072 16.05779648
44.93543625 -24.41444778 41.70058441
12.10009861 -17.97031403 -0.32364655
32.98384476 -11.79736710 19.99357224
5.37616730 -13.13053608 0.92713356
-4.33987045 -23.11163330 0.73395920
7.27131367 -38.11204529 17.33567238
25.03637695 -38.34729004 19.23050117
44.03197861 -27.39320374 36.21685028
18.70356750 -34.08097076 14.65039635
1.48184586 -19.91431236 9.79698849
1.66433334 -12.82057858 -5.18875313
15.98216248 -20.53535461 -0.67552567
41.75422668 5.00934601 40.17802811
34.15541077 -3.78004742 25.59793472
8.27866650 -20.04562569 -1.71683502
47.92700577 -32.21371841 49.81600952
17.31907845 -33.66102982 13.83419609
32.91679382 6.64938927 20.47350502
34.99329376 -13.46125793 42.20701599
20.56369781 -29.54628181 9.39919758
41.27738571 -33.29541779 31.09294510
34.89981842 -35.58423615 29.51722908
27.62386703 -37.32372284 44.31960297
33.10836792 -28.21737480 18.43073082
9.30754662 -10.03458118 13.65961742
20.13131332 -2.24485970 26.52615166
37.92223740 -33.43035126 21.98486519
22.97432327 -14.23342609 36.85261154
30.64740372 8.22318077 35.62707520
18.57523155 -10.08721161 8.77432156
27.55633545 -6.53175640 18.66996765
26.65091705 -18.32965469 9.65420055
35.26748276 10.63996696 37.44353485
38.33470535 7.80361176 28.92656326
20.89968109 -7.24610567 16.16203308
27.19064522 -5.09117794 18.03258705
3.52884674 -19.49541092 -0.07894897
11.27358818 -10.63543987 4.31231499
33.84365845 -2.78379440 24.77104378
5.90087032 -28.13477707 -8.09471893
31.58109665 -33.21212387 16.11283112
24.06423569 10.46134186 27.96913528
7.10914326 -13.30253601 3.40581512
-2.38182831 -35.74385071 3.50107765
36.06369781 -31.94091606 19.85553741
25.03732109 -32.67540741 16.04936790
10.01609135 -10.40370560 14.75330353
30.77815628 -17.62815475 41.94446182
2.07060242 -39.54603577 10.32315254
28.26233673 -34.13199615 38.77425003
37.71551132 -3.92527580 31.30893326
24.25750351 -20.75955582 6.98103809
26.27689362 -26.88048935 43.45730591
20.18923378 -0.56883240 17.60935211
9.30109978 -10.77250862 7.10655403
21.86378288 -13.58696556 35.04015350
38.38867188 -31.28117943 22.35665703
28.45276260 -34.00913239 47.08164215
21.91271400 -34.23423004 41.95354462
29.33663559 -23.67081833 13.99311447
15.75808239 -16.03104591 27.65371704
18.69405174 -33.94001770 1.20406914
24.78576469 -37.86783600 8.94883156
27.84782791 8.01849365 20.31436729
40.53424454 -15.28714275 37.75949097
20.85340881 5.53670502 14.84726048
7.96802998 -14.69832230 0.22386360
27.46290779 -37.84395218 27.40402794
46.55762482 -35.27790070 45.01885605
48.59962463 -36.61041260 45.59869385
41.00354004 9.36628532 35.08790588
23.81937218 -37.75509262 30.58739853
21.67880058 -12.00267029 35.03101730
5.13226318 -28.47934723 -7.36537933
21.16794205 -32.96581268 24.13077164
18.99469185 -41.22660446 20.96760559
29.95517921 6.83478546 19.26916504
17.99608421 -7.75855398 12.84807205
36.23806763 -34.75014496 20.27846146
10.53922939 -40.78602600 24.98169708
46.19564056 -27.31003571 45.03256607
25.12151718 7.80492210 18.43978691
16.83493805 -28.32957077 29.60612488
21.77970314 -17.41585159 4.25219536
5.01797867 -21.92656326 -7.83307457
32.08050919 -38.83046341 17.54918861
43.25736237 -34.16617203 47.54766846
19.55707741 -32.90612793 8.00730515
32.12042236 -9.99821472 36.70017624
18.74123001 7.51163292 18.26090050
36.43907928 -9.05969048 29.05413055
23.77519035 6.96298027 28.27926636
20.73556328 -36.72940445 1.93873978
36.81024551 7.85881996 24.78149414
31.10036850 -42.74114227 18.57655144
12.81036568 -11.37037849 4.19372940
4.17681313 -26.87795258 -10.42644310
32.01961517 -25.86269760 44.84655762
43.16682816 9.48411369 36.42004013
1.03299713 -29.82279396 0.42855644
20.44657898 -39.33389282 11.03715706
8.44229031 -37.10805511 1.76067352
32.64133072 -28.45325089 17.30044937
12.25251865 -40.88275528 9.99619865
35.31460953 7.83022308 39.50374603
40.93362427 -25.97407150 30.55854416
14.87560272 -28.57605743 18.58900642
45.54798126 -26.29071426 42.77505112
24.18958282 -40.81232452 18.18725586
17.84343147 -41.51734924 21.41178131
16.84619904 -15.91478634 2.01417732
40.80055237 -33.68724442 26.57619858
-3.64781570 -16.06773376 -2.66233444
35.92675400 -5.59856224 31.65028000
14.09883499 -24.20730209 25.75790405
21.40368652 -27.14502716 14.27499008
16.29363823 -31.38363457 14.50945091
-0.78492737 -32.56877136 10.17523956
1.35502052 -30.15372467 -0.77507210
25.92176056 -25.64506531 40.28814697
39.00860596 4.43386650 26.49971771
6.74688530 -32.67185211 17.31337738
12.24087334 -37.97698975 24.99944878
27.92705345 8.23583603 31.48506927
19.36018562 -4.01933861 20.56136131
44.87940979 2.39545631 38.23054504
38.39875412 -20.13044739 26.36162186
6.16770077 -22.75899124 -3.44232559
15.55434036 -5.37428570 12.91031551
18.76076889 -38.24076080 4.94316864
34.78053665 -9.11573505 34.47591782
5.59384346 -21.71795845 -7.57476807
2.61892509 -8.93935966 -0.69359970
33.07124329 -1.16543961 21.82081413
14.14496994 -17.92706108 27.54042244
12.51217651 -25.50007439 -2.47169113
20.24549103 -8.32596016 13.40958786
13.84956551 -23.85207367 25.58299828
11.91680813 -17.47690773 23.35593605
20.64954948 -17.72130013 2.61754036
11.48701000 -39.82954407 -3.41127777
49.04010010 -33.70328522 51.09095764
-1.38076782 -15.85943890 -6.00665474
20.37176704 -32.91327667 6.98760796
28.68065453 -14.99057198 14.43064880
0.05119324 -32.94018555 -4.20060539
20.15307045 -21.35517693 3.40148544
34.27090454 -11.02652168 25.60465813
35.79790497 -7.77352095 33.93605042
43.19666672 -25.99936867 36.50356674
29.67857933 -12.47102356 38.17544174
23.12448502 9.66256714 26.84486771
4.34990311 -28.89367867 17.14970207
41.12937164 -24.85263634 43.44401550
36.29434586 9.27293015 31.63062096
11.33051586 -9.68537235 16.90414810
21.14278603 -10.15954971 32.57004166
41.03466034 -16.02220535 34.51195526
39.94484711 -32.64367676 33.31095123
33.86782837 -33.36268997 30.47398567
21.83671951 -34.73797226 39.16117096
39.89429474 -34.10127258 24.32584000
34.77482986 -35.14524460 30.11898041
21.26805305 6.46452904 22.98907089
-0.80571365 -28.99703217 5.96715069
18.32463264 -39.54080200 6.95875645
-6.60319138 -23.47176933 1.13826942
1.51624680 -21.39490318 10.80609989
-0.65106964 -15.85042953 -8.20423698
29.78036499 -31.94946098 15.34082508
46.46446991 -40.87586212 47.58093262
37.94101334 9.44531631 29.56030273
3.74817657 -14.59459305 11.90089226
24.44683838 -12.39225960 10.32326126
25.26247597 -31.97976875 21.22440338
38.06377411 2.53824615 27.33882523
20.37419701 -3.77457714 15.37497520
7.67346573 -11.27330112 12.47930336
-1.08691406 -38.98733521 3.46858597
3.28664207 -17.12247658 12.25265694
37.61030579 -23.15419769 23.27476883
39.49216461 1.56325912 43.17794037
27.54195213 -37.30088043 37.83221436
6.19946384 -13.78633499 5.11356354
13.19874191 -40.10104370 5.79922867
21.33241653 6.58152962 27.48567581
13.16211319 -20.26815987 25.47699738
33.99124146 0.14216423 37.96708298
29.43756104 -38.04367828 13.47166443
38.44327545 -14.76228619 29.88374710
18.29900360 -5.43101025 18.83341217
9.28850651 -13.77838326 1.55381584
4.72990990 -16.54910088 -2.10856247
-0.42885017 -30.35805893 7.09463692
18.71857834 6.15819740 19.81006813
15.53869247 -39.89847565 30.21784210
35.29169846 -34.24194717 18.56991577
24.37982941 -33.90048981 20.90071297
-0.49223328 -35.10772705 -0.28222656
34.50915527 7.29479218 25.06994247
2.41258049 -38.80051422 3.00553513
18.55664253 2.56425285 17.29198074
23.26378632 -25.94239807 6.98093891
20.07954025 -7.76954651 14.64513779
19.34011650 -13.23569393 6.13922691
25.47675896 -33.56315231 19.06384659
7.16012478 -36.65207672 22.09826279
22.07663155 -0.91959286 28.84564209
-1.74673653 -25.63086700 -7.76511192
29.32233238 -35.02949524 40.21183777
12.48034763 -41.07570648 3.19048691
41.87945557 2.61677742 43.51278687
-0.53353691 -33.97532654 2.85817528
31.55894852 0.13347149 20.28599548
17.69902420 -25.11113739 0.31150436
38.28116608 -12.98374653 33.06229019
2.93297768 -10.23555756 -5.29867172
22.80066490 -29.66837502 6.21004868
10.00378990 -18.28112030 21.11554146
39.63561249 -17.01053047 42.06686783
34.41271591 -35.73152161 29.71946144
7.14384842 -38.71619797 20.64068985
37.98192215 -3.85616112 31.47540092
4.10549736 -39.43461990 5.40232658
44.80239105 1.47899055 38.52609634
23.14536667 4.85325623 28.31913185
39.96113205 -27.12115669 25.41067505
16.54654884 -7.63980103 22.12528419
20.63206482 -8.27879715 29.20396042
30.40178108 3.50140381 18.43225670
24.60573578 -31.60700798 22.46748924
16.47706604 -36.42045212 32.40603638
28.36578941 -37.16577911 40.08664703
39.21793365 -27.78899384 22.73416138
41.75473022 -21.88483429 39.28066254
36.45428085 -5.89581871 30.38469315
18.98419189 -3.70372772 19.74913979
38.46812439 -17.31305313 30.43010902
-3.10730553 -19.66532135 -1.73246765
19.37412643 -1.97933578 19.95424461
18.82095528 -31.52167702 36.05269241
20.71022606 -12.66333008 7.03990746
40.37972641 -23.60999680 42.18981552
-0.39628601 -25.54544830 -8.27310371
14.98288345 -30.84838486 16.15239716
15.71232700 -17.71983337 29.20451736
26.53406525 -30.62940216 20.01513290
30.78853035 -35.19605637 14.51099014
4.79079247 -12.48580551 6.17087173
34.86084366 -1.43233776 35.81694412
23.69279480 -25.59805679 10.73786545
18.82023621 6.15724754 16.18627548
9.22808743 -42.79968262 6.75619221
36.90442276 -15.04282665 28.38917160
2.15614891 -29.56785583 -6.35674095
8.20566845 -10.29997635 5.42346668
26.60406685 -32.70595169 18.15462875
40.25282288 10.06374550 37.48584747
6.57134056 -41.73508453 11.56541061
7.87153530 -20.03015327 19.03937912
23.78182793 -38.75261307 35.87997055
35.37265778 -14.62561893 23.82858658
5.84392357 -23.41273117 -2.29109001
30.37035179 -5.83455467 35.21329498
23.98521996 -25.48473740 12.80285072
32.05220032 -18.54277420 18.54265213
37.35242462 7.98930550 40.64241791
26.78766251 -27.04744339 40.27565002
14.26389122 -10.65114784 21.43597984
4.16312599 -38.50138092 15.76818562
26.01597214 0.47692490 31.40670776
19.84226608 -36.29588318 19.43956566
7.66647530 -40.99306488 11.14681911
40.32929993 8.17114830 33.20261765
1.55586433 -20.80203056 8.15218258
20.93270111 -35.49422455 1.85022545
6.55730629 -22.30251884 -8.13421059
26.89571190 -37.63877106 27.08040047
8.90072250 -29.28040886 -3.00303459
45.79808807 -39.87731934 46.50446320
18.40600586 -22.18511581 33.08016205
-0.13997841 -28.20206070 7.99983120
36.10412216 -26.34972000 43.14262390
22.59958267 -1.93628216 16.65809631
41.18159866 -30.13353729 45.25550842
6.64389706 -23.47196198 -3.61259270
44.62440872 -37.19121552 51.14568329
36.11613846 -4.54509354 33.74250793
30.79854965 -11.87871933 17.48921204
13.49040699 -10.87155628 4.77673531
9.18307877 -32.62503815 4.56559563
6.14682674 -25.26423264 -3.41091537
13.93737030 -38.95575714 29.90052795
-1.67090797 -34.99635696 8.16413116
42.76123810 -28.70446396 45.96758652
7.49379349 -26.06525421 -8.49041367
-5.45787621 -26.74739075 -1.11359596
4.21686554 -27.80109978 18.76968956
23.27419281 -29.38685226 20.29061508
2.42390633 -28.38557434 -4.41860199
44.25483704 1.38631821 37.72512054
33.24925232 -20.77223969 18.72888947
37.42857361 -11.22743797 37.97029877
16.94597626 -28.29331779 21.53788757
36.29162979 -8.49241829 32.26469803
-1.29915428 -24.33946609 0.08666229
29.95766640 -3.89259911 19.26206207
-0.18198013 -30.63538742 10.68155766
4.07152939 -21.03211975 -9.42053795
12.79009342 -12.64451313 23.66541481
9.08876324 -34.13587952 -3.57567596
37.16532135 -15.14733505 30.10052872
25.78152084 -30.71616364 21.39788055
35.51554108 -26.23938751 26.83646965
18.21713066 -8.35624313 11.76916790
9.43262768 -39.47460938 -3.34213638
44.92167664 -27.37552261 38.43624878
37.00561523 -24.82597351 20.78075409
15.46448040 -28.57324600 24.82772636
11.44279671 -16.44682884 -0.27582359
38.47096252 -1.86991501 30.34147644
9.96616077 -21.95736313 21.01334763
40.30752563 -30.74467850 23.99289131
36.60754776 -5.04878807 29.34386444
19.06533813 -19.95357323 33.70512772
32.44673538 -30.25868607 16.70156097
-3.71151161 -21.57224274 -8.02165985
27.47513580 1.92858505 15.12338543
33.39990616 -17.18109703 20.53848457
23.56664848 1.17998314 16.16705704
31.11222076 12.31350327 22.73847961
30.69117737 -9.31530952 20.23043060
19.14610672 -27.86056519 2.65607262
16.41259956 -40.72306061 1.81607819
19.82869339 -35.27807617 2.14756966
16.03289604 -32.70625687 14.15727806
40.82592392 -25.34389496 29.48417664
35.21656036 8.89006042 30.75279999
30.61413765 -8.63807297 35.24267960
38.61567688 -23.40823746 45.06157684
28.40471649 -18.09926796 12.40593338
16.50576401 -27.09505844 21.90340042
31.71304321 -33.97528839 31.49167061
34.19179535 6.99145317 39.74331284
40.68115234 -28.22056770 43.13864136
22.83806801 -39.90628052 26.02950859
37.66089630 -14.65321541 26.61456108
30.15802765 4.39200592 36.19244385
16.43061066 -35.57494354 -0.33231544
37.20774078 -16.99402237 30.13395309
4.21847343 -33.53272629 16.97157288
17.95261002 -43.71790314 23.86224365
19.69340706 -42.50909424 23.71095657
45.25602722 -29.71121216 38.06479645
29.53472519 -5.23505020 33.77950287
18.70826340 -41.70198441 23.60082626
25.60044670 -35.92274475 30.97913361
11.68133736 -41.19512177 2.72874451
2.18791008 -16.98305702 -1.68520546
22.64594269 -23.17031860 6.28011608
29.63678360 12.37830162 29.57017136
26.26711464 9.77738762 32.12850189
16.44634247 -41.31023788 18.54698372
25.52103615 -14.90240765 9.69243240
20.68637466 -12.12621403 7.25314999
31.68545151 -32.95918655 32.43370438
2.63090324 -40.65647125 5.19763947
2.41212845 -33.01562500 -3.96691895
35.82462311 -37.63622284 19.82456589
35.84799957 -4.03130150 26.30718231
30.11715317 -19.99190521 42.31305695
7.00016308 -26.50929642 -6.12995529
28.01632881 5.74795532 34.79106522
2.29479790 -33.89453125 -2.05581284
17.44722176 -8.07442665 25.92474365
37.85379028 -37.60916138 27.75811768
19.30213547 3.69376755 18.94599342
23.52071190 -8.68540001 14.70895004
28.30859566 -23.31959534 43.41570663
9.09964180 -19.13190842 -2.20845032
15.21414566 -30.80931282 0.61063957
-4.87060738 -19.56657028 -3.18811226
27.52957344 -8.26244164 17.31485367
17.75610161 -39.77059174 8.37630177
17.37261200 -30.14548492 12.77378273
5.02982521 -29.02609062 -7.75011635
41.51170349 -21.95726967 40.72944641
20.88798141 -30.13726044 22.60050201
16.76699448 -8.01330566 10.66084003
34.57666397 -21.55077744 20.69711304
21.08866882 -31.22717667 39.42352295
17.46528244 -15.15648174 30.55040741
5.09370232 -31.17862129 19.33691788
36.19882584 -9.63714027 26.12937737
17.04941559 -20.57622147 1.49514008
23.00119781 -33.52468109 9.85876751
25.63177490 -24.40304184 8.57974625
36.57341385 8.14361763 24.83465767
35.78369522 -2.55396175 33.94737244
4.50908470 -21.16970825 14.59110260
18.72597885 -11.25851631 32.60739899
27.84322739 7.54615784 17.87901497
19.23698425 5.65284729 24.46605682
43.27108383 4.87940979 40.67946243
18.58014679 -42.58069611 23.54860115
2.12419128 -6.77900982 -2.97570229
15.00499058 -29.42442703 30.25032425
37.39107895 -1.43988800 26.56195831
26.18578911 -21.21622849 10.54222488
-1.70974159 -16.96440125 -2.26938438
14.25829124 -30.95001411 27.90530777
1.96586609 -30.78401566 14.22323608
20.51689720 3.93216324 15.96863365
30.53027344 -9.66282940 36.19394684
19.89374542 -28.85271454 37.21395111
14.36534119 -40.08770752 5.63368416
20.08695602 -19.85397720 36.21327209
26.27064514 -6.07743645 18.32891655
30.21947670 -13.74965382 38.66973877
21.57061577 -40.34775162 17.17567635
22.99529457 -12.46080780 35.13304138
25.85257530 -14.26842308 37.68185043
8.14861488 -26.97066498 21.35004616
5.15279770 -14.46353340 12.39740467
21.81108284 -30.86774826 39.81253433
5.30697441 -16.88638687 -5.06945038
-0.58237839 -23.37436867 -10.85563850
23.81111145 -39.74703217 36.11871719
13.84715271 -33.84381485 -2.68418121
29.07126236 -36.77168274 30.92382431
-1.30585480 -37.54479218 7.69040012
15.60413742 -34.87696838 31.34203720
13.61711311 -29.12731361 18.67606735
1.70996094 -25.82343674 -0.78250122
49.37228394 -38.69197845 46.68096542
45.16399384 -40.22249603 47.57653427
24.11810112 -3.50337601 16.58826828
24.89455223 -40.44447327 12.55903149
42.29358673 7.49211121 40.30045319
5.22432137 -19.27539253 17.00157738
22.43002510 -21.76574326 39.47463989
5.56191158 -34.30276489 19.79024887
48.57964706 -40.43791962 50.23215866
27.51996231 -34.21323776 37.23403549
27.32930183 8.49475670 31.95096970
7.01009274 -34.71401978 0.42793083
-1.88859940 -36.88168335 2.55446815
26.85914993 -16.12179565 38.93846893
2.66520309 -16.29765701 9.19338608
6.31204700 -28.94043541 19.05891037
4.61507225 -15.65287304 1.94246101
14.71011925 -29.65908432 28.20330811
11.45958233 -34.87558746 25.62364578
26.14052200 -23.54767990 10.57219124
34.20343781 9.15809822 29.32752609
28.54789734 12.43068504 31.16395569
37.24691010 -11.69133759 33.23209763
12.68249512 -41.58830261 12.95001698
27.64498711 -39.26546478 11.42614555
23.54105759 -40.33093262 12.79855728
23.23990440 -30.40291977 23.64914703
28.82286072 -39.81648254 19.93324852
44.32823181 -28.08771896 36.35133362
11.14267826 -13.18601799 2.51584435
17.53402328 -31.92776680 34.57542419
13.57781029 -27.49403000 27.25472832
36.30615616 6.87335587 41.02389526
32.22929382 -29.47400093 42.80054092
37.33596420 -5.60906506 29.03227234
44.54589844 3.26955986 35.45181274
22.10157585 -32.57186127 39.58666992
-1.19905663 -23.93583488 -9.54781151
16.96155548 -32.63005829 14.23505688
34.26342010 -31.51088524 34.40539932
22.78255463 -2.31034374 16.18367958
13.71620369 -18.30260468 26.96582794
50.14336395 -38.30080414 49.08827972
15.66564178 -31.34939194 31.23944473
3.00690079 -34.14036179 5.73436260
18.47020721 -34.14125061 21.89466476
37.54576111 -38.00315857 26.69001007
39.28148651 -33.49376297 23.54748726
25.35391045 9.68165779 21.59004593
-4.87023735 -20.60621452 -3.36490822
-3.70327187 -17.23893547 -9.02679825
0.14815140 -14.01851082 -6.03442383
40.89670181 -15.93235970 38.50040436
35.15861893 10.88946152 25.72587967
5.39222717 -27.35389709 18.43394279
13.70936584 -25.86125183 -1.83582687
29.32981873 -22.97835541 14.56342125
31.64250946 -32.35310364 37.50926971
24.14224243 10.24116516 24.25569153
4.90497208 -18.77774811 1.64645576
-0.84740257 -37.50713348 9.69745636
38.11028290 -23.72513962 43.15756607
22.46671486 4.44685745 14.40202427
11.46129036 -8.06541348 5.26348305
3.55446815 -32.57738495 4.93864059
35.49765015 -3.96222305 25.62943077
33.99819946 -14.00922680 20.76567459
18.19359016 -2.58642673 19.12336159
19.58484268 -38.69812393 15.72990990
2.29139328 -32.00953674 -4.84978104
13.93510723 -32.53670883 20.83544159
36.27293396 -9.34515381 26.03947639
34.61247253 -36.77433014 17.32082367
1.48199081 -40.92863846 6.99441051
24.50173759 -34.27633667 45.74005508
-1.43760681 -38.23674774 6.07894516
23.04990387 -12.43333626 35.72848892
5.76867867 -18.52188110 -6.67623520
35.07032013 -26.64236259 43.48554230
26.65385246 -11.39386654 13.68743896
33.38438797 -14.62988091 41.15440369
32.69776535 -12.69598866 40.38793182
26.87021637 -29.10701752 44.44767761
28.39577675 4.02044296 15.38486767
30.14754105 -11.43196201 16.60322571
14.90091610 -27.19278717 -1.77828598
35.38401031 -2.45022297 34.38802719
21.29856491 6.82880592 21.48037910
0.52355194 -26.81045532 4.20334244
34.69194412 -34.78017426 19.51098824
4.89881134 -33.91172028 -1.37330055
12.24194527 -41.51807404 18.68693924
19.51281548 -30.64289856 36.79655457
18.29120064 -10.62436676 29.78898430
27.96334839 -16.98557663 39.78221893
40.95887756 5.30937767 29.30404663
12.41125488 -8.56893730 15.07743835
24.17035294 -18.58890152 8.74842167
1.45455551 -20.95343781 12.03120613
36.16436005 -27.83573151 42.54368591
29.91149902 -27.41529083 43.45778275
31.79105949 -26.59070587 43.69178009
24.73010445 -28.17222214 42.83378220
25.08989525 -3.21942616 31.64615631
15.34173679 -11.64574814 4.49808884
28.37443924 -34.65000153 37.88106537
-4.02981758 -22.84680176 -6.67205429
-1.31960106 -31.17406082 -4.23350906
23.60780334 -27.78114319 7.10669994
38.66568756 -28.24052811 23.13593292
10.87049484 -40.83483887 25.12741470
23.37123871 -37.92210388 22.93859100
23.15234947 -39.72780991 12.30660534
35.82149887 -22.84392166 21.85959816
1.92791939 -36.12488556 2.67075157
7.08530045 -14.60443306 16.44438934
22.40507507 -16.15244293 7.81808472
19.90775108 -42.43576050 29.23502541
0.27998161 -17.17896652 -0.97891235
36.05147934 8.32773399 25.29937744
-0.20596123 -22.78256607 7.58403778
19.88098145 -29.33483887 38.09052277
20.23049545 -41.25271606 32.34627914
13.49283791 -33.31780243 18.64052200
14.07467175 -32.67044067 -2.42661667
27.94611740 -6.67259216 33.74434280
14.97244740 -40.18251038 8.58521557
32.23208618 -11.04109001 21.25544548
14.58995628 -40.03948593 29.48320007
17.05256844 -14.69867420 3.72353745
1.94111824 -34.92338943 -1.81693649
24.36406136 -38.84316635 27.94727707
19.39431381 -20.74633789 35.13957214
11.23812103 -31.33135796 25.12677765
19.57321167 6.52367020 22.64001083
17.36231041 -34.57256699 22.12622643
30.51155853 -31.12245560 38.06339264
-1.65435791 -18.95252228 -9.41643906
15.54741287 -28.73106575 17.91229248
22.48468208 10.22317696 19.59163666
28.80105591 -22.80781555 13.56162548
25.04000473 10.83380318 21.61150742
35.41022873 7.14110184 39.03690338
28.83082199 -18.13888931 40.45875549
23.93563843 -33.92269135 17.80727959
20.97671700 -37.35511780 38.96079636
12.15350628 -40.90528107 18.25228882
22.96091461 -40.73729706 17.68044662
13.80873871 -31.05987549 23.44396019
14.62670994 -38.24256516 28.54277420
4.21775627 -19.42566872 -9.00796700
30.11416435 -37.63888550 15.28453636
-0.52973938 -29.81688881 -3.32447433
11.12681293 -7.65179157 7.45610237
25.64572525 -21.81669617 9.54523754
0.06909752 -40.67858124 5.12419319
44.02941132 -39.68953705 51.62263489
40.66829681 -33.86729431 31.51435089
20.25282288 5.07516289 16.13880157
34.22945404 -31.53145027 34.80878067
23.36281395 -6.72557068 29.19233894
27.11220741 1.54222870 32.69673920
21.95234680 -33.84878922 5.58905983
5.20892906 -33.36758804 -1.28104210
14.83153534 -36.72064590 -2.67809868
44.33766174 -24.43777084 44.33970642
22.12769318 -39.57792664 23.71201134
42.98371887 -31.22427368 42.41862488
38.16958618 -19.14525986 25.38848495
41.53316498 -18.15070152 38.90570831
28.50401688 -32.74395752 46.81450653
17.66421318 -20.01956177 30.08031845
36.02923584 -13.78200531 25.11820984
42.73505402 7.12764931 38.82286453
15.10381603 -25.52333260 23.54334641
1.93926620 -11.68596268 -1.76649666
18.70271683 -13.17417526 33.56895447
4.67756271 -16.06397629 -3.96948242
8.97961044 -12.33318233 16.73267365
6.84454823 -23.46596909 -8.36352158
25.01108170 -38.29158783 10.56914425
2.78439713 -19.20622063 3.60894394
-3.85645294 -21.20687485 -5.39231682
24.46198463 -32.82225418 23.14616203
21.74500275 -11.58230209 34.82135010
24.22216034 -28.98557281 43.27976990
15.08883476 -30.22671509 17.98287201
36.36429596 9.99741745 36.78847885
34.64628601 -12.21873188 26.99350929
46.20912552 -27.95123100 42.44667816
20.32485008 -30.90301132 0.99705696
18.50817299 -31.70778465 0.26216316
10.89456177 -41.87339783 22.82688141
42.81303406 -33.17955017 50.45837402
41.20005798 4.77811050 30.09204483
10.56135273 -16.93202591 -1.66436768
14.42707443 -25.77774048 22.82826424
-3.74606705 -23.04360008 -7.42919922
0.97583008 -22.96239853 3.21063232
22.42291260 -34.59123611 5.45581055
29.28409004 -26.39385986 15.09591484
30.86881256 -0.40838242 19.42828560
6.92350769 -38.24855804 3.55155373
8.87929916 -13.09291649 1.02762032
24.72570610 -26.78819847 8.69646645
23.27869606 -39.34140015 36.61499786
6.53298950 -14.32905006 -3.15034676
22.97157478 -27.33156776 6.91150761
-3.24056053 -25.03895569 1.15799141
25.28348351 -36.86371613 19.99012756
43.24055862 -29.81654549 38.70896149
15.64497852 -39.86457825 13.05877876
36.24782181 -3.04017639 27.27165985
12.89474392 -6.82805538 12.52857971
11.41712284 -27.17540741 -2.60042191
8.79990578 -16.13481140 19.03538704
22.16872406 -41.88114548 30.58264160
41.64263916 -18.85133553 35.38743591
31.49080658 -42.44345856 18.63076782
24.11296463 -30.29541397 21.77328873
0.28914261 -22.83964729 6.05067444
39.75716782 -31.74030685 34.51243210
24.62371254 -7.53811359 17.50514603
27.76178551 -33.85802078 14.23626709
17.92820930 -2.99877644 15.67114162
22.40418625 -40.36174393 34.65036774
43.27452087 -32.27712250 47.58466339
26.05374336 -36.24084473 36.45318604
14.01431179 -14.92655563 1.86380959
1.84652328 -31.64052200 15.46262550
10.25520515 -39.99295425 24.06453896
26.25803566 -13.23126507 11.67740726
29.04449272 2.95373726 35.17378235
16.96278572 -28.14382935 30.93696213
7.05014133 -34.26246262 -0.77017212
33.24334335 -29.58724785 40.91375732
23.40862656 -3.32509327 29.79221153
22.88701439 0.21984673 28.35073662
21.54352760 -21.11709595 4.71919823
-2.39703369 -21.08904648 -0.71524239
19.32065964 -38.73768616 13.09023380
19.79710960 4.83714676 25.09672546
3.60800362 -17.47635269 3.20954704
19.06487083 -11.13340569 30.35967255
22.02962875 -38.76151276 26.73057556
-1.86428261 -37.18402100 4.84562492
39.09817505 -14.47166252 34.21707916
5.18698692 -26.77527237 -10.03416252
18.81487846 -39.01038742 14.35566998
24.16230583 2.30417824 13.73212051
22.99762154 -1.95462132 16.52457237
25.60391426 -37.12213135 33.01844025
6.55912495 -19.61707306 17.81371880
26.84963608 -2.92613220 18.34176064
48.33646011 -33.99391937 46.79999542
43.91522217 -36.79786682 44.78079224
16.94848633 -40.08496857 15.58534241
16.60740280 -39.35789490 0.23912048
24.21914864 -7.17784691 15.20038986
24.63501930 -4.07080173 30.20840645
5.27211189 -35.25954437 19.07333183
23.41332436 -24.32225800 39.69450760
28.80796623 -28.82902336 46.23439026
28.79175186 -35.39186096 12.13813496
33.04815674 -16.24106789 18.75729942
27.72003365 12.53918648 25.01146698
21.75829697 -11.48739243 8.39140892
23.80216980 -23.04611015 38.89356232
23.61262894 -36.76374054 42.73936462
32.77312469 -8.58470917 23.46969604
1.48116302 -16.18906021 -8.32956886
27.74224091 -11.08467102 14.47939968
24.27163696 -25.07830429 11.97628498
39.87117767 -21.59927368 33.55970001
20.19522667 -3.13913822 24.22021103
33.57037354 -38.94687653 26.04324722
40.69949722 7.60909653 31.69865417
6.86282539 -25.44577408 -4.67871475
28.70827293 5.16992188 19.03294945
33.19966125 -6.78909969 21.96346855
12.65187550 -7.42356443 7.71927643
45.68924713 -31.27931023 49.69592285
32.72264099 -39.58611679 15.57147884
30.82624054 -16.42536545 15.14334297
4.72988510 -18.46621513 -7.78468704
32.08032990 -40.01280594 17.73802948
7.35736275 -29.77523804 19.95465660
5.58491421 -20.45705223 16.71225739
42.36613846 0.46816635 42.00631714
48.95432663 -37.27763367 47.33972931
11.32341099 -19.33845901 -1.53384399
24.26637459 -17.55490494 39.25492096
26.10401154 -23.03927994 39.84718323
23.16489220 -6.55073738 28.29271507
-2.27074814 -22.40599823 -9.89258766
19.77420425 -39.45180511 7.26043987
12.80887890 -34.32521439 -4.44454002
16.94494820 -29.24566078 0.39282036
30.47054863 -35.88566589 14.09982109
25.16081429 -23.51005936 10.90835094
28.44845200 -3.82590771 18.10289764
33.36189651 -0.43452644 21.19049454
46.01371765 -37.65420532 44.73651886
38.60605621 -30.65546036 22.35661888
24.89239120 -36.82378387 24.05891609
-2.23850441 -15.76274204 -6.21924782
5.17323685 -15.78874111 -0.83552170
32.90543747 -2.00647736 35.06832504
48.39963531 -32.07143784 48.02158356
4.79933167 -13.76678276 13.62827873
21.59098053 -16.32216072 4.69975281
15.21228027 -43.19373322 24.05492020
41.64463806 -23.16916847 42.06946564
40.41001892 -23.70337296 29.45856094
39.71727753 -23.64415359 31.02269363
17.42814636 -29.20655060 19.79372025
13.07897091 -32.82934570 20.95468521
14.76033401 -13.20474243 4.51819992
23.43830872 -3.56345463 17.33897781
41.17127228 -32.50713348 27.97444534
3.63247108 -17.92677307 13.56997681
28.56290436 -34.76165009 33.21675491
33.66471481 -23.09144211 44.30075073
14.78220177 -32.62832260 12.11075211
28.80662155 7.02128029 34.04717636
35.58863831 9.98100281 27.04901123
10.81592274 -12.29688835 3.07487106
32.56809998 -36.69171906 19.51835823
26.92779350 -39.32946777 20.38448524
18.00202179 -37.29322815 34.63707352
39.71128845 -37.23135376 27.27309036
30.89338684 13.17099571 26.93062592
25.44832993 -10.55542374 12.13911343
19.82309151 -30.26011276 2.54401398
31.82011223 -36.47528458 28.62072754
21.89201164 -35.72600174 22.98967552
9.11776257 -41.26887512 8.50835133
0.77941704 -12.08820438 -2.59883881
32.52555084 -30.49012375 40.05154419
9.72500515 -40.78307343 2.55590630
20.03399467 -7.29906511 24.48400497
22.80993080 -2.46837044 29.35202408
-0.92287636 -31.16606331 -4.32566452
3.42697525 -24.41909409 16.04745865
37.47386932 -32.73702240 32.52636337
21.65443039 -18.75990486 35.87318420
20.83609772 1.19896317 14.85121346
22.65867043 -25.89740562 39.70038986
5.25398064 -31.56125832 -1.34941673
2.10923767 -28.81538773 -2.12408066
-3.01108170 -33.62209320 4.74123573
37.95206451 8.32278824 41.66205597
47.11359406 -40.90552521 52.49215317
35.48025513 -5.47660828 26.12776184
10.76964474 -39.67256927 25.90221405
14.22496796 -39.12113190 27.80457687
43.41380692 -29.76196861 37.62918854
38.55223846 -26.72096443 41.52022171
18.42535973 -35.26251221 35.10684967
18.98677635 -12.31000137 4.57411385
13.47725201 -40.26155853 -1.88944817
13.73675919 -17.64893341 1.04977608
36.44846344 -2.71442413 32.03799438
8.32815266 -11.12595177 13.81916237
21.08849335 -7.59101439 28.63648605
17.88859558 -28.45645332 32.53392410
17.86475945 -30.27360344 14.12936878
42.83196259 5.54217529 38.54346085
25.86611748 -19.29199219 9.03212833
3.11415100 -19.03295898 -1.55851173
40.23537445 -33.90117645 24.05242920
31.84410858 -10.05347824 37.70153046
34.07299042 4.10339355 39.08522034
0.81858063 -39.32164764 1.58506584
13.47044849 -14.27599621 23.80475426
38.63468933 9.39293480 33.41438293
0.00192070 -26.36124229 10.07982540
7.57842541 -33.98829651 21.09498024
25.69781494 12.13054657 27.90835571
33.11996078 2.52351761 20.80089760
24.04710197 -19.81266022 6.68412590
34.96374130 -5.94932556 25.36908913
3.19774628 -19.49587822 13.40083885
18.32061958 -30.42853546 35.60470200
35.49893188 -36.67330933 21.57026482
-0.50934029 -17.90054703 0.29464149
22.03244591 -18.27930641 38.37846375
16.35274696 -25.56809807 0.69750023
15.18222809 -37.64462662 -2.43252563
30.91459274 1.16449165 18.60117340
26.38413048 -37.52024841 21.01603889
18.56875610 3.98033905 21.74634552
1.67927170 -9.49388599 -1.13036537
44.58065796 -34.95821381 47.68712997
26.46790314 -36.35282898 34.87747192
2.16480255 -29.72150803 -5.65909958
20.45655632 -34.05438232 12.50938511
-3.18849754 -19.14914131 -0.35095978
37.55722427 1.45132828 26.53928757
45.36262894 -33.77669144 44.22499084
28.33542061 6.83769417 18.40442085
2.63140297 -29.92018509 -3.09116173
22.06468391 -41.01907730 32.94544983
39.83063507 6.81225395 41.00369263
32.34500122 1.37662315 18.23587990
29.22011566 -35.82295609 46.83306885
7.53161335 -21.15871239 18.53504181
8.51931286 -22.64325333 -2.86310196
39.32115173 -0.84120750 26.98231506
22.97214127 -29.19321060 39.44596481
17.52466583 -39.35122681 12.04023552
44.96430969 -38.47200775 51.48380280
11.88123989 -8.20932102 13.61116791
24.28044128 -27.82460403 18.56643486
27.16661263 -13.84570503 13.34518623
41.94415283 -19.66194916 38.52174759
35.74096298 -28.69210625 20.49409676
23.88243294 -33.65132904 22.13009262
37.85159302 -12.25854492 30.32862854
33.08081436 -5.78845310 34.08954239
-2.17324257 -39.67802048 5.34808540
33.31623840 -30.69647789 38.99383545
13.72807217 -24.10277367 26.27529335
43.61059570 7.09864235 35.29621124
34.86157227 -3.30196476 25.91004181
12.15098858 -9.31231594 6.24275112
28.37133789 -8.47201443 33.34200668
0.28355408 -40.80499649 6.46914482
18.70234108 3.34222412 22.10029221
40.60958099 -31.51842308 37.93814087
23.42347717 -39.66295624 12.02067184
18.03598595 -33.46155548 12.54759979
42.78682709 1.11211586 33.87651443
26.15858841 11.74164009 27.94678497
11.65253925 -25.75465012 -2.97104073
19.47971344 -35.61221313 21.38549232
12.95452595 -30.37321854 25.87587357
31.00718117 -26.46801758 16.99899673
44.82970428 -33.66230392 43.65558624
9.67893124 -39.86730576 24.47854042
41.03296661 -31.78479576 36.08868408
26.54033470 -36.32510376 31.46516800
0.20380020 -36.76634216 2.56802750
19.16555405 -28.41734314 12.61849213
41.14044952 -32.11321259 32.71995544
33.45669556 -7.04843521 24.88333893
15.47866631 -21.35328865 0.27387619
24.81993866 -35.37602234 19.80044556
24.48804474 1.36035728 15.99169636
8.19606876 -37.28300858 2.12034798
7.21081734 -14.06190109 14.64471245
34.55064392 10.45929909 29.89796448
14.33523083 -25.73694992 23.06377602
14.76185226 -11.46897316 6.24987030
34.61484146 -0.83874798 38.68168640
39.26532364 -24.41674042 25.69469261
15.17703438 -12.44926262 4.52560234
17.03473282 -29.63650513 22.01196861
0.46554375 -19.52450562 0.59062576
5.72135925 -21.82382584 -8.96808624
14.89137840 -35.42654800 19.41042709
11.11005306 -8.52048206 11.29888058
7.91332722 -11.82468796 16.16354370
12.03859043 -31.66374397 17.39189148
0.32612610 -21.51345444 0.53217697
3.12697601 -36.40037918 15.48903084
13.55560112 -28.52407837 17.60649490
40.06070328 -21.62080765 29.01306152
27.77842331 9.16917801 21.24807930
16.78808212 -22.08182526 29.90039062
41.04042053 -29.10614777 27.64499855
2.77584076 -27.62095070 -6.34769821
43.58002472 -24.34756088 41.15489197
1.08393860 -27.52026367 -0.16834641
36.11181259 -4.97318840 27.82906342
17.92686462 -10.41133499 26.93505478
48.23903656 -38.67881012 45.07529449
21.12043571 -39.59909439 20.20401001
23.43192101 7.86466408 19.39252281
43.92295837 2.54619026 40.58288193
37.78796387 -28.84901047 40.79599762
14.48191261 -41.04034424 9.03599262
25.70614433 -39.34269714 10.62682247
2.16428375 -40.99295425 10.81059551
23.80497742 7.62403107 13.72530174
20.36668396 -31.17705727 6.33930111
7.38230801 -12.50051975 4.21789360
-2.13061714 -37.95437622 6.24179363
1.94805527 -41.38506317 10.09181023
13.17157745 -40.78848267 15.61147881
21.66708946 8.02441978 24.33287811
27.39269066 -29.10881042 17.71640587
2.25899506 -17.71830940 7.76097775
40.22954559 11.04882431 37.69893646
-3.57008934 -18.80422211 -7.98707390
23.58824539 -7.21072388 16.48041534
21.78398514 -32.76528549 6.75116253
27.95862579 7.69340324 19.12279892
28.26617432 7.56585121 31.25207710
10.23446465 -10.17116451 16.72094345
23.96265411 -16.10686874 38.12437439
-0.88446045 -32.32801819 6.17372513
23.01165199 -9.93720436 10.99542522
28.23443222 -8.97864628 16.82294083
-1.40058899 -33.44947052 -1.47240257
15.76917076 -33.95178986 30.86334610
1.52469254 -14.54924870 -6.50633812
40.42799759 7.91800308 32.31026459
21.89957619 6.66060638 27.16444778
34.32261276 -31.01442337 18.80996704
28.21316719 -23.93919754 43.15126801
26.33181190 -25.54311943 13.86169338
27.64201736 -9.40913391 14.47475147
40.30033112 -0.29895020 30.95575714
34.31661987 -38.22959137 19.11822319
10.34191036 -33.76663208 14.81241417
22.42498970 -26.94936562 39.45160294
19.97150230 3.98312950 15.22605515
17.29535866 -6.02993393 18.09896660
28.08962631 13.28809738 26.19962311
9.39138508 -41.44791031 15.70343781
17.70516777 -39.86745453 34.61871719
16.19883347 -40.78708649 18.73559761
33.20462799 -8.61027431 36.08425140
15.58180332 -36.95450592 31.43418121
32.86011124 -38.42999268 18.67752838
5.14785576 -33.13028717 -1.90720177
18.17720222 -35.68811417 22.13697433
8.93427753 -17.03293419 18.79610825
28.80213737 -19.13786697 41.47351074
36.84115219 -28.96891022 41.00303268
-0.01565170 -40.76931763 4.36043167
24.65437508 3.23031425 29.86189270
33.12865448 -2.65631390 21.12499428
23.46286011 -38.36214447 19.88138580
12.75270653 -23.49644470 -2.04225922
31.13139725 -40.38607025 14.62537003
23.02138901 -8.95156288 31.31639481
32.39957428 -38.05718231 19.24737930
33.95133591 -32.18031311 35.74891281
16.70916748 -24.90436554 -0.17992401
5.74552822 -21.76606560 16.54590988
9.72574806 -13.65075779 2.38696671
-6.29190254 -25.71622467 -0.97051048
13.72410393 -9.54260445 7.77854252
42.41143417 11.00656509 41.84604645
44.39370728 -38.02109146 50.09508514
34.36363220 -33.53172684 30.32710648
8.19253349 -18.44002533 19.20519447
28.27377701 -4.61234665 19.00627708
22.17899895 -40.41043091 34.75568771
17.53253555 -5.86981106 20.74835205
18.26114082 -29.22285461 14.16821861
11.15079880 -9.06862354 13.54515553
10.43314171 -40.84030151 1.32491112
2.24429131 -27.88802719 1.44399071
26.65183067 -10.41940880 34.09155655
37.89710236 -35.45182800 21.70652771
1.30077553 -26.61888504 11.97844696
30.80854416 -34.61907959 41.87751007
24.90553856 -0.38401127 16.54541016
16.67557144 -39.64293671 11.01209927
1.18864441 -19.41340256 0.48851013
0.54246140 -22.09901237 5.30650806
24.34169197 -26.09742737 14.10992718
34.61590958 -3.03420830 24.83794403
34.48928452 -32.85203171 32.34776688
28.32602310 3.37708473 34.05644226
15.37435436 -31.98033714 -0.15742493
34.72912979 -10.74996948 28.10392570
38.28117752 2.42597198 43.04675293
42.07113647 1.81729698 41.75637817
15.35628128 -34.45412064 -0.78742599
36.07520294 9.16395950 28.67049599
18.19117355 -32.06962585 -0.01799774
11.13971519 -38.33805084 25.39586067
12.76235676 -24.13577080 -1.31195450
45.71841431 -32.70734024 51.71788788
40.50527954 -32.72977448 24.90697479
20.32206154 -36.44468689 38.94065094
36.92229080 -8.05169201 33.98296738
41.00337219 8.77161026 36.77979279
29.67483902 -20.83479309 14.64620972
20.72689629 -35.96010590 37.14188766
5.67394352 -12.90367222 13.44067478
20.77579880 -28.04698181 3.81699944
44.72507095 -40.23566437 51.73465729
23.26201057 -34.59269714 15.54320335
15.07112694 -9.28909492 24.15521812
25.10984802 -37.59701538 34.47460556
12.71720600 -18.55756760 -1.08139801
2.14392853 -25.86360741 12.92437935
27.75416183 5.46828270 34.52371979
-2.59445572 -28.40021515 -1.94046211
9.57768154 -41.43473816 8.85256481
13.21047020 -9.00063610 16.17923927
18.28903770 -28.31615257 33.89998245
-2.02010918 -33.72667313 5.84557438
24.67144585 -30.77180481 25.86919212
31.87662888 13.03580475 26.69897079
24.50670624 -9.48574543 32.33883667
23.84403610 -34.35215759 11.26918697
27.99274826 10.87220764 21.08917999
