-11.62043190 -0.63549185 6.65516281
-11.47753048 -0.82745993 5.23347425
-11.31681919 -0.33481535 6.52752876
-10.24898338 -0.36896244 6.12351227
-10.50844669 0.59620833 5.94627666
-10.16889954 -0.19593027 6.17144537
-11.00239658 0.42269146 5.42878342
-11.49387455 -0.84878731 6.67003679
-10.57203293 -0.72120988 5.98152304
-11.10722256 -0.35704017 5.35177231
-11.27888203 0.66793042 5.29380512
-11.10067368 0.10533348 6.50415277
-10.77898884 0.04766772 4.82556963
-11.21075058 -0.14051987 5.44246197
-11.24928665 -0.67464620 6.43299294
-10.46191216 0.55165923 6.54201651
-10.95444202 -0.00122190 4.99566650
-10.17200661 0.50443596 5.54197645
-11.20176029 0.23878519 6.49223471
-11.13981724 0.56166607 5.83810186
-11.67667675 0.77366322 5.12713909
-10.51053619 -0.60408109 5.95571041
-10.04291630 -0.73785764 5.09775305
-11.79122448 0.03420111 6.01048708
-10.14443207 -0.55990380 6.37532043
-9.89330769 0.01961401 6.09073782
-11.03614998 0.08443420 6.57855034
-11.80237389 -0.08876339 6.01914835
-11.38809681 -0.72090042 5.39086103
-10.67502975 -0.53230512 6.30890274
-11.65182304 0.90077037 5.15791750
-10.73734379 -0.04648611 4.91268063
-10.88409138 -1.05923569 5.93904448
-10.91064072 0.92995131 5.80284691
-10.06355667 -0.76486212 5.09017658
-10.33176613 0.49159822 6.56130886
-11.01705265 0.64902294 5.66177988
-10.72829723 1.05992413 5.89200783
-11.77710724 0.11671954 5.87822294
-9.91791153 -0.00083468 5.80638075
-11.29862595 0.64452708 5.58989811
-10.97053051 0.01875087 6.74949598
-10.47002411 -0.56211114 6.05549479
-10.86654949 0.16139027 5.05968332
-10.03046703 -0.88828957 6.77038717
-10.72320366 0.05118637 4.83554173
-11.57335472 -0.89255667 5.07016993
-10.17434597 0.32545248 6.43493128
-10.31934643 0.62123317 6.36749506
-11.55495644 0.81695747 5.07229137
-11.59643841 0.85805702 6.66939449
-10.43073463 0.52084398 6.57477236
-10.45814419 0.57308489 5.38037872
-10.26796627 0.63734865 6.35295153
-10.24093056 -0.59124976 5.60857916
-10.69064236 -0.15589793 5.14871407
-11.39097595 0.35482183 6.49850655
-10.49087048 0.44085100 6.54348373
-11.23875999 -0.06421974 6.38725233
-10.13123417 0.12829036 5.73815155
-9.91349030 0.79647893 5.15258217
-11.33111668 0.66474265 5.21961308
-11.96549129 0.02370564 5.98423338
-10.24604988 0.49910349 6.21890306
-10.92969322 0.89899391 6.04080915
-10.19253540 -0.28416675 6.04423523
-11.49724293 -0.83416969 6.76698256
-11.20114136 -0.53765970 5.79760981
-9.89139462 0.88243729 6.71220016
-11.07287884 0.57777643 6.07237434
-10.83264732 0.36936936 5.40744305
-11.04264832 -0.68723041 6.01469183
-10.93051434 0.92622876 5.87838364
-10.21211720 -0.15386820 5.63001108
-11.46834850 -0.79507768 5.30324650
-10.88837910 0.76055616 5.75179100
-10.47368908 0.18979937 5.35706139
-10.78947926 0.83373213 5.75304842
-10.82527447 0.22350946 5.26165152
-10.17593193 0.78900856 6.66112614
-10.91950035 -1.00166869 5.95680809
-10.21889496 -0.20547378 5.61095476
-11.56963634 0.61821991 6.71154118
-10.22872257 -0.09049566 6.23300219
-10.26431084 -0.35729471 5.96140623
-10.77235889 0.26898009 5.23421764
-10.61942291 0.27723002 5.35385036
-11.71215343 0.81010610 5.09930706
-10.06717396 -0.80020654 6.79237270
-10.78825092 0.54929924 6.27187109
-9.96630192 0.07787890 5.77318287
-10.40543747 -0.48960039 6.57455635
-11.49674892 -0.22418204 6.03224087
-11.33255196 0.10498988 6.29322624
-10.12849331 0.60235876 5.15383148
-11.12361908 -0.57824391 6.11730671
-10.91880894 0.34374779 5.35888195
-10.73528004 0.42373499 5.44400787
-10.87228584 0.19844820 6.67358971
-11.07376766 0.57438654 5.63685369
-9.86938858 0.97671163 6.92530489
-10.96712589 0.74566853 6.09681511
-10.18738556 0.15167880 5.69977427
-9.85256672 0.93155825 6.81498909
-9.99965000 -0.66107237 6.60147047
-10.99087238 -0.17183101 6.61524010
-10.35031223 0.64507288 5.48598862
-11.42531586 -0.37699130 5.40793228
-10.96229935 -0.78756553 6.00392389
-10.66439724 -0.00311436 5.08947945
-11.34496307 0.50853270 5.70963621
-10.49312782 0.53794891 5.43602610
-10.75751019 0.85907584 5.75990915
-11.32979012 -0.28973526 5.38695478
-10.87302971 0.06011920 4.89921474
-10.31461906 0.67978805 5.47145987
-10.22444916 0.26694798 6.40497923
-11.41097260 0.21072054 6.11361217
-11.41070652 0.73653507 6.51591301
-11.57501411 -0.84264684 5.15544701
-10.13700581 -0.01196268 5.66401100
-9.98305416 -0.78574151 6.82704115
-11.51394749 0.69266248 5.42124605
-11.65080166 -0.90667200 5.16523266
-11.39616871 0.29906771 6.19039154
-10.09875870 0.86515093 5.21362257
-10.61656857 0.74214321 5.82401752
-10.57011700 0.04269538 5.16195726
-11.72488308 0.95446378 6.88442183
-11.45168591 0.65079272 6.41402102
-10.34811878 -0.21300723 5.37325525
-10.85042667 -0.36891991 6.49880028
-11.12243080 -0.06364670 6.47177458
-10.26834202 0.26705599 6.38343954
-11.41252708 0.21148868 5.71807528
-10.86215019 -0.84977984 6.11291409
-10.12390804 -0.26022112 5.96225643
-10.85805511 1.02386189 6.00222540
-11.64416218 0.76469272 5.25229502
-10.79576778 -0.19250770 6.72987080
-9.89111233 0.86748701 6.68720341
-10.44687080 -0.41008493 5.33161783
-10.61888027 0.00937884 5.05146694
-11.65307331 0.12772062 6.06838417
-9.98230648 -0.88788301 6.84660435
-9.95051003 -0.74991971 6.69208336
-10.14044285 0.25264686 5.94095039
-10.59546280 -0.08190585 6.74612713
-11.61505413 0.67693985 6.73284483
-10.19749546 -0.25982916 6.15160227
-10.66482353 0.83520716 5.79651833
-10.48113918 0.15155588 6.46288776
-10.16140556 -0.24932450 6.09415770
-11.03150940 0.07441705 5.29727983
-10.44382858 -0.36504614 5.33563852
-11.70539188 -0.02023704 6.07872295
-10.20408821 -0.14143483 5.63755322
-11.20128345 0.09108109 6.40822601
-10.47866154 -0.57214403 5.59323311
-10.87831497 0.21491937 5.18404675
-9.64430046 0.05135306 5.95338154
-10.86466694 -0.44128555 6.40627241
-10.87092018 -0.98174763 6.05583525
-10.75839233 0.44771308 5.44511366
-11.69716167 -0.15259148 5.92885685
-11.52484035 -0.53197092 6.62372637
-11.13107586 0.02317183 6.44764757
-11.41102409 -0.37488264 6.55850506
-11.54563904 -0.20409927 5.97440672
-10.50682640 -0.23366550 6.52429342
-10.20210457 -0.19927604 5.70301533
-11.34386539 0.36014533 5.72673130
-10.35077477 0.57959688 6.18879128
-10.29380608 -0.45710802 5.25022554
-9.94506645 -0.82721663 6.67613697
-11.33298397 -0.71590292 5.30117321
-10.86162663 0.67893815 5.71941376
-9.93531609 -0.04167683 6.07378864
-10.48284721 0.46997324 6.51454449
-10.20215034 0.25270385 6.26873636
-11.62909222 -0.01638789 6.11812687
-10.11864662 0.55004418 5.19133043
-10.21447754 -0.11675114 5.63924694
-11.51624489 0.12159061 6.15933943
-9.86243153 1.01349521 6.86429739
-11.27989483 -0.63519764 6.62656736
-11.58549881 0.09204617 6.10998154
-10.77949524 -1.02000403 6.04362011
-11.59551811 -0.16696480 6.04197311
-11.10546303 0.25498843 5.34129620
-10.68659782 -0.88356203 6.03990126
-11.04444027 -0.43312529 5.38828993
-11.47902107 -0.51857883 6.48431349
-11.30976486 -0.49618745 5.74659300
-10.59874725 -0.12955731 5.28112507
-10.21113491 -0.39210603 5.61439133
-11.36079025 0.29919943 5.98882103
-10.22943783 0.32092947 6.17647171
-11.43039227 -0.44591621 6.37528181
-11.54015732 0.77457321 6.56521511
-11.09543705 0.13482001 5.40055609
-10.93045139 0.85651720 5.79499006
-11.08535862 -0.56352448 6.35889149
-10.82112503 0.25825921 5.32404900
-11.56623650 -0.63921237 5.09390926
-10.70410919 0.42221731 6.43589926
-10.05119705 0.61937165 6.48698807
-10.61210823 -0.71986276 5.83192253
-10.63340187 0.52052188 6.32552481
-11.68879700 -0.95207536 6.82570028
-10.70405865 0.73293841 5.75993204
-11.30574322 -0.11237272 5.53141785
-10.58611965 0.64299375 5.74024248
-10.92528725 -0.06780525 6.78904295
-9.96163177 0.90934271 6.80688095
-10.48154449 0.41704515 6.54689693
-11.38496780 -0.29552263 5.47459602
-10.92743301 -0.62838948 5.68019438
-11.14921379 0.53585190 5.84794807
-10.99646664 -0.58635110 6.29638338
-11.36142063 -0.58749509 5.21276999
-11.35735035 -0.27779093 6.41097736
-11.38577938 0.58758783 6.68411303
-10.27276230 0.53020692 6.65535116
-11.43562317 0.48701000 6.65102482
-11.56363297 0.10293098 6.15179825
-10.12766361 -0.57617670 5.19739771
-11.46520805 0.46290487 5.49210882
-10.47925472 -0.61967969 6.01682901
-10.76725197 -0.92623401 5.81069946
-10.03358459 0.59688699 6.62055302
-11.18933105 -0.67132896 6.51017046
-11.43926811 0.41760406 5.49626684
-10.98880386 0.59208131 5.65829849
-10.00410938 0.90910244 5.04368162
-11.46430016 -0.66086179 6.69623947
-10.45714092 -0.21746904 6.49971628
-10.64238930 0.60854477 5.67526102
-10.79484653 -0.15506993 5.01582813
-10.22263813 -0.32784322 6.21068192
-10.18381500 0.53895509 6.72139025
-9.93459225 -0.13343586 5.85855055
-10.84911537 -0.43799129 6.43648958
-11.30066395 -0.39735609 5.79075718
-10.41676331 -0.49472401 5.95656347
-10.57028294 -0.72698170 5.98268223
-11.00636005 0.41770864 5.39111328
-10.01529884 -0.71639729 5.12934971
-10.71144772 -0.14042147 5.12405252
-9.98381805 0.94561005 5.00553226
-11.72727203 0.89044267 6.79309177
-11.37684822 -0.45413759 6.22340965
-10.18004227 -0.21557042 6.18196392
-11.17914009 0.08924708 6.42632532
-10.17925930 0.77429003 5.29844809
-9.99220371 -0.88260967 5.14029551
-10.52764702 -0.59915686 5.66303062
-10.29343605 -0.45884913 5.76727915
-11.37261105 0.39016449 6.55112600
-10.95900917 0.17384359 6.67099571
-10.81366634 -0.53821117 6.25771809
-11.53519344 -0.78996104 5.38893175
-10.82369328 -0.03843223 7.03697634
-11.57833862 0.01595183 6.13321495
-10.31601048 0.47120926 5.95917606
-11.18838978 0.53667939 6.50117874
-10.43723679 0.62747049 6.38248920
-10.39612579 0.13575482 5.42329741
-10.38071632 0.14824975 5.39888668
-11.76286793 0.92385793 6.90024900
-11.18972206 -0.56913239 6.59208632
-10.34931469 0.46407238 5.87216616
-10.34713268 -0.54611492 6.14302778
-10.54948330 0.31504369 5.32637119
-11.25649834 -0.27286652 6.48285055
-10.72349548 -0.01322693 7.03793573
-10.67429829 -0.98126644 5.96540594
-10.21886253 0.24329333 6.36675930
-10.21743393 0.66209614 5.43551064
-11.40718079 0.71737778 6.42361879
-11.60897636 0.74917203 6.81300449
-11.18953609 0.59600383 5.29963017
-11.14481258 0.59237862 5.51143217
-10.34676361 -0.17299525 5.43826151
-11.14791965 -0.42318699 5.34571934
-10.63284397 -0.06500037 6.76609039
-10.19440174 -0.37418362 6.51624632
-10.25344086 -0.71411222 6.51749182
-10.94987583 0.55053669 5.57383919
-10.76881504 0.38793626 6.45953083
-11.41765690 -0.30825225 5.66761637
-11.05395126 -0.55561453 6.48476791
-10.11585236 0.64033502 6.44912958
-11.57261181 0.64552200 5.24903059
-10.97882652 0.53369129 5.53476906
-11.59475613 -0.67894787 6.71765995
-10.57962227 0.08693597 6.66824818
-10.05810070 0.83788997 5.20033741
-10.30376625 -0.23816001 6.42915297
-11.11594582 0.54761553 6.07611465
-10.91905212 0.10322075 6.84239197
-11.17848301 -0.66203845 5.39176846
-10.11851406 -0.13856332 6.12680531
-11.55400085 0.19286564 5.93825769
-10.17424011 0.55335540 6.31878233
-10.28733158 -0.21330304 5.51053333
-9.83049870 0.97892827 4.95010042
-11.39228439 0.59657443 5.51555395
-9.96506023 -0.70721304 6.70962334
-10.90163136 -0.75081933 6.14229631
-10.47726536 -0.03149992 6.49767542
-10.07001114 0.52157366 5.31496334
-11.35538769 -0.63463151 5.53055048
-11.66598320 -0.73333246 5.16818237
-10.91884136 0.63756436 6.18097973
-11.74059677 0.02805151 5.78183317
-10.74897575 -0.06119280 6.94879818
-10.41269588 0.42142782 6.54612112
-10.69993019 -0.91808397 5.79389668
-10.98691463 -0.07659921 6.80043459
-11.37234020 -0.41625682 5.66274405
-10.02692699 -0.73208058 5.32419443
-10.13284683 0.09564833 5.68337250
-10.25027180 -0.52756536 5.65054464
-10.17988873 -0.75974721 6.68745899
-10.63728237 0.10940023 5.10715961
-11.01737595 0.72880483 5.80998230
-10.07995319 -0.79839015 5.27121449
-10.88403320 0.02959808 4.95286894
-11.46216011 -0.70066231 5.42514610
-11.74378109 0.06693856 6.02149725
-11.79240417 -0.97250581 6.95233440
-10.17065811 0.39158809 6.38651466
-11.26774025 -0.36693251 5.35795641
-10.39227009 0.61122543 6.44608450
-11.09672260 0.10658325 6.51662731
-11.27274036 -0.13048854 5.52825212
-11.10395908 -0.56722206 6.23444796
-10.68230915 0.99623764 5.88341665
-11.70387077 -0.89413035 4.95968676
-10.18000507 -0.61593610 6.71213913
-11.31934738 -0.06312823 6.32428980
-10.00040340 -0.70565951 5.05685616
-9.98358727 0.80324727 6.84184551
-10.88052559 0.58627480 5.64147902
-10.23393726 0.26151562 5.40805197
-9.87600040 -0.17260961 5.91218805
-10.19081688 -0.29236421 6.09282112
-11.44539642 -0.67079109 5.15379000
-9.96199036 -0.14809683 6.05270290
-10.48142242 -0.58115059 6.23760986
-10.46965504 -0.55967808 6.16139221
-11.08820820 0.37886038 6.51692247
-11.48761368 0.78376383 6.51791191
-10.93312359 0.20730031 6.64340782
-10.69113255 -0.44583571 6.43579626
-10.13698864 0.80978870 5.25795507
-10.80783272 0.96605968 6.05928230
-11.18743515 0.57315373 5.30933905
-9.99861908 -0.80861717 6.58721209
-9.81138420 0.97840756 6.93322992
-10.61794758 0.07716245 5.12981510
-10.02062988 0.12721163 5.76101351
-10.23422718 -0.72928077 5.34859467
-10.20430565 0.29009753 6.13107204
-11.18691444 -0.61521995 6.37432194
-10.94519615 0.70091593 5.76406574
-10.28688908 -0.54715776 6.23490715
-10.30267429 -0.06729622 5.52389240
-10.35468483 0.18567750 6.45680523
-10.35307121 -0.48349527 5.81887054
-11.84756470 0.03807475 6.02101755
-10.21745491 0.56977117 6.65756369
-10.90045738 0.87770647 5.79546070
-10.50835705 -0.05224798 5.32583189
-11.19829178 -0.02875583 6.43972111
-11.42189312 -0.32908544 5.41719818
-10.49283791 -0.06665446 5.34524441
-9.80766582 -0.94144869 6.88510990
-11.22818375 -0.12646811 5.44155598
-10.22154713 0.72992122 5.19520521
-10.62497234 -0.85376984 5.92951298
-10.28700256 0.43174019 6.04055738
-11.66932297 0.16151971 5.88307142
-10.06343365 -0.76471847 6.79534960
-11.06626511 -0.33934852 5.36388683
-11.67017460 0.05933659 6.12033176
-10.12040901 -0.66250271 5.49709368
-10.73397350 0.67395115 5.68244457
-10.81681728 0.44351825 5.47998333
-11.70232582 0.86009806 5.11874676
-10.47593307 -0.35656098 5.36712074
-9.71362686 0.02719526 5.86859465
-9.66901875 0.04424188 5.86889601
-10.50537872 0.46086562 5.35709906
-10.72186184 -0.06570631 4.92192411
-10.71034813 -0.84307456 5.75874805
-10.11939240 0.54904860 6.39478683
-11.45224190 -0.71349818 6.44207430
-10.30090332 -0.45364273 6.11065960
-10.30084133 -0.57666266 5.63781977
-11.41499138 0.06846956 6.20576334
-11.36202240 -0.43520367 5.66301632
-11.28472710 -0.44401139 5.80661106
-11.72116756 0.79973328 6.79178476
-10.66772461 -0.97034162 5.93905926
-11.52496338 0.50179523 6.62626171
-11.56996822 -0.17060000 5.88557243
-10.36709309 -0.42724574 6.60113859
-10.10110855 0.51951069 6.59960365
-11.43949604 -0.18731262 6.12460279
-11.22715187 0.35254157 5.31228733
-9.89416599 -0.85534030 6.87136745
-10.91515923 -0.28051472 6.55345488
-10.72532558 0.06497172 4.87379837
-11.41437531 0.48812044 6.36892748
-10.99007607 -0.62259924 6.19931459
-10.85777378 1.09125495 5.97095013
-11.31176376 -0.10812717 6.27979231
-10.18534470 0.17425849 5.64809322
-11.40586472 0.34190744 5.50601196
-11.13423443 -0.60277486 6.52185822
-11.35662079 -0.62463266 5.19822407
-10.51801872 -0.60994583 6.09107447
-11.06096268 0.09269892 6.59327221
-10.78951263 0.13728622 4.90413809
-11.36869907 0.40403306 6.54679155
-10.98111343 0.82237071 5.96946049
-10.90973663 0.18901552 5.13820267
-11.32566166 0.56369436 6.23544836
-10.09437656 -0.66443396 6.74493408
-10.29456139 0.53060126 6.59671688
-9.82853127 -0.89768422 6.84034729
-11.01813412 0.15434165 6.60003853
-10.08493137 0.04994434 5.69879436
-11.61376762 -0.90387595 5.08104515
-10.56381893 -0.56367379 6.44777870
-10.13182735 0.22670439 5.70463419
-10.08210182 0.52949363 6.48920727
-10.06301594 0.82872885 6.79042006
-11.19639015 -0.52561390 5.71795321
-10.43369579 0.57496887 5.36124229
-10.08560467 0.63724047 6.73574638
-11.39648151 -0.46188092 5.23877192
-11.55838299 0.20825072 6.00760078
-11.35451603 0.47305590 6.17916489
-11.17251492 0.52555901 5.82486248
-9.86021709 -0.94955701 6.93821764
-11.47818375 -0.63851434 5.14254999
-10.59641457 -0.02296761 5.10071182
-10.12390041 0.23470110 5.80224037
-11.67555237 0.83745748 5.16541624
-11.47567654 0.26925907 5.90690994
-10.76876831 -0.92876518 6.07979965
-11.12459850 0.50765520 6.55218601
-10.53676033 -0.63663179 5.91740990
-10.34190464 0.66377026 5.42170525
-10.65764713 -0.87508970 5.92345047
-10.01892567 0.87634420 5.04656172
-11.16465473 -0.57344091 5.34890938
-10.04208279 -0.17760822 6.10553122
-10.64720249 0.72638208 5.74157095
-10.06762886 -0.22925493 5.88535404
-10.52397728 -0.09943932 6.59692812
-11.10617924 0.58400720 5.66514111
-11.39136791 -0.74352568 6.48582792
-9.89327812 0.82824045 5.09852648
-9.98557854 -0.15842463 5.94218302
-10.15553951 0.07317727 5.69425678
-11.39118576 -0.24742983 6.32521248
-11.51933098 0.70269555 6.50405407
-11.32188892 0.26093787 6.44176245
-9.94006157 0.88861692 6.72099733
-11.31739044 0.39696467 6.11534309
-10.20366383 0.22198696 5.63046455
-10.51606560 -0.09371738 5.36515188
-11.43185234 -0.38326633 5.36005402
-11.29091263 0.37489891 6.01380634
-11.26220322 0.59593612 6.28617811
-10.21035671 0.13398710 5.62253618
-10.11539555 0.77762657 6.75215054
-10.83474922 -1.00715160 5.87055588
-10.81771183 0.13293171 4.97158337
-11.49574184 0.16892786 6.09332943
-10.61199951 -0.80655801 5.97573900
-9.67356491 -0.03381838 5.96039534
-10.42572784 0.61113662 5.46126366
-11.07351971 0.44845173 5.33465481
-10.70591927 -0.09808251 4.96071672
-10.15222073 0.42094254 5.56741714
-10.72198868 0.04719590 4.94334888
-10.18290520 0.73735654 5.37030983
-11.30693626 -0.58481216 5.21847773
-10.29014778 -0.24477708 5.44561768
-11.42146015 -0.25136340 5.70054436
-10.83823204 -0.58800292 6.23567390
-10.81337643 -0.50203121 6.36759281
-10.10202122 -0.51309496 6.49641418
-10.10159397 -0.54950500 6.41311550
-10.28183079 0.28055573 5.41290569
-10.84803867 0.24047671 6.62169695
-10.49763680 0.57933187 6.44158983
-10.83393383 -0.50814766 6.29945326
-10.04924107 0.71148401 6.79767513
-11.71705818 0.11288837 6.00591946
-11.32179356 -0.71878284 5.25559425
-10.32504368 -0.40631956 6.14008760
-10.93570709 0.24279214 5.24595737
-10.98922253 0.66166282 6.15155077
-11.65839958 0.92892301 5.01613665
-10.96070290 0.60434437 5.68327236
-10.56507492 0.53435975 5.44703817
-11.42085934 -0.77290219 6.58806372
-11.00037193 -0.04938948 6.74619770
-10.58129025 0.21778688 5.35277939
-10.92407608 0.67329490 6.11810493
-11.25384903 -0.11128702 5.44195366
-10.65220547 -0.86498725 5.98823977
-11.17770481 -0.60434771 5.27773285
-11.18410301 -0.52744865 5.82664204
-10.97834587 0.00237122 6.77844238
-11.12302017 0.15286794 6.48481798
-10.56334686 0.51563847 5.44959021
-10.30896473 -0.38510299 5.91110229
-11.55085850 -0.57957292 6.52979040
-10.37054539 0.67796183 6.44743204
-10.17943764 -0.67668474 6.72334576
-11.16865635 -0.61074072 5.52151394
-10.05993462 0.73966181 6.52580786
-10.22146988 -0.61192882 6.67178249
-10.44747734 -0.55876350 6.08642483
-11.65667915 0.76821685 6.79320717
-10.30255318 -0.55023998 6.18491459
-11.58674335 -0.79672337 5.06897688
-10.10481453 -0.63249147 6.43396902
-10.53206158 -0.16685280 5.30315256
-10.11185646 -0.21345094 5.76715660
-10.11232948 0.03407128 5.73777199
-10.57506466 -0.08648058 5.19669867
-10.17641830 -0.50778413 6.34545946
-10.03317261 0.66825962 6.73090458
-10.17733860 -0.38633978 6.41745472
-9.92621803 -0.76187861 5.08936977
-11.56199646 0.86059266 5.08079195
-10.18130589 0.37939158 6.41847515
-11.80148888 -0.16676943 5.94129467
-11.33279228 -0.67632312 6.44493103
-11.49938965 0.66848534 6.45039654
-10.14032459 0.45855758 6.60199308
-11.41132641 -0.36438391 5.41384888
-10.58511639 -0.12294905 5.17884970
-11.86790466 0.08127370 5.97246742
-11.74320793 0.92960984 4.97282410
-10.69458675 -0.94469583 5.94577646
-10.87239742 -0.22380239 6.72486830
-10.97033882 0.73845178 5.82298565
-9.81484413 0.94061261 6.83923340
-9.92523670 -0.84062219 6.70445824
-11.06648254 -0.53529137 5.40680933
-10.69067669 -0.07250841 6.87666512
-10.63422775 0.67943454 5.82523108
-11.48942661 0.83600706 5.16998672
-10.34031010 0.67643827 6.60211945
-11.14139462 -0.59518152 5.48203421
-10.79345608 0.63959479 5.65663719
-11.26877117 -0.53580958 5.77507877
-10.11050797 -0.63743013 6.50410938
-11.16219425 -0.57969862 5.58591509
-11.35518551 0.57174581 6.67076969
-9.90736008 0.80201185 6.75095558
-11.22362709 -0.64756125 5.45371199
-11.47226238 -0.56132942 5.47597742
-10.82844067 -0.12113582 6.83832312
-10.30237198 0.61696827 6.32263041
-10.98875332 -0.51675987 6.46712017
-11.23232841 0.52074677 5.27438688
-10.00938988 -0.01489560 6.13025427
-11.07473564 -0.59525788 5.54583263
-10.58181381 0.43373701 5.38660431
-10.25442028 0.11572844 5.57251310
-10.45139503 0.55863851 6.14383411
-10.22064972 0.28917369 6.23431349
-10.23281479 0.45939207 6.23224354
-11.27079964 -0.10909046 6.40690374
-11.17902279 0.63952535 6.38121271
-10.47167778 0.54815781 6.11135626
-11.80195618 0.08312473 5.85770750
-11.40212917 0.62684244 6.69042492
-11.39709091 0.53322822 6.63351440
-11.38752174 0.62549514 6.40383577
-10.13814640 -0.49116710 5.23359966
-10.30750847 0.02115713 5.55922985
-10.33197212 0.09179085 6.37978745
-11.43873978 0.06293344 5.64623117
-10.87941456 0.63142651 5.64123726
-11.33959961 0.58419424 5.24011517
-11.40479946 -0.42260656 5.46551085
-10.11113548 0.14634158 5.74294853
-10.82557201 -0.54565644 6.22411203
-11.54976654 0.79323548 6.75203705
-9.96576023 -0.83275509 5.20254755
-11.13335419 -0.58617508 6.55377865
-10.25617695 -0.41541219 5.68812227
-10.74542522 0.70970559 5.71069241
-9.89918327 -0.08826430 6.05524254
-11.75117588 0.90336359 5.06768131
-10.04045677 -0.22038734 5.93871498
-11.08789539 0.60809171 6.24196386
-10.59510612 0.38542131 6.44727659
-11.19441414 0.18326995 6.48269033
-9.75786304 0.06839674 5.91011953
-11.04623795 0.54843658 5.49387598
-9.79590034 -0.08751491 5.83310938
-11.49921894 -0.53638458 5.26588106
-10.68650055 0.91368008 5.85120964
-9.93859386 -0.13293424 5.88768911
-10.32773495 0.05049941 5.49140263
-11.31874084 -0.13714971 6.34210873
-10.92982292 0.90164280 5.80762339
-10.97379303 0.87346727 5.95764732
-10.40766239 -0.59576243 5.65285301
-10.01423359 0.87347096 6.67723560
-11.45429611 0.49033707 5.44405079
-10.62894058 -0.75761795 5.98833227
-11.71882439 -0.81690210 5.16375113
-11.26377201 -0.63724756 6.29007673
-11.68847179 0.92594528 6.78661156
-10.24242687 0.20527089 5.58167124
-11.61012268 0.77918941 6.82136250
-10.93050289 0.82065624 5.81011724
-11.37443066 0.19078575 5.66092587
-10.41192532 0.62237144 6.34117222
-11.05241871 0.21002667 5.30951023
-11.07444382 0.25424585 5.35115004
-10.29653358 -0.48941115 5.25453758
-11.30935860 -0.23320545 6.47282696
-11.27890682 -0.12580165 5.46058512
-10.25252438 -0.73530561 5.33757591
-10.98380089 0.66267884 5.70643854
-11.11029148 -0.58112979 5.50589132
-10.45638561 -0.10216887 5.37844038
-11.58275318 0.17432407 5.85322237
-10.29865170 0.69693696 5.28113508
-10.66415024 0.07779547 5.05715799
-10.28753662 0.63137078 6.64879942
-11.14241600 0.59185207 5.35311079
-10.77331448 0.99868882 5.82040071
-10.15268040 0.50741768 6.38584137
-10.62669563 -0.33254987 5.35269547
-11.11294937 -0.61242479 5.70061159
-10.74247265 -0.16278949 6.78613138
-11.33085060 0.60271615 5.61075687
-9.92162609 -0.06284510 6.10597849
-10.71661949 -0.90264297 5.81146717
-10.27207947 0.00770572 5.62190390
-10.58737183 -0.79128605 5.94743299
-11.07872105 0.56138623 6.05983973
-11.03949928 0.57216561 5.70871401
-11.21461105 0.40486822 5.34451866
-10.24997520 -0.13531388 5.61678886
-11.01830387 0.00466387 6.70781946
-10.81259537 0.59167528 5.61121702
-11.40190411 -0.47906825 5.59929132
-10.24138737 -0.19100352 5.60376978
-11.38228416 -0.63129729 5.55535793
-11.39576530 -0.61907846 6.31393147
-11.52682686 0.23398741 5.86543417
-10.74047279 -0.08618094 4.92147636
-10.81690407 0.08143138 7.01130819
-10.26751328 0.39153701 6.11414576
-10.47278404 -0.02781859 5.38735914
-10.30062580 -0.15670598 6.34436512
-11.55709267 -0.58200800 5.25502253
-11.23293686 -0.63616914 5.59898329
-10.43606949 0.52163756 5.98489094
-11.55301952 -0.79051644 5.32822514
-10.00699711 -0.15245838 5.81661606
-11.35508347 -0.32827231 5.82125282
-9.96199226 -0.66850710 5.14892387
-9.82059288 0.10452867 5.96591377
-11.36550236 0.22983807 5.54939413
-10.87970161 0.64041948 5.68720150
-11.36508751 -0.43245912 5.29069805
-11.60448170 0.62283742 5.20953083
-11.61726475 0.75597197 6.83293819
-11.19775867 0.61029947 5.31868076
-10.23472881 0.73087972 6.50819111
-10.08361053 -0.09193772 6.12533998
-11.40344238 0.61510211 6.34507799
-10.28015423 0.71338326 5.35256243
-10.04694748 0.66373175 5.30054331
-11.57705784 0.04800696 6.14613342
-9.97300816 -0.73704815 6.59001637
-11.42030525 0.45152581 6.31552124
-10.26642227 -0.46627241 5.67878389
-11.40095520 0.31250954 6.25341034
-11.51231480 -0.74965048 5.38397169
-10.37578678 0.63435435 5.33202648
-10.95004559 -0.08864514 6.71537542
-10.85852909 0.45282781 5.47081470
-10.91547775 0.29841629 5.35261965
-10.46480656 -0.18251447 5.33308077
-9.78948498 -0.10055699 5.87712431
-10.36667061 -0.64690274 5.46589327
-11.13348198 -0.57942307 5.68813705
-10.25030708 -0.33064929 5.94159079
-10.22838593 -0.49288329 6.63444996
-10.96836567 0.54822880 6.32524443
-10.36332035 0.65256405 6.51435184
-10.77495384 -0.95226908 5.83078766
-11.13203526 -0.11117979 6.53262329
-10.00815678 0.62644714 5.28244591
-11.07222557 -0.53975040 5.39415312
-10.44460487 0.40966704 6.54598999
-10.22400570 -0.31162232 5.64473200
-10.94339180 -0.74428856 6.12862778
-11.42591953 -0.41457695 5.50074530
-10.15512180 -0.05348950 5.68442726
-10.24498844 -0.70784128 6.62835598
-11.42479420 0.21486206 6.19720793
-11.22760582 0.56763357 6.15293121
-10.50816917 -0.55249518 5.66336298
-10.36967468 0.58130634 6.59071779
-11.37594986 0.60289955 5.59298944
-10.68646049 -0.03958008 4.91855240
-10.28370476 0.64568573 6.65291882
-10.29292870 -0.49194670 6.13000917
-11.48065662 -0.76214474 5.35691738
-11.56466961 0.17794096 6.06251669
-10.57497692 -0.62603939 6.16611099
-11.28633499 0.19858529 6.46670246
-10.23655415 0.36466965 5.62867069
-11.37060356 -0.26591471 6.21011066
-11.09686947 -0.12020225 6.54246330
-11.40780258 -0.27680269 6.02958965
-10.26828384 -0.48049009 6.16223097
-11.65582657 0.16334781 6.01779032
-11.00465775 -0.10949558 6.65896988
-10.66361809 -0.84468144 6.02858257
-11.77308750 -0.91995609 5.06916332
-11.65473747 -0.70865345 6.67454290
-10.05452728 -0.54040772 5.24512434
-10.58250809 -0.69522107 5.92723989
-10.64491940 -0.01602721 6.87686062
-10.12655449 -0.51800835 5.27533436
-10.05916691 0.71501404 6.51135683
-11.41266251 0.44438803 6.57117605
-10.57595158 -0.18860294 5.31254339
-11.28532696 -0.36872855 5.92424440
-11.03535652 -0.67646509 6.08413982
-11.50701809 -0.69811791 6.74603558
-11.77654934 -1.01475692 6.91694117
-9.95816803 0.02247663 5.73035526
-10.38192272 -0.54088694 6.56007671
-11.36477280 -0.74045008 6.58663225
-11.66445637 -0.08697640 6.08777714
-11.18473244 0.01765079 5.44728231
-11.44548035 -0.55882245 5.19331026
-11.57966709 -0.89629245 6.77448702
-10.75574112 0.87824595 5.77545404
-9.89846992 -0.87166721 6.68540096
-10.13451767 -0.47032878 5.31566668
-11.88353062 -0.01596764 6.01172161
-11.35638046 -0.63948220 5.22261810
-10.39406204 -0.50179791 5.87391853
-9.89492416 -0.97615159 6.90976858
-11.69035244 0.11624262 5.85071039
-11.67109489 -0.84758395 5.13456154
-11.35598564 0.32537711 5.55461931
-10.25017071 0.23677956 6.39324331
-10.22998524 0.34257606 5.46682262
-11.60704803 -0.07427891 6.07900810
-10.48054123 -0.53498369 6.48689604
-11.20111752 -0.61703336 6.53803825
-10.49269009 -0.23574257 6.54064465
-10.89019585 1.04910660 5.93340921
-10.47686291 -0.00943371 5.37576818
-10.98523617 0.68691611 6.12296915
-10.46375275 -0.35921383 5.32988214
-11.29370499 0.08976498 6.36045456
-10.75544548 -0.88600355 5.78047800
-10.82584190 1.10914958 6.00789738
-11.32559872 -0.59055865 5.23258114
-10.84712315 0.19473314 6.72230434
-9.90062237 0.75124967 5.09688234
-10.75976658 0.90954745 5.81367636
-10.26635361 0.27528504 6.46768522
-11.36559963 -0.32331356 6.37266970
-11.04877090 -0.60256404 5.68941402
-11.30165768 -0.21256994 5.38082790
-11.29994297 -0.22322568 6.42983961
-10.23587418 0.28395471 5.59831715
-11.30859756 -0.71900421 5.36615801
-10.44765091 0.60483718 6.27933216
-11.58715630 0.67299479 6.75175142
-10.12930584 0.66360950 6.40353251
-10.81696796 0.58455926 5.65199471
-9.83822155 -0.97733533 6.89497471
-10.06138706 0.56154275 6.67470074
-11.47161198 -0.47111130 6.60672808
-10.18284607 -0.72606629 6.65381908
-11.55843544 -0.11678155 6.08385324
-10.89179325 -0.18953301 6.69812250
-10.96637535 -0.20379072 6.59930182
-10.90469074 -0.51305377 5.57246351
-10.40625095 -0.43888634 5.30826426
-10.21882725 0.45338765 6.60723257
-10.64392567 -0.11246170 6.66424370
-10.96187782 0.90612239 5.99026728
-10.50607586 -0.56580615 5.77750254
-10.53399181 -0.54225856 6.45466948
-10.66403961 0.39310229 5.40858459
-11.18754387 0.28791919 5.32546282
-11.07872772 0.30002326 6.52784634
-10.83477116 0.96431744 5.82476711
-10.67244720 -0.43173012 6.44361019
-11.69303703 0.86169213 5.17291641
-11.61364841 -0.83473957 6.62921572
-10.63875580 -0.09323768 5.12528753
-11.06443405 0.02580673 5.33513117
-10.77365017 0.32432401 5.37975359
-11.17684174 0.38024062 5.30568886
-11.42488766 0.51888591 6.70506191
-10.65688801 -0.12848249 6.76038980
-10.22581291 -0.32089952 5.93209553
-10.39207840 -0.54375035 5.71521902
-11.27498627 0.50702876 5.73842430
-10.27045631 0.74479520 5.30272150
-10.09864712 0.53707701 6.43604136
-10.12517738 0.79356641 6.65257645
-10.29659653 0.71347290 6.51554966
-11.49046230 -0.83942825 5.21920490
-11.68518448 0.12946157 5.88305235
-11.60535812 -0.61195874 6.56682301
-10.64338684 -0.72918397 5.78311014
-9.77775097 -0.11167126 5.96376991
-9.93821621 0.77869952 6.76955986
-11.17864895 -0.21833637 5.35861206
-10.37307644 0.41582891 5.29865742
-9.88894463 -0.89642155 4.96431303
-11.41245556 0.39709941 5.55691624
-11.11593914 -0.36733055 5.32942581
-10.26707649 -0.40769559 5.87294912
-11.54697800 -0.65959728 5.30686760
-10.00421524 -0.67545062 5.32391644
-11.11234093 0.59729409 6.39210558
-11.25839901 -0.63163632 6.44761372
-10.70338726 0.11309704 5.08118582
-10.36819744 -0.52412665 6.05745649
-10.44047928 -0.22984840 5.36472416
-10.68429184 1.12712836 5.92863941
-10.86987877 0.07157099 6.91739988
-11.72432232 -0.95668322 6.89266443
-10.12853718 -0.70892906 6.75630474
-10.38366032 -0.44933799 5.90361166
-11.60714817 -0.88629729 6.69847441
-10.82579517 0.91345304 5.78556395
-10.65438557 -0.12674183 6.64382124
-11.50158691 -0.48669416 6.47254133
-9.85718727 -0.96312255 6.88621902
-11.22347546 0.63626695 5.33306551
-10.27620792 0.35479406 5.32120419
-10.08391857 -0.17781897 5.78788280
-10.89597130 0.91242909 6.05843306
-11.22676373 0.46208489 5.28998804
-10.00689983 0.15463944 5.81498957
-11.40646267 -0.80667555 5.21900272
-11.35606480 0.32828796 6.48215675
-11.14355755 -0.54156029 5.34949017
-9.70046139 -0.05258216 5.95624495
-10.62350750 -0.83941919 5.96270895
-10.05447006 0.61622363 6.64559984
-11.60148048 0.87012333 6.72694874
-10.00721455 -0.02699651 5.74197435
-10.71139622 -0.20351307 6.64739275
-11.29702759 -0.10721104 6.37551355
-10.42817593 -0.49850437 6.58413696
-10.45912266 0.46567771 6.55297184
-11.03523445 -0.55675751 6.30343246
-11.10877895 -0.56847984 6.24879026
-11.13853168 0.53970635 6.05474091
-10.26150417 -0.63884801 5.52353096
-10.12571144 -0.25658160 5.87496758
-11.02926636 -0.51831806 6.37658024
-10.28495312 -0.41803321 5.77579069
-10.43062401 0.59295666 5.50624371
-10.57982540 0.76581180 5.97125101
-11.14388561 0.53408581 5.77261925
-9.87430000 0.88917011 5.09767246
-11.43765736 -0.64107376 5.17048693
-10.27335167 0.52448082 6.18148518
-10.14867783 -0.53637260 6.34428358
-10.65779400 -0.05456070 5.02273083
-11.49260426 0.86167663 5.09647751
-9.93134022 -0.92245972 6.92298698
-11.48377705 -0.75769442 5.32337093
-10.59465599 0.24365906 5.34058571
-10.81788063 -0.99301887 6.04674292
-10.57473755 -0.06408165 5.23050976
-10.27898502 -0.72325724 6.43795729
-10.24844933 -0.47222549 5.26656485
-10.97356701 0.07515045 6.73488569
-11.27346420 0.12666829 6.40974092
-10.25024414 0.32568985 6.46426249
-10.90377998 0.12084273 5.05025482
-11.48507309 -0.20102507 6.03589010
-10.06488228 0.52651805 6.51592779
-11.52964020 0.73809671 6.76146936
-11.24977207 -0.54959404 5.74770451
-10.85946465 0.29263499 5.24141026
-10.34781647 0.44034660 6.60613585
-10.11413574 -0.63907069 6.44691277
-10.10206985 -0.71887898 5.39460993
-10.69875622 0.52293819 5.49455309
-11.60497665 -0.67141014 5.30827618
-11.53850651 -0.58265156 6.55088520
-11.53342628 -0.68638790 5.40969038
-10.20733643 -0.27400994 6.33636713
-11.29486275 -0.19939786 6.41709900
-10.81262589 -0.09626121 7.00554895
-11.04985523 0.67204440 5.92153597
-11.40086555 -0.35320473 5.56018639
-10.58151817 0.13592513 6.59040833
-10.21202755 0.74697709 6.53253603
-11.61280441 0.06453554 5.75421047
-10.11149311 0.48167604 6.40716696
-10.98989201 0.14852327 5.19152069
-10.44479465 0.58524382 6.30496931
-11.41439629 0.09938557 5.65695190
-11.32558823 -0.53195256 5.69294024
-10.39690399 -0.41868350 5.31188059
-10.00328541 0.75583142 6.57347488
-10.23950386 -0.06950752 5.62358665
-11.30233192 -0.41167426 5.81833172
-10.08818054 0.86148149 6.80504417
-11.71772099 0.83776212 6.84200573
-10.28035831 0.11418486 5.53021479
-10.31766129 0.16900878 6.43651628
-10.95181656 0.11618850 6.76802349
-11.49566364 0.49679750 6.66019440
-10.79408550 -0.26784515 6.57230473
-10.18367195 -0.74145931 5.40843821
-10.04179668 -0.18535465 6.01648283
-10.67369938 0.02796835 6.90988874
-11.52487564 0.75362450 5.08147287
-10.46322918 -0.08620138 6.48271942
-10.11300755 0.78905356 6.55622959
-10.63041210 0.80561936 5.89503717
-11.32220268 -0.50255656 5.64158297
-10.17988205 -0.57646841 5.18211031
-10.16216946 0.63569891 6.71775627
-10.94464207 -0.90293396 5.98051977
-9.66494179 0.01845137 5.93390369
-10.92544937 -0.08173358 5.01705742
-11.16831398 -0.60894841 6.31585836
-11.55229187 0.84167159 6.77398920
-10.33992481 0.68275714 6.45915794
-11.32159805 -0.66134369 6.34818602
-11.24649525 0.49440509 5.99525738
-10.58248615 0.14287101 5.21749163
-11.07529068 -0.15434794 6.57250500
-11.39088726 0.45785543 5.60626745
-10.20130348 0.44791397 6.28194284
-10.50638294 -0.61033487 5.95506334
-10.89815426 -0.02783040 7.00138235
-11.16897583 0.53849560 5.83125782
-11.32889271 -0.57017589 5.64593554
-11.10481548 0.56849086 6.21540642
-10.24340725 0.51428306 6.64164352
-11.60381508 0.85032231 6.62717628
-11.57031155 0.63833278 6.71446228
-11.26842403 0.14474338 6.42851734
-10.56455994 -0.73277467 5.90458918
-11.00564480 -0.36344248 6.52746010
-11.66040802 -0.91617072 5.10681343
-11.35917282 0.30855376 6.21120930
-10.31028938 -0.41159904 6.57050085
-10.27342129 -0.49229172 5.69082928
-10.83248806 -0.78629512 6.13412380
-11.64897537 -0.81341600 5.23372889
-11.41571045 0.60478592 6.31539297
-10.62658787 -0.80480713 5.99928856
-10.10553455 -0.20883985 6.07635593
-10.15858650 0.47398543 6.31722021
-11.28240204 0.01911451 6.38523960
-10.99562168 -0.48430783 5.42541027
-10.06737328 0.03079117 5.73416376
-11.01591682 -0.03134649 6.63737297
-11.60354710 0.90568250 5.03860569
-10.56861115 0.52685678 5.41128683
-11.83528805 0.05742291 5.86783504
-10.86051750 0.19484639 5.13452053
-10.68677902 0.97320271 5.88605595
-11.39173698 -0.80866528 6.63660908
-11.16341209 -0.60073066 5.46700239
-10.93619823 0.52828807 5.61602068
-11.34278774 -0.47208253 5.27134514
-10.23196125 0.31286073 6.26337481
-10.30465508 0.56537324 6.27200270
-10.76933002 -0.86223471 6.12613058
-11.55996895 -0.62108421 6.57011557
-10.60074615 0.08109373 5.24344635
-11.62410927 -0.94841075 6.80465508
-10.89824009 -0.47207171 6.35822248
-11.27550030 -0.66666687 6.43591118
-11.38532066 0.55691504 5.58310890
-11.47029877 0.75224096 5.08823490
-9.96668148 0.71952283 5.18815708
-10.54185867 -0.03888297 6.60142136
-11.29723263 0.46262211 5.28401232
-10.02785397 0.86129719 5.14174509
-11.31919956 0.18652608 6.36615849
-10.87691879 0.79775608 5.77734184
-10.14134884 -0.05189959 5.66201687
-10.33326149 0.54705769 6.19386244
-10.25487041 0.63457924 6.30082178
-10.19157505 -0.46303728 6.28668213
-11.44778538 -0.42771092 5.48409224
-10.11173916 0.73877716 6.47807598
-9.96043015 0.13575320 5.77725983
-10.20134926 0.34683159 6.44569874
-10.07963848 0.67652738 5.38088751
-11.11482048 0.56093693 5.87500191
-10.12918854 -0.46544468 5.28353262
-10.58799553 -0.67791748 5.82109022
-11.11736012 -0.58993757 6.42415094
-9.88563156 0.96815681 6.80726671
-11.62368011 0.67673886 6.66387463
-11.44774723 -0.73280227 5.36303616
-10.53904629 0.01396309 5.32011080
-10.02182961 0.86105150 6.70257950
-11.08704567 0.60057163 5.91136599
-10.64981174 0.26466185 5.35150337
-10.19288445 0.61714709 6.70437717
-11.52669144 -0.61023939 5.41989088
-11.38785172 -0.19553120 6.15820837
-10.23008728 -0.35156247 5.36807060
-11.04611397 -0.31623372 6.52367735
-11.43417835 -0.17862375 6.12829351
-11.80313492 0.94564646 5.05898142
-10.37423515 0.25740531 6.48655081
-9.90114307 -0.94899559 5.08788633
-11.38960171 -0.30107614 6.26458216
-9.94559383 0.91505909 6.86563301
-11.40152454 -0.70284539 5.18284130
-11.63799477 0.15913060 5.88084030
-11.38211250 0.29538929 5.72055340
-10.63801670 -0.15155959 5.07703114
-10.91843319 0.14711349 6.78157043
-11.13821507 0.54851383 5.79113245
-10.92881203 -0.75731415 5.77319384
-11.20507717 -0.36422989 5.31872845
-11.55614948 -0.06029746 6.17402554
-11.22235203 -0.64096618 5.47299623
-10.94653511 -0.01142264 6.84039497
-11.75316334 0.91097820 5.05035591
-11.41469765 0.20386262 6.16214943
-10.73957539 -0.83872807 6.08995008
-10.95480728 -0.02860977 6.91221189
-10.80707550 0.87744737 6.08513212
-10.16729641 0.39460203 6.48401546
-10.37893772 -0.44732296 6.57039070
-11.65878677 -0.85170573 5.21073627
-10.18581295 -0.31322911 5.96571827
-10.59998226 -0.53010774 6.37352371
-9.91983891 -0.87831044 5.19136429
-11.59845829 -0.86862063 5.05582905
-11.10315323 -0.24630439 6.51429415
-10.25144863 -0.44298747 6.22308922
-11.29850578 -0.49335048 5.74929476
-10.94811630 0.42448810 5.42980528
-11.18089867 0.50237656 5.96868944
-10.18334961 0.67209959 6.37762356
-11.71483040 0.95766872 5.06514549
-11.24446106 -0.49845591 5.88245773
-10.73414135 -0.96293783 5.83663130
-9.96665955 0.72582704 5.09874773
-10.21733761 -0.53539783 5.62082863
-11.32970810 -0.25044942 6.52674961
-10.87103844 -0.02819179 4.81041527
-11.58337212 0.17926696 5.95303774
-11.32003784 0.70883930 6.48367882
-11.43007469 -0.77195126 5.15270710
-11.55687618 0.66498911 5.36267471
-11.38666725 -0.38950726 6.56571388
-11.37335300 0.44141501 5.63598156
-10.62415981 0.56499994 6.38756657
-10.25011253 -0.54508811 6.67522478
-11.41408062 0.56103927 6.66242075
-10.92239857 0.20611475 6.61955309
-10.16843319 -0.15848383 5.70030260
-10.82408142 -0.34757054 6.48741198
-10.99418736 -0.34244505 5.39047432
-11.34848022 0.60447305 5.20476723
-10.80128670 -0.43493640 6.40893745
-10.24497509 0.10112289 6.28977919
-11.51291180 -0.38404903 6.48549509
-11.46513653 0.20290811 6.11521292
-10.13850498 -0.43025470 6.38563824
-10.64004898 0.07064945 5.03436136
-10.48428059 0.15813139 6.45452642
-10.41428852 -0.59338236 6.18414259
-11.27130795 -0.68243468 5.33998537
-11.35185719 -0.38619095 5.74696827
-10.24221039 0.10260488 5.66110420
-11.25799751 -0.63085061 5.34846592
-10.97113514 0.65490359 5.76848984
-10.77208424 0.27936277 5.25063419
-10.16152000 0.77643102 5.23076200
-11.05077362 -0.56646073 6.37819147
-10.70648098 -0.74275416 6.12331915
-11.53656673 0.78976101 6.54849148
-11.39847660 0.63072348 5.54967499
-11.14008522 -0.42340019 5.36129665
-11.65049648 -0.74969643 5.20870066
-10.13087082 0.78641182 6.70659924
-10.55166817 0.45827726 6.48071861
-9.92782211 0.77191168 5.01093149
-10.02892113 0.09202782 5.76905775
-11.29571819 0.63956803 6.29658937
-10.49180698 0.51556093 6.52012634
-10.86162376 -1.03983498 6.04227781
-10.15832329 0.41416568 5.48955202
-11.03930473 -0.52202290 5.40791082
-10.13934708 -0.71656507 5.44815350
-10.78263378 0.21330586 5.12752581
-10.40929222 -0.50611532 6.11809778
-11.72373295 -1.01739323 6.89373732
-10.71125031 1.05616856 5.88845873
-11.40413094 -0.45301309 5.58485031
-10.61526108 -0.82360297 5.97071362
-11.69468403 0.05847029 5.77536297
-10.83438396 0.18664581 5.09064674
-11.65069485 0.94058627 6.84578466
-10.20354080 0.63462692 5.49718618
-10.23053360 0.61256987 6.67126322
-11.65345764 -0.80643260 6.81538677
-11.36026573 -0.33960599 5.55201960
-10.06904411 0.56579369 5.36128521
-10.72529030 -1.07236016 5.96261454
-11.34539318 -0.19918257 6.31913900
-10.37911320 -0.61372179 6.57182360
-10.45524693 -0.35858592 6.52218485
-11.11390305 0.35639617 5.38887310
-9.88617229 0.11029600 5.83039618
-10.80664062 -1.01521647 6.03099680
-11.37636852 -0.36687914 5.72416115
-9.88511467 0.79197222 6.87182570
-10.51644993 -0.37319255 6.49680996
-10.55484200 0.01804451 5.29189682
-10.65358543 -0.17386650 6.67877054
-11.49836540 -0.68779618 5.46912670
-11.27177811 0.66978455 6.42457676
-10.78285599 -0.22664262 6.62491322
-10.85591221 -0.16048740 6.77315760
-11.52499866 -0.03750261 6.12438154
-10.39918900 0.10741842 6.45022249
-10.60269547 0.50524116 6.37837267
-11.42550087 0.18073107 6.17906189
-11.51280212 -0.19897322 6.06638670
-10.20885944 -0.25387233 5.83817530
-10.34015083 0.44585255 5.89051390
-10.10282230 -0.82124430 5.25615835
-10.48665524 -0.11906152 5.34262609
-11.38837814 0.16159730 6.24064875
-11.63118172 -0.69416463 5.15254879
-10.38675404 -0.50964731 6.08126640
-10.22902203 0.70750070 6.68255043
-11.44601154 -0.52406675 5.24029016
-10.17486191 -0.43748522 5.61188507
-10.92504787 -0.83498371 6.06103849
-11.55444813 0.66229212 5.33663940
-10.98859119 0.04815301 5.06128645
-10.26509476 0.67993498 6.38707352
-10.71922207 -0.02751630 6.97363186
-11.37640572 -0.34914538 6.25360727
-10.27109909 -0.56285310 5.66732740
-10.80393791 0.14043652 5.05636501
-11.43006039 -0.63349187 5.17449856
-9.88859177 -0.01499562 5.78375340
-11.48713398 -0.22025760 5.97707653
-10.94141579 0.05451363 4.89537334
-11.36490726 0.55227757 5.64500523
-11.22294712 -0.35630593 6.53724957
-10.84718990 0.02924228 7.04270267
-10.19175625 -0.29186857 6.01823044
-11.19413567 0.17408322 5.40432549
-11.32460785 -0.17332135 6.32351780
-10.10652828 0.49207526 5.26042891
-9.93930817 0.08492506 5.75426960
-11.18797684 -0.57113290 5.59458065
-9.82459259 -0.91160959 6.88652706
-10.92693329 0.05880975 6.83350706
-10.88592911 -0.39125389 6.41793203
-10.90572357 0.85579383 6.08357954
-10.11462212 0.80892158 5.15664387
-10.21304417 0.34476113 5.58651543
-10.76202774 0.54689103 5.56060934
-9.97869205 -0.72325009 6.64237595
-10.10792828 0.78455067 5.33689642
-10.27963924 0.70731825 6.51808977
-10.30232430 -0.36504534 5.92881823
-10.16528988 0.46352023 5.47497797
-10.40663719 0.51316637 6.56578922
-10.58573723 0.44127145 5.36272192
-10.36114883 -0.61442715 5.48149872
-11.38446331 -0.35321498 6.27844238
-11.45861816 0.78477031 6.55003595
-11.29986572 -0.24931766 5.39433575
-10.26712799 -0.37610272 5.30698919
-11.12676525 -0.12336112 6.48649693
-11.33338356 -0.23734492 5.43014574
-11.32565022 0.32767951 6.05821657
-10.47078419 0.59947008 5.42924261
-10.46728992 -0.19918063 5.39321804
-11.47148895 -0.47003096 6.44979763
-10.63882637 0.35253209 5.37845564
-9.81865025 -0.16054411 5.96793461
-11.02454090 -0.30100325 5.34025669
-10.28712082 0.06480438 5.56699085
-9.95628643 0.73887277 6.63618183
-10.12306404 0.47915757 6.49102974
-11.36825943 -0.33527058 5.38712263
-10.82632828 -0.81940150 5.79618502
-11.51905727 -0.23589475 5.82918501
-11.44364357 0.40582645 6.33359241
-10.65397358 0.21445030 5.22925711
-11.57987881 -0.83931303 5.03931475
-10.98293972 -0.80206591 6.01094818
-9.99421024 0.67492908 5.16000223
-11.72108078 0.93814492 6.83953381
-11.46741295 -0.80632287 5.17639494
-10.06855679 0.68060172 6.76171446
-10.83399391 0.52361560 5.60932350
-11.65384579 0.15868811 5.87746239
-10.64867115 0.42648420 6.47806883
-10.70341682 -0.80429691 6.10305309
-11.37792873 -0.43684006 5.64327621
-11.16130924 -0.61547303 6.46169519
-11.11170769 0.04256222 6.52196836
-9.84849262 0.14717430 5.83953333
-10.85518742 0.20117112 6.70698738
-11.33956909 0.38354227 5.73591089
-11.54336262 0.19712815 5.86902142
-9.85649490 -0.08309083 6.03494120
-10.19953156 -0.38601851 5.32188463
-10.69769192 0.17194404 5.20803261
-10.86681366 0.12283687 6.86242008
-10.18119526 0.53240949 5.56547308
-10.84487438 -1.08893418 5.99047565
-11.78654480 0.10986475 5.90844059
-10.94938564 -0.68770969 6.09207869
-11.37384987 0.29889989 5.87303543
-11.16338444 0.55056787 6.13000631
-10.13749886 -0.72164536 6.44703770
-11.52642441 -0.08886325 6.20171022
-10.99220276 0.71612734 5.87237406
-10.91967773 0.42782089 5.39402914
-10.54681301 0.28697985 6.54581594
-10.07015514 -0.74418300 6.75561666
-11.55163860 -0.83480221 5.23783064
-11.35683727 -0.71757168 6.64681005
-10.89626217 -0.07448822 6.90794802
-9.93344307 -0.76974368 5.05728054
-10.97813797 -0.38442525 6.48538399
-11.60430241 0.71725285 5.23491669
-10.64647198 -0.60199291 5.64744854
-10.27021313 -0.02291927 5.59818602
-10.08640003 0.77102488 6.76639748
-11.73190022 -0.89359003 5.09210110
-10.57454300 -0.73786634 6.02933168
-10.24974060 -0.59276205 5.56637812
-10.63346386 -0.35204566 6.46425629
-10.18811893 0.21349210 5.74911261
-11.38734436 -0.69868886 6.52281713
-10.73577118 -0.01146755 4.83163691
-10.81335640 -0.92545092 6.08708048
-10.13406944 0.82475901 6.60849714
-10.84129906 -0.24288781 6.58729458
-10.75187016 1.00666559 5.87874842
-11.67392063 0.77032238 5.13678503
-10.10304928 0.07561637 5.74082565
-11.49372387 -0.77980077 5.11407280
-11.03671646 0.58769161 6.28080845
-11.22511101 0.32055569 6.51850939
-11.22398090 0.63270634 6.37902451
-11.44585133 -0.45632961 6.44356728
-10.13275242 -0.61870140 5.12910652
-11.45252514 0.21549875 5.75608349
-10.25240707 0.73351979 5.32853889
-11.55209160 -0.88636041 5.09604263
-11.05417538 -0.56342906 5.64300346
-10.25355053 0.02325622 5.57070541
-9.81146240 0.00788503 6.04051638
-10.07955933 -0.79053998 5.20591021
-11.35077953 -0.36358458 6.51647568
-10.29262352 -0.47059223 5.25205660
-10.95048904 -0.04454469 6.77975655
-11.71615601 0.80997825 5.03627396
-10.87109661 -0.23496708 6.48150110
-11.56076336 -0.75496894 5.08599710
-10.14241314 0.46463382 5.42943859
-10.46728039 0.12734076 5.37796307
-10.18722534 0.36282882 6.50094461
-10.06265450 0.81887197 6.64780045
-11.11746216 0.51328242 5.89254904
-10.77414703 0.37369990 5.42446041
-10.89157486 -0.23784345 6.66809940
-10.27176952 0.22162744 6.32200289
-11.27367687 0.17275913 6.44573498
-11.34249687 -0.23254143 6.44308376
-10.46914196 0.04739176 5.37090826
-10.19303989 0.02468375 5.65577698
-11.35098648 -0.33365792 6.55190706
-11.23388100 -0.65242338 5.48201895
-10.36764240 0.10150892 5.46265745
-10.08073997 0.80041885 6.57403755
-9.91906643 -0.81657618 5.04637957
-10.83452415 0.16566530 6.78851843
-11.23069763 -0.13975339 6.44536686
-10.32537270 0.12718703 5.48873711
-10.72995281 -1.08606708 5.98083782
-10.23884010 -0.68474817 6.44507599
-10.02163982 -0.14470777 6.07081699
-9.89007854 0.96751726 4.95175028
-10.88924122 0.97910160 6.02967882
-10.53764248 -0.36488041 5.38748980
-11.08194065 -0.23346750 6.51571417
-11.58448410 0.71600157 5.29189014
-10.61190033 -0.76087683 5.84560347
-10.23923492 -0.57698077 6.29735851
-11.68403053 -0.92028821 4.95773935
-11.41523075 0.36662382 5.51065636
-10.85068321 0.99439776 6.02786779
-11.43767548 -0.63183647 5.12683392
-11.35272312 0.44381285 5.75183725
-10.31645012 0.64374095 6.43518972
-10.69475937 0.84108132 5.78209066
-10.93025112 0.11313066 6.79153442
-11.66199398 0.04376176 6.11202717
-10.34403992 0.47317418 6.03853798
-9.93747520 -0.89727670 6.66673851
-9.70151043 -0.03060837 5.86482143
-10.24083424 0.67286474 5.18129492
-10.35443020 0.50455517 6.10362673
-11.00760937 -0.10142440 6.70661736
-10.41219616 -0.24635360 5.39880371
-11.46146011 -0.46125814 5.38636303
-10.83245659 0.01246508 7.09984922
-10.02656555 -0.12913921 6.12203836
-10.37436867 -0.01690288 5.45389557
-11.44567776 -0.13102603 6.16284990
-11.37442589 0.18269539 6.23327303
-10.08325672 0.67002618 6.45028782
