2.21508813 3.49375629 -14.59723091
4.24629641 -4.21587944 -10.29925346
0.92898220 -4.77913380 -14.30192566
1.80695271 -1.63448799 -14.07838440
1.06903493 0.48542574 -9.81816006
3.28489804 -0.70196074 -17.00974274
1.04995608 -5.23860455 -12.69212627
0.62591285 -1.07508743 -10.19249725
3.88635993 1.69869196 -10.26530838
3.80651593 2.30889034 -14.66147232
-3.87679625 3.02396703 -9.04555130
-2.02366662 1.93263626 -8.77715874
4.15103579 3.46187329 -13.31334782
-2.77586961 -1.00476766 -14.65600777
1.09288931 -3.96322989 -16.29861641
2.79944110 4.15746164 -14.63278961
2.53399944 0.98293233 -9.00595951
3.50725818 4.32851601 -13.26697826
3.53487420 -4.19058895 -16.32900238
3.69490814 1.23162293 -10.39925957
-1.18208373 2.25416231 -9.66810799
-3.30430675 1.37043440 -8.56192017
4.12369823 1.36179185 -9.68628120
0.59237963 -3.74387884 -16.80290222
-2.10852170 -0.92963088 -16.33408737
-3.75483274 -2.52035260 -13.52934742
-2.00656366 0.58105838 -15.37228680
-3.35779452 -2.01419377 -17.08448219
3.13059902 1.62899137 -11.09880352
-2.64323330 -2.35723639 -12.26233482
-3.13348198 -1.33663416 -16.90997314
-1.54255867 4.54848528 -12.96918678
-3.66170311 -3.07274795 -13.42276382
-3.78283191 4.08212519 -9.26245117
-2.32429194 4.20323563 -12.37106228
-3.82255578 -0.82862926 -16.89066315
-1.89674997 -4.13868999 -9.04437637
-3.19465971 1.90291393 -13.75792217
-2.50024700 -2.12508321 -12.89227200
-4.25566101 -3.05271912 -9.42185020
-2.55382824 2.03031492 -8.71162033
-0.92598653 1.72112131 -10.22652435
1.10626709 2.22553205 -16.13118744
4.14006519 -3.96675372 -15.33829403
-3.62766027 3.99825788 -16.05424500
-0.37597448 -2.81737900 -16.16440201
3.60700679 -2.61983347 -10.43664646
-3.94990444 1.33307719 -17.13079834
0.66819596 4.10520649 -9.35890675
0.36412394 -3.86513853 -14.58134937
-1.24396992 -4.04363108 -10.59012222
2.22799921 -4.14295721 -10.22244167
2.19232774 3.78867221 -10.20308685
4.15467596 -3.22538900 -9.93325710
-0.32912534 4.03936338 -15.79211044
0.66874444 -1.32315028 -15.35613155
-0.82816887 -2.56369901 -16.40009689
-4.12989664 1.36495376 -8.95775604
-0.15720136 0.89731175 -10.30187893
2.85328913 2.11932039 -13.23465919
-4.06787920 2.66083336 -10.49958801
4.03642035 -0.84152067 -15.49072552
-3.73314667 -3.71842432 -13.73063278
3.55181980 0.30564585 -10.45204163
-1.23337114 3.94854426 -14.84230137
-2.64356279 -3.78143239 -12.40547276
4.20300341 3.66667008 -11.50299454
-1.96137559 -4.00315285 -13.60435867
-1.49535751 -4.12497139 -16.17361450
1.63422060 -4.41335440 -12.19390392
3.81938362 -3.46202826 -12.35881424
1.06620800 3.93208408 -17.50010681
3.84634614 3.89891386 -14.92163467
0.49423993 3.82731795 -11.13561726
-3.84979653 -3.35879207 -12.97192383
-0.39996678 -3.85749388 -10.88139439
-0.33222985 3.55130267 -15.43601322
-0.73569161 4.98356676 -11.89743996
3.39643288 -4.07516813 -9.79857635
1.51174724 -3.74449563 -11.52164173
-2.68786263 3.92998362 -11.94381523
4.12642860 -2.66732812 -11.36855221
-3.41239929 4.19444704 -9.52248192
-2.14261651 2.13955522 -11.87653160
-0.66941255 3.88595939 -14.75416183
-2.39165282 -3.75026178 -10.16586208
1.34170508 3.37800574 -8.76972198
2.61483049 4.15278816 -8.97364807
-0.30060658 -0.66663861 -10.11760521
0.76817364 2.32873869 -9.31543732
-1.79797661 0.68144089 -15.45754814
1.91327274 -1.89841259 -14.68143940
0.19265564 1.87370706 -15.82557583
-2.90229559 -0.99393684 -16.64183235
2.71799302 -0.12774880 -15.58969879
-0.60842490 -1.11299288 -10.36477280
3.50482059 -1.91230571 -8.93712711
-3.24837446 2.24200463 -14.50230789
-1.88178480 -0.66612464 -15.74181175
-3.60472226 1.33021522 -9.95071411
3.91139436 -2.96349406 -12.85750866
-1.76835454 -0.02161939 -11.24912167
-0.55441195 0.22357863 -10.11067677
-1.90286744 3.47682238 -8.78630161
2.51354980 -2.90282536 -9.12026787
2.16685677 3.95059133 -11.92605686
-3.41543293 0.84829402 -10.42580128
-1.44259810 1.15415370 -15.54205513
-4.10616732 0.75468415 -17.35182953
-1.57586133 2.66323495 -8.94385815
3.78317738 -1.46974254 -16.66754913
1.77519786 -2.18369794 -9.24895382
-2.17923355 -0.27684140 -9.94625854
-1.48251033 2.04343009 -15.54270172
0.84866959 5.18382359 -12.90934277
0.53817880 -4.03064013 -14.78015709
2.43888474 0.76782358 -10.71206760
-3.52795720 3.78699422 -16.85923958
2.94069195 -2.20966434 -11.92800140
2.44157481 -2.11339045 -14.71633148
0.73291314 5.65259171 -13.24791718
3.30576777 -4.18350506 -16.50807571
1.86335135 1.14426148 -9.92889595
-2.05884552 -3.60147572 -13.67985725
-2.22907877 3.94147491 -8.94547462
0.65415293 5.07149172 -11.85900211
1.31923902 -2.47540569 -16.80482864
1.81052017 -0.20266497 -11.50759983
-1.18826771 -4.73204851 -12.08850765
2.02603650 2.70276046 -16.59040070
1.43532336 0.22576787 -10.13593483
-2.84234071 -0.03457078 -10.39029121
-4.26882029 -2.85447598 -16.18438721
4.19938087 3.10301876 -11.43169785
0.19179264 4.29946375 -14.54251862
0.07176113 -1.73220038 -15.38918686
-4.08880424 3.88819075 -11.25427914
-2.91304541 -1.66601491 -16.73551750
0.09388098 -2.82632470 -16.14967155
0.60127622 -3.78984332 -16.32009315
-2.45238090 0.06456047 -15.56478882
-1.62861431 -1.65396488 -14.01084042
1.59466004 2.37537479 -16.11932373
3.77064157 2.53294110 -9.42982578
0.09512000 1.63814795 -10.46163940
-3.97999978 -2.99006367 -11.16851139
2.96920729 -1.56591868 -10.88220024
3.45089412 4.06138277 -10.43339729
-2.46636391 3.99300766 -11.36216927
-0.65446031 -3.91197157 -8.59334183
3.78824520 -4.30429554 -11.99544048
-1.27282798 -5.09792852 -12.92582130
2.40931630 0.71783477 -11.28811169
3.11066675 -3.61510539 -14.26829815
-1.68407822 -2.65206623 -9.29375839
-2.66950417 4.14997578 -12.68078041
-3.97702289 4.03795433 -11.61953926
-1.31853616 1.69154620 -15.86189938
3.66923356 -0.01798705 -16.90979767
3.07702088 0.04194394 -16.69042587
3.58256197 3.29760361 -16.55013657
-3.60689449 2.82675171 -8.77611351
3.16021585 -2.16329837 -17.20889282
-1.02748752 5.39785624 -12.61604881
-0.89665985 -5.54967499 -12.70382023
-3.74482942 -2.77285624 -13.07656956
-3.03663778 3.93075871 -16.61519241
-2.17674136 0.89144027 -9.28773212
-1.96065629 1.57542074 -10.02547264
-2.79998469 0.61411548 -16.46305466
-3.73058558 -2.55822039 -11.72912312
-2.51381135 -3.43772388 -16.80808640
-3.71206594 4.08038235 -10.39854240
-1.14975655 -3.47532248 -8.82130623
2.57635355 4.23407030 -11.89693832
-3.30025649 -0.64621788 -16.98781013
3.99555230 -2.63129306 -8.82142067
2.22450638 -0.65282559 -9.52509880
4.01854610 2.55140090 -15.25527954
-4.06223154 2.09685707 -15.75707054
2.06188488 -1.21476901 -9.58820343
-3.79231429 2.92279100 -13.14549637
-0.15184033 2.39896226 -10.08879471
1.80758584 -3.81605315 -13.40295124
0.56455678 5.60195112 -13.13546848
-1.54618275 2.79178214 -17.05559540
-2.84891415 -0.51001483 -10.61754227
-3.02542639 4.23014021 -14.74361706
-4.40666294 -0.27898455 -9.42577839
-2.27921414 -0.01430712 -9.79533005
-3.36489701 2.41183686 -13.69552517
2.17838144 -4.14784241 -10.51109505
-1.14771211 -0.51737249 -15.84586716
2.44246387 -2.36542630 -16.88100243
-0.00411908 -0.01050595 -10.60363102
-4.00784492 3.39434934 -12.27578259
3.65131259 1.28846800 -15.69428062
-2.21687722 3.71915889 -11.00466442
0.22160466 -5.32830286 -13.95800591
2.74120307 4.47420502 -16.27934647
-1.87295651 0.36155817 -14.80879879
2.26958585 -2.14375019 -8.92139912
0.28107437 -5.04361343 -13.48710060
2.34037948 -1.74345863 -9.38226032
-0.62693924 -3.88049698 -15.70250511
-1.56457305 2.60433006 -16.63489151
2.16586637 -0.50240570 -10.80547905
-1.59827924 2.89587212 -9.15338135
0.80228573 -2.81871367 -16.81397247
-4.30688286 2.61059546 -10.99817181
-1.80604863 0.82793146 -11.21012497
2.65049505 0.07500281 -15.55493355
4.03479767 -0.24144302 -9.22263527
0.04382697 5.26200056 -12.40441704
3.05938411 -4.02425671 -15.67500210
-1.31160426 0.80364615 -14.06583595
-2.59800601 -2.44168282 -11.82880020
2.52093363 -0.00080906 -10.56290340
2.60918164 2.26376200 -12.90205765
2.80783916 -3.89503527 -13.65855217
-4.12517023 -0.05932583 -15.84252262
0.05839331 -1.79205620 -15.30662155
-1.53577685 2.47588778 -16.54380989
-1.38404882 2.98301601 -17.06236458
-0.33135387 -5.44175148 -13.97825050
-2.42410970 0.73870718 -9.92205715
1.17986882 -4.33178806 -9.08849525
0.62036175 -1.97917557 -10.19016361
1.89699507 3.92777729 -16.59575081
-2.72742128 -4.16760969 -14.06625271
0.87606728 4.78176212 -13.50940990
-0.01294366 4.00264692 -10.99280262
3.35248518 -1.19831359 -15.13114071
-0.21113200 -3.27107120 -9.35997581
-4.39897203 3.28498745 -12.87448406
3.16426349 4.20628309 -14.83851337
-2.68179750 -3.92828488 -11.62722874
-0.53409386 -3.99053717 -11.36258698
-1.43410408 5.17906809 -13.17761803
0.19282964 -1.26875460 -10.30769157
-2.12226391 -1.74084997 -16.82389641
-3.49789214 -0.72919750 -16.50064468
-2.21245813 0.54208857 -15.80883598
-1.41410923 -0.36153230 -11.85653305
1.19380963 -2.19672251 -16.22091293
4.30877542 3.41326475 -14.17492199
2.26813626 -1.44540393 -12.28428555
-2.50800562 -0.83109134 -9.44699669
-0.76066923 -1.30281103 -10.27272129
-2.29424572 1.94163680 -12.45711040
0.62460274 -4.68567371 -14.04801559
-0.34839246 -5.83687925 -12.75047207
-2.69449592 -0.77207810 -15.59436131
3.87098026 -3.62208986 -10.29693794
1.63842261 1.66722500 -9.84099197
-2.61291146 3.45834827 -8.90530491
1.86694980 -1.88688862 -13.72313404
-4.22070599 3.63680315 -15.32590485
1.54720187 -1.53120923 -10.31418991
4.37416553 -3.79199052 -10.47731781
-4.18246841 0.17266367 -9.83623123
1.02799749 -0.95282823 -15.48007298
-1.94642210 0.45377919 -10.65252972
-0.26790640 -4.49441957 -11.36305618
-2.66008258 0.19479688 -15.23920918
-0.22158343 -0.62195975 -10.04669380
3.63877702 4.11489773 -16.91086960
-0.75665283 -3.34638023 -17.23866653
1.99738896 1.93561268 -9.86469364
3.56912756 -4.34523106 -11.28224468
-1.09181523 -2.62189579 -9.10408974
1.75550961 -0.31791872 -12.33508492
2.70613146 2.29547977 -13.31020546
2.60423779 0.94282734 -16.42360687
-1.75555050 3.98319888 -9.02042007
-2.40154457 -0.83719993 -11.67823124
2.43569922 -1.58638370 -11.10181808
-0.80782819 2.23916912 -16.22491455
1.39437926 4.93619061 -13.14230919
3.99242520 3.98465347 -9.50774574
-0.03248478 -4.43914557 -11.56391621
3.76472378 -0.12806465 -9.11739349
3.10721445 2.73937631 -9.06024551
-2.84398890 3.81997371 -16.39010811
3.75168848 -2.09563398 -14.61422634
-2.09317017 0.23753379 -15.17521286
1.10618210 -4.26106071 -9.65480042
4.07973719 -3.45183778 -9.55170822
3.30278778 -1.91330087 -11.29742527
-0.23190755 5.25756836 -12.64673042
2.90357280 -4.54201412 -8.80508995
4.00143099 -0.02873574 -9.66039848
2.90697217 -3.56259203 -16.54044724
-2.81751609 1.96745694 -11.50625134
-3.53686237 -2.95411944 -10.84373379
-4.12232971 4.23907471 -12.35654259
-1.61112297 -1.14638352 -15.74092865
3.95088983 -1.95252895 -10.52955246
4.01812124 3.32413673 -12.66327190
-2.21946120 -0.70906734 -9.75187492
-1.80536258 -1.05993986 -13.44873524
-0.24852671 5.27496767 -11.46546078
-3.07911372 3.77361250 -15.67323494
-3.09357238 2.22602272 -12.41756058
3.84443951 3.26810479 -11.35594654
2.66524410 0.67627800 -16.31740379
-1.81248641 -1.34316385 -11.38869858
-0.98215795 1.12488425 -15.79679680
-3.81826878 1.86777616 -15.05961418
4.18527269 -3.87450695 -13.22936058
-4.07523918 2.99204397 -14.91496754
-3.74285769 -2.26995373 -8.76943684
-2.26794815 4.20775890 -11.88040066
-3.08522511 4.12197733 -15.31569862
-3.23946786 3.14735842 -16.94710541
-3.97581291 -4.08151340 -15.83156300
-1.99341345 1.23445225 -13.09604263
-3.18469095 -4.18346691 -11.58586407
0.88460422 1.90650368 -9.21434593
0.39233190 4.33429623 -11.75875950
-2.50464296 0.74094343 -9.10302925
4.01616049 3.10645032 -11.84848881
2.19114995 4.01183987 -13.95553875
0.54987794 3.93698406 -15.51229954
2.42785811 4.04619169 -16.79156494
1.92056870 -1.68457437 -16.47687531
-4.01745987 -2.12643695 -10.88923550
3.41100907 3.34290576 -16.85935974
-0.55591321 -3.83080792 -10.71175289
-3.95361209 3.70832586 -14.07096195
2.50879645 1.31721473 -14.91445541
2.77315283 3.96483421 -16.10962486
-1.40997660 -5.35932112 -12.15751362
-0.66728169 4.09276533 -9.35471153
1.67319572 -4.27789211 -13.64390469
0.17700195 -5.25732136 -12.26083946
-3.01533675 -1.73951662 -8.91755104
3.66498446 -2.30054188 -14.21524429
2.72819495 -0.25238839 -15.32640266
2.77343488 1.15666175 -16.84135628
-3.91125584 1.40781713 -8.84143257
2.25774002 1.26739347 -9.18145370
1.40169477 3.96635127 -15.43585396
-4.17768526 -3.16248488 -10.64674377
-3.02677464 -1.83227277 -11.30277061
0.53163850 -3.99186587 -14.81686401
-2.94915342 -1.28976703 -9.10225296
-0.72935158 1.02261627 -10.55028152
1.92105424 1.34947693 -13.11755085
3.96909475 -0.18310268 -16.50102806
1.90512693 3.99501872 -11.32493496
2.05226612 0.23804010 -14.53462124
-3.92968988 3.91659284 -14.24862003
-1.56863916 4.01771545 -12.02059746
-2.71408415 -0.39868820 -15.17309380
-2.22821331 1.72691381 -13.59921646
-3.60769439 1.60621524 -14.92588234
-0.64661849 2.27754736 -15.62140369
-1.88251364 3.88023353 -11.49189281
-2.00733972 1.16848028 -9.76622009
-2.47528005 -3.98763227 -15.84071255
2.61522818 0.53304535 -10.59300232
-2.71808481 -2.48982048 -12.32009983
-0.55052537 -4.28653908 -14.27624798
3.61767530 -2.49127245 -8.66915035
4.13019800 2.75237560 -11.42808342
-4.10972166 3.79975104 -13.49394512
-1.81080878 2.67195511 -16.87982559
0.46995100 5.16177511 -13.54432774
1.21497941 5.32362843 -12.63705444
-3.94105124 -4.20006037 -12.34426594
-0.39211434 -0.22746781 -10.57699966
-3.25841928 0.10726340 -17.01096535
-3.12405825 -2.38997602 -13.71306515
2.26618886 3.05254030 -8.83961487
-2.11688733 2.14644837 -16.95856094
-4.02929354 3.68893003 -10.79309559
-3.11054063 -2.66239643 -13.40210342
2.56311369 -0.28535357 -10.13397980
-1.32658434 -1.58377373 -15.24291897
0.11095157 2.55227351 -16.41836357
-1.75487399 -2.59543443 -16.85248375
1.03797269 4.84669161 -13.46336269
3.25996661 -0.65106475 -10.34359169
1.57842767 -4.09523058 -16.22398758
-3.97396541 -0.40693384 -16.98187637
-1.26314116 0.69523257 -15.08103275
-2.62406564 -1.98739302 -14.18682766
0.16200276 4.16822100 -9.73651314
1.55216086 1.86319017 -12.71421242
-1.47851229 5.47128201 -12.83974075
3.97953415 2.16444778 -9.91851139
2.92951775 3.77764702 -9.26982498
0.27300417 4.45116138 -11.53606987
3.39608669 4.12410307 -15.38055325
-0.14210118 4.01857758 -10.07131958
-2.29624581 1.48226488 -14.21104336
-1.28040624 4.08642435 -16.76404953
-0.30205464 -2.39115739 -8.98399830
0.97275132 -1.39571953 -10.01640701
4.11438465 3.15196991 -15.99995804
-1.04662073 -3.96502757 -8.90804768
-2.16677833 1.86738324 -13.24109364
-4.05994558 -4.08027840 -16.04304886
-2.32565331 1.29465878 -16.67864037
-4.10891485 -3.78499031 -16.03860855
-4.02218533 3.53288174 -10.81973171
-2.82061219 3.93045092 -12.26221848
-4.29401922 -3.55375981 -13.25882816
-0.90276814 -3.73831868 -10.34844494
-4.05233622 -4.08057880 -9.36433697
1.36027229 -3.57506800 -9.09561348
0.07703035 -1.69204044 -15.44772243
3.32082415 0.84769887 -8.82156277
2.64934278 0.51094598 -9.39180470
-3.48328638 1.14189303 -17.44246292
-0.94330293 -4.10799503 -11.39560223
-2.54354572 1.14348686 -8.97918892
2.53054762 3.95103979 -8.73346806
3.28497934 4.35432482 -12.93585205
-0.21749817 -2.25592375 -9.82225895
-0.12204743 0.42092162 -15.79183388
-2.60355902 1.63109553 -13.96131229
-1.27795422 1.77103376 -15.59492779
4.20099258 2.94820333 -12.62625885
1.66147673 -1.39907205 -16.40538025
3.95093036 1.35725391 -16.48275757
0.19976118 -1.18269432 -15.18433857
4.13971567 3.88452411 -14.16972446
-1.18630993 0.08894967 -10.24023056
-3.81474233 2.50314498 -9.54869652
1.41809106 4.25967312 -9.86796379
-3.97833443 3.21360636 -9.28021240
-0.88464731 4.42870951 -11.46087837
1.74486589 0.95466769 -9.77741909
-3.27623963 1.95106506 -14.05154610
-2.27426195 -0.52482045 -10.69162178
-3.76454568 -3.68107200 -14.51846695
-1.92549419 -0.48713401 -14.94991684
-1.60806286 -0.11342897 -12.76662540
4.12415457 -2.48778486 -15.20939636
2.05462623 2.79012442 -16.81987190
2.00335288 0.55769289 -10.70780754
-2.11747122 1.76974344 -16.46456528
1.02984321 0.48325431 -10.32982922
0.54061979 -5.47729731 -12.81312656
3.98625135 -4.00007200 -11.00539494
3.44697762 3.06033707 -16.79416084
-2.63152051 -1.60853279 -8.92590523
-0.92188990 -0.47286001 -10.14507961
-4.13053989 1.31707561 -9.53492165
2.90796065 -3.90804648 -13.52886295
0.72880143 0.48232549 -15.90250111
3.57635355 -3.85633516 -16.49682236
-2.49311543 1.78567791 -9.14792347
-3.55704188 -4.27179289 -15.63320255
-4.12050772 2.91537142 -10.10180283
0.38078049 -2.07691813 -10.30128479
0.72945315 4.93178415 -14.08166313
-0.97038758 -2.38280892 -9.55905533
-2.07631111 3.89584970 -16.00603867
-2.91930127 2.50795007 -17.00257683
-1.39817679 3.73837209 -8.74062347
1.40467596 3.01068044 -16.83658981
4.25049162 -3.06449580 -13.67977810
4.26310635 -2.64549828 -10.44585323
-1.19806719 4.18515968 -13.66199875
2.16331863 -1.33028030 -16.58931732
-1.34779191 -4.36187363 -13.88038731
3.80666804 4.15051413 -14.42271423
-3.84889841 -2.51063991 -11.18367481
3.75331998 -0.80956227 -9.03375053
-2.05953145 -1.75238478 -15.88943958
2.57406974 -0.99153471 -9.13281059
-0.41842717 -2.64306021 -9.38575363
3.59433937 -0.08882684 -9.08841228
-3.19548321 -1.52672684 -16.72336769
-3.64012527 2.30349708 -12.56573296
-3.45246172 2.81477261 -11.85325527
-2.37694168 3.69874573 -13.10238743
2.05529428 1.11678326 -10.92476654
1.05741882 1.83338118 -9.99768448
-2.04712081 0.59018004 -15.85048676
3.74729633 3.74281621 -16.83987617
4.11881018 -2.65721822 -10.41947842
0.18257883 -3.95102835 -10.13393593
-2.95453453 -1.94224346 -14.35223389
3.90560651 -1.85550749 -16.49351311
-1.68493867 3.71341419 -16.72729301
-0.92252189 -4.29577923 -11.36460781
-1.95604503 0.18629295 -15.45161057
-2.13460660 -3.65443897 -14.24537659
1.90471303 -2.77007103 -8.95987415
-2.55299115 1.96586597 -8.78968620
4.51568747 3.06056356 -14.49055099
-3.84411669 -2.67352486 -16.03652573
-4.09884596 3.74434447 -9.79702759
-3.50799298 -3.80510974 -8.85751438
-2.75502348 3.37918496 -17.05909729
3.71472812 4.11473656 -16.42155647
-3.79408574 2.02805924 -14.91517830
-3.55423903 -2.81256080 -15.05466461
1.22745502 -4.37028694 -11.89720154
-2.44417214 -1.83376467 -12.81653500
-1.85649598 -4.08133125 -9.77963829
3.81531429 -2.95605397 -12.54658794
3.96456790 -2.20756841 -14.63469887
2.97291112 -2.18790960 -14.53967476
-4.17230272 3.19728303 -12.39063072
-1.03925622 -4.05036926 -12.44773865
-3.73334098 -1.59149706 -9.47945499
0.00544989 3.96837401 -15.64373398
1.06125247 -5.09068394 -13.46335602
2.83852887 -0.98653907 -11.05815506
2.57528186 3.86513448 -15.28508377
-0.59023535 -3.23229146 -17.09321213
3.10702467 -1.87707448 -9.06462097
-1.40062904 4.39141893 -17.07497215
1.74657071 1.16184855 -10.86664677
3.42247987 -4.15331793 -9.44277191
0.77715886 -3.56590676 -8.71091557
-0.16879234 -1.91762459 -9.84208488
-1.81717408 3.95523262 -14.08760738
-2.51383305 3.88183665 -13.07965183
3.51698804 3.11148977 -8.83405495
4.12946653 -4.27248096 -12.96451092
1.66941202 1.86104012 -12.28136730
-0.57645524 -2.79983139 -9.39447594
4.11952019 -0.06500977 -16.26878738
2.17836452 3.72477102 -16.30038071
-2.81982017 -4.09206963 -9.30909920
-4.14148331 -2.22639680 -16.44009399
1.44856203 4.21435547 -13.76847076
-1.17471743 -2.68400693 -16.19600105
1.81192088 3.95870280 -15.16797066
-4.20066786 -1.82440937 -16.37554550
-4.01243877 -3.85404468 -9.81730270
-0.07910277 2.06367898 -10.05762672
-2.64725542 -2.26605463 -12.11977577
0.32257658 5.19020128 -13.05649757
2.53508115 -2.71561742 -16.81932640
-2.36543345 4.42524862 -9.62136269
-1.35405338 2.24776459 -9.56385612
-1.48951638 5.05231810 -13.27669144
2.49032450 4.02215862 -11.75996017
4.12710571 -4.19076204 -14.27918148
-1.95875263 -3.52999997 -8.53455734
3.92931366 -4.08995771 -12.60364628
-3.19056463 -1.86683190 -13.94614506
-2.15225410 4.01734686 -8.89047241
-1.01959991 3.77217436 -15.84142685
3.83895612 0.54274327 -8.68390846
3.74253082 -1.88065958 -16.87222099
-1.80958438 -3.34564567 -16.80456924
-2.06841922 -1.55856180 -14.05649567
-1.77065086 -4.41510820 -11.14771748
2.84877968 -0.94452536 -8.71646500
-2.86645675 -2.93835139 -16.97869492
3.70031381 2.60299277 -11.48418903
-2.27629614 3.99956441 -9.27668190
2.87135720 -3.91661859 -14.35521317
-0.08784115 2.79921746 -16.39473343
3.82184982 -3.52534151 -15.68705368
-3.22370386 -4.03917456 -13.30128288
-2.46660614 -1.93464136 -8.87282467
-4.01700211 3.46114779 -13.15963459
-0.86382937 -4.92678928 -14.35030460
-1.53463495 -3.73947859 -17.17009735
-1.71962643 -2.40588784 -9.00087166
-1.15520275 -3.86464262 -14.27179146
-3.97795868 0.20821671 -8.72209930
2.54541993 1.46286547 -11.34038258
-2.29541326 -4.14831924 -10.55735111
3.62191510 -3.19401622 -11.07414436
-3.65860391 2.64902759 -13.71676254
-3.02080393 1.03187871 -10.72338295
3.20520711 4.33076334 -14.68615532
-1.81334662 -1.73200166 -16.25208855
-1.64676654 -1.01454175 -14.50986195
-1.99859118 -2.66080928 -8.93094444
0.81053287 0.99593669 -10.46044636
2.21604967 0.47065610 -10.04768467
1.04459751 4.33442593 -11.20994473
-0.76583195 -5.21249437 -13.02818012
-3.81559992 -1.08819461 -15.81442451
2.07781792 -1.59665167 -11.40107918
0.70011538 -0.62457806 -15.77793503
-3.79418373 3.95020628 -8.81467342
1.14417839 -4.93234015 -11.95844078
-3.56075072 0.61698508 -15.18469238
-1.17978549 -4.11160088 -16.98500061
2.21500969 -0.48152742 -15.05229187
-2.46975589 1.14731932 -9.81875992
-2.40120482 -3.05188560 -8.90420341
-0.51541996 0.22952548 -15.29095268
-2.02806401 0.38501158 -10.18401623
4.00163746 3.50323200 -16.81988716
-1.14726555 -0.09188972 -15.30354118
3.82855487 4.25982523 -15.95701313
-0.07393666 4.09887648 -14.81790352
2.05969405 -3.24351883 -8.85522270
-3.82838821 1.33085799 -10.09208679
-2.30653453 0.10174132 -16.34362221
-2.75836301 0.44031939 -10.09174347
0.63876736 4.23731375 -16.46713448
3.57846165 -0.76906252 -17.02342606
2.37157464 -0.20268887 -9.43129253
-3.89465785 3.81813073 -15.28439617
1.83677924 -2.82698631 -16.80593491
-3.59317088 -4.13687754 -11.20324993
0.95226789 -5.27060127 -11.88882065
3.52932024 -3.97296762 -8.90611076
2.39705229 1.76625478 -11.26603508
-0.46133867 2.65517306 -16.98626137
-3.95302868 -2.50028539 -8.73811054
-3.28692031 -3.71615934 -12.17976761
-4.15074778 2.79867077 -8.89468384
1.48251891 4.14793491 -16.00146675
4.01667881 -2.15535283 -15.27130508
2.82046843 3.30388522 -8.61865139
0.54993820 4.89214659 -13.69789886
1.83702540 1.86360753 -13.75302696
2.71944141 2.13817668 -11.71774960
-3.79871774 -2.51110101 -12.67486572
0.77580935 3.99944758 -14.36284351
2.01691580 -1.12708938 -12.35910130
2.83548737 -2.84585047 -8.86785889
-3.40898871 2.00525045 -17.03292847
-3.92518258 4.22800827 -13.57207584
1.22425663 2.40028453 -16.30307388
2.41783643 2.13095188 -12.99097824
-3.89781165 -3.71867275 -8.81537247
1.83007741 1.79833901 -13.35695076
-0.53977293 3.92385507 -10.71917725
1.42008042 -3.66725063 -16.79321098
-1.84432280 3.71649265 -13.43509102
-1.62823212 1.62516320 -15.44733715
-1.53824580 3.99113822 -9.46419334
2.77886558 1.57116485 -11.29876041
1.09443009 -5.28652716 -12.64500999
-3.12071276 -3.88394642 -11.12348366
-1.73185658 -1.88408518 -12.38373852
1.85189760 -3.74700069 -11.35358429
-4.17917728 -4.14561701 -11.02369785
3.98188090 0.45766973 -16.08003807
4.23117495 -1.89152455 -15.39875984
-2.95871139 -1.27321792 -8.91771412
3.90180445 1.95532215 -10.76117516
-2.20888805 1.19351017 -9.34765244
-3.79080868 -4.17711020 -14.11706638
-3.42744160 0.00664116 -9.10026550
1.20512688 3.99555182 -14.45949745
-2.33790517 -1.10809696 -14.66061878
2.84196806 -4.01614285 -15.69732952
2.30663943 4.09020281 -11.91165161
-1.65493965 3.77536273 -16.67679405
2.82218623 2.44395304 -13.71286869
-0.75005698 3.51379561 -14.46188068
2.18391395 3.70756388 -9.18080425
-2.70964527 1.44574523 -14.91204929
3.53790498 -0.45500302 -16.82429886
3.73021913 2.92826247 -12.24891663
2.90673900 2.55363131 -8.88359642
3.91227722 -2.94345379 -15.22178459
0.54397422 2.37916923 -9.76763821
-1.66731954 -1.10982394 -12.60389709
0.58803362 1.93613565 -15.54647636
4.31773424 -3.90687037 -10.82234097
1.19779491 -5.04415703 -12.90755463
-0.13178711 4.15922594 -16.29763412
-1.42019987 4.29356432 -12.50803852
0.39446267 -2.66090131 -9.65139389
3.07471180 1.29014850 -15.57060242
-1.19196320 1.18559313 -15.63241386
-3.39421129 -2.18173170 -12.04645061
-4.02783966 2.65424347 -14.17210674
3.31220126 2.16723824 -11.36468410
2.70035338 -4.18651581 -12.94624710
-2.84031844 -3.89056110 -15.98630238
-3.24772882 -0.39688697 -15.68343163
1.70338893 1.42999208 -13.64591312
1.40578365 2.65319490 -9.09897041
-0.45493072 -4.92204618 -14.24587250
-0.10780456 3.14229393 -8.57057762
-4.23495483 0.30691591 -16.14044952
3.27102065 2.47325921 -13.05191231
0.48172557 3.58269310 -16.64392281
2.77398610 -0.55152339 -10.82452965
3.56421137 -1.26588559 -10.71867943
4.06288147 1.94870412 -16.47982216
1.14880526 0.15521458 -15.26906395
-3.07740831 2.25231433 -12.69807148
3.95780206 1.74413788 -8.82800484
2.94243097 3.89201283 -9.70435047
-1.87008965 -1.75743258 -11.87369347
-4.25709152 3.22720575 -14.91034698
-2.43464780 1.22323287 -9.48181820
3.44828773 3.87038589 -11.05170822
-3.86895990 1.28294361 -15.85218239
3.80606747 2.08113527 -11.06719112
2.04297948 1.40861750 -16.49199295
-2.00172782 1.74730098 -12.33691883
3.29514718 1.40588486 -14.80857849
0.42818645 -3.89204431 -10.01296806
2.52380490 0.37301937 -9.49737167
3.94183612 -1.55523610 -10.03639793
1.97424006 -2.48556256 -16.80857658
-3.12034965 -0.70987117 -15.39101601
1.44754446 3.92800212 -14.02034283
-0.61940312 4.91901970 -14.19579983
0.74023598 -3.91791415 -11.11515045
3.82794118 2.63984609 -13.59984112
-3.70733953 2.52620244 -14.35291290
-0.49852118 -4.06017780 -10.19261074
-1.87211406 -0.22556053 -13.08298492
2.76776338 1.95709956 -14.08334923
3.14047790 -4.25537348 -13.69706154
-1.18789017 -3.86902308 -11.15656757
-1.90930903 -1.71697724 -14.16873932
4.20931292 2.54816532 -11.19316292
-0.40354493 2.79502988 -16.44033623
-3.04635930 -1.50152743 -10.80997658
0.76103699 3.81148934 -9.32736969
-3.73843050 -2.02764702 -15.12895775
-3.19958377 3.88113260 -9.62169552
-1.56752014 -2.08004665 -16.19156265
2.09687138 1.04250002 -10.18693924
-1.40791178 4.01842928 -14.67500496
0.37805742 0.89405620 -9.96349525
-1.55305684 2.40129972 -9.13780689
2.01821375 2.78918529 -13.16880798
0.65502089 -5.49223709 -13.94260311
-2.16830778 -4.21691036 -9.38145447
1.20561695 -2.81159687 -9.22951889
1.76711214 4.25190258 -9.38202572
1.36002564 1.90732872 -9.87669182
-0.54618293 2.13417840 -10.47251701
-1.59934068 -0.04311960 -11.52908516
-3.52481985 1.50692368 -8.59790802
-2.01032495 2.15051913 -13.74862385
1.20133972 2.22778678 -9.07200146
-3.18807340 0.15121515 -10.46447182
-3.97114825 3.87886524 -11.59295368
0.47247022 5.04615498 -11.33779812
3.93457103 3.34474087 -15.78987885
-4.09961081 -0.50261331 -16.59632111
-4.04854679 -2.21143460 -8.65191460
-2.20499825 -2.43566084 -17.22229958
2.02457929 0.04845128 -14.70074081
-4.00323296 -3.72085404 -13.19351768
1.93010342 2.44833589 -12.57431412
2.20895863 -3.97513962 -14.94944954
-2.78948736 -2.33831596 -13.04168129
-1.21316469 -4.62066650 -13.04606724
-1.76904440 1.98517394 -12.64282322
-1.35969305 0.36781344 -12.96318817
1.43934393 -2.00979638 -15.95355225
0.89985341 -2.56737304 -8.86561203
-3.91255999 -1.93729353 -10.13348389
-0.38671899 2.76373887 -9.48281479
-1.76338339 -3.92595196 -11.52090073
4.04199314 2.80337858 -12.16197681
2.95047069 1.80601692 -10.44720840
-1.67529392 1.70598233 -11.72916412
3.18886232 -3.58146954 -9.23489285
0.75533921 -4.10007620 -9.51471519
4.23113298 3.07507229 -13.80071068
3.77981138 -3.52066970 -15.50120926
3.98632312 -2.01655841 -9.40346336
-0.07351102 3.80141616 -9.65205479
-3.39771295 4.35668373 -13.04386711
-2.40286827 4.00970745 -9.30744934
-3.92791343 -0.46136159 -10.13096333
4.00117207 -3.15626216 -13.56949425
2.27679229 -1.24192750 -9.00937080
-3.36206031 -1.86670017 -11.04463959
1.97419477 -4.13723612 -12.34976578
-3.33420658 2.57254505 -12.15072250
-2.85841703 -0.66356725 -16.47796249
3.78235173 3.74988222 -14.75428295
3.02032757 0.37032533 -10.51660252
-2.17273092 1.81417537 -13.28973007
2.35111141 -2.50826550 -11.97874928
-4.16157579 3.85991597 -15.32411385
1.25382423 -3.94246244 -13.69717407
2.38682437 4.02747059 -14.09445000
1.90621293 0.31735656 -10.18971252
-1.33564079 -2.26904416 -9.54721546
1.48938692 1.43837345 -11.35032463
-2.06692338 3.51951957 -17.07353592
1.85218322 -3.83178496 -16.21923065
-4.34552240 -2.80112863 -9.90184975
-2.29970980 3.98772335 -17.16389275
-2.83035469 1.30561018 -11.05418777
-3.84854102 1.96258676 -17.09605026
-3.74055719 0.15835029 -9.98459816
2.98633718 -3.95577192 -10.97958565
-2.02024198 -4.08246469 -10.01603127
-2.26856971 1.21547627 -14.53245544
4.14810324 -2.00998282 -9.18850040
-1.91507924 0.81332439 -14.53879929
3.18171000 -3.31371570 -8.72257805
-2.22353053 -1.67763698 -9.38688850
-3.53578281 3.73420310 -14.76851273
-2.68086076 1.06703424 -16.47976494
-0.96976483 -1.17252183 -15.68846035
-0.80486995 4.45106888 -11.88668251
0.19162495 -3.78771830 -9.85808563
0.80394763 -5.27436733 -12.71677589
-2.27065897 -3.16421461 -16.92792511
1.25943100 -1.19869626 -15.62839031
4.04536200 -0.93229568 -9.39253330
2.04138494 3.79909158 -11.65284920
-2.21717954 -2.22614694 -13.30794811
-3.89401627 2.71035862 -10.65155697
-2.02693295 0.80832654 -14.18700695
1.23433185 4.30948353 -12.06881332
3.37696457 -0.79375809 -17.07223701
-4.02602243 2.16565537 -14.67398739
-2.73894405 -0.07564196 -16.18986130
-3.74733186 1.74265635 -10.73132896
-1.89815807 -1.20410907 -9.91683865
0.14373730 3.93975401 -17.01865768
3.97430325 2.01640320 -10.87691498
3.91190338 3.56026077 -12.84102821
-3.73357272 -0.37846845 -9.91790962
3.65172029 -2.92507696 -8.78019810
-0.60591823 2.63211870 -9.34516716
3.11503935 0.48318517 -9.43919945
3.76583552 -2.81151414 -16.46453667
-3.45918632 -3.80430722 -10.93488216
2.47692275 -1.01620066 -16.41246223
4.07394123 -3.41780424 -15.50973034
-2.63683796 3.90587425 -15.24329281
-4.25305843 2.55870533 -14.16955853
-1.30360472 2.85278106 -9.15574265
-3.86026311 -3.17998695 -8.90126228
-2.87217236 0.04542995 -15.55437088
-2.93698144 4.12881374 -9.29178619
4.14841890 -2.27161384 -16.33041382
-0.83626789 -2.44200444 -9.84097195
1.17329860 -4.72695017 -13.16617489
-2.67552590 1.07299232 -9.02665806
2.32535958 -3.88648701 -15.19702053
-3.07828236 1.19017744 -9.01017857
2.66180301 -4.23862457 -13.97410679
0.32485482 4.44935083 -14.32482624
-2.34941983 -0.04972901 -15.11516762
-0.95512378 5.29414129 -13.39791107
-1.71107638 -0.32604659 -15.53794670
-1.98946118 -1.57550800 -14.17253113
3.11430430 2.14215422 -13.88555527
-3.97723556 0.48483542 -15.50390053
-0.29324231 -4.12891722 -14.44254208
-1.24418092 -4.78283501 -12.84752560
0.36019287 3.12364531 -8.77457809
-3.95845127 -2.44868374 -10.89175415
3.93697667 -3.86129117 -9.33478642
2.83726287 2.09931469 -11.78738308
1.72185004 -3.63896823 -16.75049400
-1.38252187 3.68095970 -8.88986778
4.26937389 -3.26479745 -12.82721806
2.44063568 0.89574051 -10.90764523
1.67587519 0.68385553 -15.82866669
2.27311873 1.44344699 -9.19802475
3.37147951 1.93838108 -14.44089508
-2.86879301 3.76585674 -15.00497437
-3.57244110 -3.73270082 -13.49405861
-1.65728867 -2.70497561 -16.50176048
1.68330145 -1.87874281 -9.60894871
0.74414253 0.65219760 -15.53370380
1.78852808 -0.11799210 -11.89391232
1.92230892 -1.63611829 -9.78918839
-1.36913812 3.15503526 -17.05815315
-2.82220602 0.66417468 -16.40563965
-2.75719953 -3.99436283 -11.01415920
0.58346057 2.79766750 -9.37966156
0.16607001 -0.47566792 -15.20847511
-3.28510594 0.32523456 -9.44997787
-1.21772182 3.95885134 -10.85486698
-3.04973507 -3.89670300 -17.03985405
-1.91854465 -4.08374786 -13.14145660
-3.94029450 -0.43360150 -8.92095852
3.93859982 -0.67822993 -16.33009338
1.54521585 -2.27894664 -16.14766312
-0.69717968 5.35403967 -13.89073849
1.11603200 4.95047808 -13.08938313
-0.63719362 3.71823430 -16.74025536
2.05189705 0.51478791 -10.17215633
2.52285647 2.03017020 -16.80803490
2.65293527 3.81081080 -16.90153885
3.86986208 -1.46052337 -10.73431873
0.78133285 5.01144791 -11.87313747
0.91911012 3.62743568 -16.72086334
0.69869900 -3.70297718 -15.94483757
3.82961297 3.72788954 -9.22154522
-2.94078398 -4.07307434 -17.29888916
-4.28069353 -3.59308290 -17.02327156
1.67952359 -0.13066417 -12.32794380
-1.19170225 -1.26616287 -15.55673122
-2.31664801 -0.91749650 -10.71582794
-1.60576880 4.03789759 -8.84121227
3.98003244 -0.97560108 -8.80205059
-1.50982225 3.83915782 -11.42761803
-1.02025950 -3.34662986 -16.69758224
2.48469949 -3.52743220 -16.50074959
3.87989116 4.05328655 -11.75533962
-3.26272154 -2.28726101 -16.97315025
1.68663323 0.20314790 -12.43273544
3.12221217 -2.37249517 -13.19501972
4.16605234 -3.30724406 -13.70265388
2.12592292 -1.27906036 -11.02944469
-1.88426626 1.20100689 -12.17052078
3.01556945 0.51216030 -14.90043163
-1.98942220 4.14629459 -16.12178612
3.34773684 -0.53101790 -9.28956413
-1.41711295 -2.26595759 -16.71138573
3.73918223 -1.35237002 -10.29642677
-1.64872575 0.51303244 -11.24141121
0.22187197 2.20843029 -16.22623444
1.51994109 4.09389687 -15.55811691
-0.32884726 -5.25178099 -11.59690666
0.54781693 4.40746403 -14.45505333
-1.46875536 1.39878333 -10.00874519
2.96299815 0.49839157 -15.29234505
0.50349528 -3.05269170 -9.12161350
3.42313600 -3.77457833 -16.22972679
2.06138945 -0.45544103 -10.73239708
-3.87855268 1.16687095 -16.85117912
-2.22710752 0.14371152 -10.16654110
-4.08651686 -3.23283935 -9.90316772
-0.08633643 5.23366308 -13.63063812
-2.31378579 1.54093957 -14.87144470
2.03439617 1.06675267 -13.06747055
-1.78833365 -1.19290924 -15.79603577
1.65408790 -4.28673220 -9.27783680
3.73001003 -4.02152348 -10.16560555
-3.58244348 -1.86820781 -9.08715725
2.56435108 -4.30115938 -15.84450150
-2.14111900 1.95669675 -8.94157600
-3.86203218 2.37859035 -14.46883392
-2.69258523 -1.49750340 -14.45868492
-2.17982197 0.50627881 -14.93710995
1.23020411 -5.23634672 -13.38855362
-2.22726202 -3.86468577 -15.31494141
-4.24276352 -3.12435126 -16.49596024
0.58321047 -3.48794150 -9.36983299
3.90810776 3.45377922 -15.39464951
-0.88969815 -4.84573269 -11.98962593
1.82122886 2.55891919 -16.77219582
2.27218556 -0.53415585 -16.59556007
3.99734020 -3.47177339 -9.26120758
-3.10751486 3.80017257 -12.33493996
3.40148926 1.46843016 -16.94322777
0.65312409 2.62999606 -9.19905281
-3.98022461 0.45578605 -9.81495476
-2.42080379 3.98491645 -13.08431530
-0.72948378 -3.14845562 -16.69982719
-1.01359022 -2.63013124 -16.26028061
1.87511420 4.04988050 -13.03389931
-1.96398330 1.47207224 -14.62872791
-1.68590581 -0.58646137 -12.11662006
1.17000031 4.17824554 -11.37497902
3.68993926 3.48780751 -9.98742485
-1.08927059 -1.04499352 -15.66933918
2.02487922 -1.22862101 -11.22718620
4.48630905 -2.74402165 -11.76517391
0.81868619 -2.46664405 -9.26596642
-3.44546342 0.14874320 -10.28798676
-4.24732018 2.39299226 -11.70196915
-4.08199215 4.06723213 -15.82260513
2.07183123 0.44817618 -11.86838150
0.29936570 -2.75112700 -16.75749779
2.16956067 0.80318725 -15.88754463
3.73211408 -0.39246368 -15.79364204
-1.11229289 -4.99719191 -13.66300201
-3.46567917 -2.75485396 -12.50913334
-1.08803511 -1.56215119 -10.05013275
-1.11789787 3.87003398 -16.33737564
2.80056620 1.37938893 -16.75499725
1.57543111 -1.44720721 -11.74164867
1.97006071 1.08854842 -12.71189690
-3.96151185 3.28192902 -16.45868111
3.40144229 -3.63234949 -11.74404526
-1.53567386 4.40462685 -14.34979725
-0.58254117 2.99677324 -9.09995174
-3.69234729 -0.30091661 -8.83351326
-0.73898160 -1.16648233 -10.17926216
0.88523835 -0.07865568 -15.34341812
-4.18731451 0.25785249 -16.74252892
2.11174679 3.71278286 -12.68063545
1.48877382 1.03643560 -13.26317406
-1.41246009 1.60552049 -9.98110008
-2.25079703 -3.26827598 -16.98793793
-3.79996777 -2.85226893 -14.94382477
2.15548301 1.75868177 -14.57133484
-1.83355451 -1.23393321 -15.82453346
0.37692639 -4.21205378 -9.91634750
2.77662754 -2.69817758 -8.95416832
3.23221374 -0.68831420 -15.35310364
4.09634495 3.04223323 -11.74664211
-0.29237476 0.78707844 -15.38205910
3.03012729 -2.49222231 -16.69702911
0.91977650 -3.08766341 -9.08664322
0.72741610 3.36389923 -16.75407791
-3.98003983 3.15867400 -13.88236809
0.58838284 0.93388486 -15.83539677
4.62585068 3.26499581 -9.48410606
1.37397814 0.28856397 -15.76526260
3.19259095 1.10014486 -15.14906406
1.82259893 -0.76140976 -11.38300610
0.63826454 4.06263113 -15.18590355
-2.77960634 -1.37913787 -10.54947090
-4.05790186 0.60998720 -16.53754807
4.22413588 4.17915773 -10.10361290
-4.53421068 1.87930965 -9.52097893
-1.90604639 -4.46117067 -10.80072880
-2.61635542 1.40698147 -14.91490650
-0.66052413 -5.25920582 -13.51435661
-3.34817243 2.12082911 -14.04863071
1.53932583 -2.35987544 -16.23064804
-2.54042459 4.17438173 -15.29899025
-3.69968295 -2.39879537 -12.11192322
3.73713207 2.18787098 -10.77006435
-3.69457197 1.26526570 -15.18757057
-2.95941925 4.09157991 -13.57910919
-1.38431525 -1.88291728 -15.43034554
-3.61796665 -4.04020405 -11.61105251
2.49006987 3.85657048 -16.19158173
1.00403464 -1.23161542 -10.09937572
0.24651265 -5.55739355 -11.96627426
-3.84593105 -2.43237877 -9.57649803
-3.47360492 2.69367480 -8.81011391
-1.67615175 -0.02300164 -15.27181911
-1.52961111 -2.26800227 -9.13999271
-3.95379353 4.07380295 -14.78233051
-3.92981458 0.12129293 -9.07489109
1.56246138 -3.80053496 -13.33612919
-0.83829671 3.09222364 -17.05009842
-2.40266919 2.09889674 -12.63766289
-3.75937128 2.34253120 -8.98154926
0.70579618 -2.93897963 -16.76475716
-4.21776295 -2.05946064 -10.82862282
-0.77457929 5.46317196 -12.45140266
-2.15860200 -1.31117833 -11.33259964
-3.76993632 -3.36233854 -12.20334530
1.61227238 -0.39058477 -15.73076820
3.54078174 2.85625029 -15.27422428
-3.60686278 3.80131936 -15.05354691
-2.05726743 0.19315858 -12.90642834
3.37540889 -1.59796453 -10.76293850
-1.82472026 0.61905712 -14.00179291
-3.99148345 0.45082483 -9.60597038
3.74034929 1.01842177 -9.61857319
-1.32907236 5.03872728 -13.72838116
1.62856483 2.67237329 -8.88231182
-0.50930911 0.37706548 -10.15878105
-2.39991093 -0.80909157 -15.09849453
-3.50643635 4.08146811 -14.38910007
-3.67678213 2.95238948 -11.77761841
1.75314045 1.16002035 -11.26852989
-3.22235107 -1.37768710 -15.18837929
4.13403273 -2.13744259 -9.88879681
2.82051802 -1.73036182 -11.35023689
-3.96637368 -0.85456461 -9.13322258
-4.04022598 1.08966279 -9.47506428
-2.37289262 -1.06725466 -16.37783241
1.66712058 -3.37592196 -17.28713417
-3.82709575 3.34097862 -17.05055046
1.93692398 3.51068473 -16.74798775
1.14848363 -0.66343170 -10.58126545
-2.12821770 -0.12626305 -15.72433853
-3.54958749 4.07651281 -11.38457870
2.45621228 -1.94852805 -8.63166809
-3.30651712 3.56202507 -8.65694237
-2.01090956 -4.17560387 -14.82596874
3.82830024 -3.18880749 -13.96374989
1.38056028 0.53328133 -12.97935390
-0.27346611 -3.83943295 -10.85662556
3.91460896 -2.76746130 -14.74067020
0.69652379 2.57876515 -15.73985767
2.85649586 -3.32628250 -16.91317177
3.14642191 -1.41740239 -8.89494038
3.79822159 3.71924829 -9.17974091
0.78976905 2.83548999 -8.83091736
2.46574831 2.10463285 -13.52555466
-0.06287687 -3.35316467 -8.59543991
-1.05236804 1.95626664 -15.76241493
-2.95119238 0.82598919 -16.61051559
-3.16815996 3.94782162 -16.72909927
-0.03468996 5.45474195 -12.21978474
-3.80667782 -1.70726597 -10.59252357
0.85097814 -4.09958363 -14.51207352
-1.29593313 4.16694117 -9.00535774
3.90789413 -1.46590245 -15.74758720
-3.05237699 1.51650584 -14.29240417
3.23412156 4.07383156 -9.34068298
1.82180023 -1.50408506 -12.32241821
-1.59067738 -3.91669345 -13.67159843
-0.95894545 -2.56202173 -16.66788101
2.78145695 1.76604044 -14.90964317
1.09062696 3.17241621 -9.16777992
2.52015519 4.24045372 -15.22753143
1.73904383 -1.74277472 -13.38673878
1.57863867 0.16275761 -14.33862400
2.37491059 -1.70609212 -16.62526131
3.29771590 3.21611094 -16.75989151
-3.25011420 0.97491354 -15.29207134
4.18150043 -0.94281775 -10.24934196
0.54191464 -4.01201248 -14.70164394
-3.81641269 -0.81459159 -9.91823673
2.54634762 -4.00477219 -11.40896606
-3.51783299 3.58643150 -8.89695072
-3.11809707 -3.68424630 -10.15642929
3.29790998 -2.16314530 -11.79879951
-1.55273843 4.12126446 -15.98105240
-2.17570066 -4.05247211 -11.24279213
3.10772657 -0.04824012 -10.34155369
3.22920179 4.05449820 -11.97688389
-4.00816441 2.66777921 -14.94623756
-4.26444674 0.36438617 -9.77958488
-3.51400828 -3.24078703 -8.76773357
0.41415286 -4.18174267 -11.42998695
-0.64676273 1.07536364 -15.13740158
-3.79728484 -2.60620356 -17.57097626
-3.31503582 -1.27905619 -16.65689087
3.84521937 -4.24434948 -16.34407616
-4.37405729 3.45545268 -9.58758831
1.71196246 -0.30626994 -14.76057339
3.31709409 4.28657150 -11.75281620
-0.16391413 -2.77539802 -9.25154877
-3.90645790 2.97926879 -11.00283432
-3.62617803 4.03594637 -11.78850174
1.75834775 1.52817166 -13.36730099
-1.82312870 -0.49424201 -11.22350502
-4.17571878 1.50884223 -10.54384518
2.10579109 -3.09104800 -16.67006874
3.20037603 -2.24355865 -8.68197346
4.23828268 -1.37337565 -16.45216179
-3.64099860 -2.03649712 -11.25838280
3.83420777 -3.54021382 -13.48739433
-3.26585793 -1.38138485 -10.93758202
-0.40902489 -3.39321780 -16.92585182
-1.28166866 4.73463345 -13.39035606
1.91689706 -1.30632472 -12.14272404
0.87276113 -5.46529436 -12.64088440
2.03270626 -0.75431371 -12.03727913
1.43746102 -0.62167138 -12.61084270
1.12259448 4.22589636 -15.14050293
-1.64894176 1.32874370 -10.10017014
-0.95951962 -0.66615331 -15.68394279
3.69763947 -1.88568032 -8.88504410
-3.44511414 -1.76226473 -10.93891525
2.45868921 -4.00488615 -17.24253654
1.15328825 0.79515880 -15.65656662
1.70635593 4.08504248 -10.09438515
3.97867560 0.17194034 -9.56581974
-1.87080193 -0.65050650 -15.79344368
2.80722451 3.79585767 -15.27419853
0.81380290 3.90335989 -9.03539658
1.24658525 -2.07108331 -9.84698677
-2.62906814 -4.08592224 -10.81297112
-1.57549846 0.24552672 -13.20566177
3.84542608 -1.76919496 -15.49366951
0.48331857 -5.60937500 -13.02087879
2.23824286 1.83921266 -9.04534435
-2.75606298 -0.58762968 -9.13267517
1.02220535 -5.07113266 -13.89392757
1.29598713 0.09922719 -15.73150444
-3.89246345 3.53198481 -15.52314472
2.85569382 -1.32421958 -17.08047867
-3.19176340 -1.87688160 -13.92794991
-3.20013261 0.79961014 -8.88395977
2.66263485 -2.30459023 -11.86842823
-1.89975107 3.84976959 -12.21565819
0.96144986 -4.37864208 -11.90562248
0.99191773 0.58852524 -15.72792721
2.00524235 1.15696526 -15.68197918
1.09575593 -5.07516098 -12.36131763
-3.75772333 3.90465379 -9.02253532
0.26231697 -1.27254868 -10.07256508
2.13753843 3.90441489 -16.81066704
-1.22751033 -3.79102731 -14.48460960
-2.82411742 1.69748545 -8.64318466
1.49945664 -3.53508139 -8.94525051
-3.05583644 -1.22816169 -9.28386879
-3.86015487 -3.60272837 -13.27218819
-3.99432421 3.11255264 -15.56885147
-0.68570739 -4.01321268 -9.71834946
-0.87235188 -5.17554903 -12.11747551
1.85864508 -4.01495647 -15.37865734
-1.79707694 0.89767385 -12.97762966
-2.56081772 -2.17503667 -12.19393253
2.44268131 3.88263202 -10.86155701
-3.18133664 -1.71554196 -14.65636730
0.04927680 -3.86552906 -14.90724945
0.27911672 4.23092842 -14.86238766
4.12479258 -2.96635962 -16.46301651
3.95455480 3.98674273 -10.92220402
-4.07258463 -2.43717551 -10.84640503
3.45639706 -4.09740782 -15.47620010
0.30853027 5.42431545 -13.09922218
-1.59398675 2.16897154 -9.25506973
-2.48886871 4.42776299 -9.91706085
2.20523620 -2.34430933 -16.55084610
-3.84346414 -3.83130932 -16.08858299
-4.09041548 -1.40640736 -8.89071083
4.00572014 -1.35126746 -16.36078072
0.96785289 -3.75289059 -11.48127651
4.07646275 -3.16238523 -9.00933170
1.03075373 -4.86305857 -13.26484013
-2.16085291 1.90593576 -13.10173035
-3.17786336 1.81655431 -8.90046692
-3.86658764 -1.21574581 -9.23056507
0.51277381 4.11706066 -9.30960846
-1.07430530 3.64568448 -9.35877037
-0.75015914 -2.20774865 -15.80698586
-2.08442664 -0.81057519 -14.53802395
3.81007123 -0.35373840 -16.54540253
-4.17962027 1.85760140 -15.85225105
-2.97600174 1.71668386 -11.18066502
0.79674518 -3.49357820 -8.93327522
2.30193400 1.77983856 -9.09177589
2.30584073 -0.75335377 -10.09450340
2.19031239 -0.54720759 -14.89784431
-0.99700642 -4.72310019 -13.86672688
-0.62991881 -2.59729075 -16.21199799
3.15251970 -2.83350849 -13.52631760
-0.18453737 -1.58698249 -15.53816223
3.34117103 -2.68983126 -12.72488976
-2.09803343 0.53145140 -14.71429729
-1.44505584 -3.73309398 -14.85855198
-3.75242233 -4.29985476 -9.71694183
-4.60733557 -2.98850965 -12.62579441
-3.63370371 3.93198276 -15.94784546
3.76138544 -0.11825061 -16.84735680
-3.44096804 -3.59727764 -17.09555626
-3.19973564 1.53915179 -16.67130089
0.67260867 -3.55852485 -9.95630169
2.25313497 -3.93285823 -12.54307461
-2.39153194 -1.56679761 -13.55655193
3.76190639 -1.78507078 -9.45311737
1.05755031 3.98023748 -14.73102760
4.15062809 2.17321324 -15.95322132
2.53038883 1.62378800 -16.83339119
-1.91794777 4.16679859 -13.48795605
1.44358110 -3.95598674 -11.00371170
0.68989885 2.04029942 -10.35651779
-3.73249054 -0.78456151 -8.70711899
4.17405796 1.17248046 -9.97186852
1.63613749 -0.37634525 -9.80987072
-2.67297363 -1.66056740 -10.94160080
-4.15188169 -1.75310969 -15.61150551
1.87866616 -3.85198307 -10.93769169
1.82673466 1.35611510 -14.07122517
0.56148148 -3.98345256 -16.71934509
3.01488280 -0.75468940 -15.30862045
-1.79157460 -0.74408418 -13.43663216
1.54260266 1.36958468 -9.70986652
-1.20484495 4.54353762 -13.83366966
2.83287597 4.01667213 -9.50164604
0.46035984 5.49542952 -13.87764645
2.21933532 2.17119884 -12.25228119
0.21572293 1.54093182 -10.19331932
-3.75068069 3.67437410 -15.55605412
-2.52793050 -1.74358451 -16.81266785
1.73367536 4.59519291 -13.07172203
3.85750866 0.41137630 -15.88332081
3.98427582 2.73220515 -10.59952259
0.24238591 -3.60170579 -17.08786392
3.31642461 -1.03545415 -10.69218254
4.15301275 3.52039099 -14.86728096
-0.58965600 -0.36071286 -15.62285995
-0.94422197 1.87458909 -15.34768295
3.39427710 -3.53015542 -8.69767380
-1.68169177 4.18366480 -14.09282398
2.99599552 -1.03352702 -14.57970238
2.64623499 -3.93930387 -9.94899178
-2.31355333 -2.56208944 -16.73276901
1.42120981 -4.05737782 -17.04171944
-0.50956959 3.84570551 -15.65682983
-2.62650132 3.70744658 -10.90742874
-1.87717021 1.76006389 -13.81633472
3.79548383 0.56443578 -9.09129524
-3.92430854 -3.45962882 -10.39572430
2.06318378 -4.49767494 -13.45471668
3.88454223 -3.40368438 -9.65198612
-1.90228033 0.01358434 -11.89661598
0.58335972 3.14978194 -16.94255638
3.37123179 -3.87998343 -14.91041183
-1.01203310 -1.88588107 -10.04964828
2.12256956 1.30336177 -13.54547691
-2.75303411 0.48545349 -8.83971977
-3.76263022 3.58773851 -14.08337879
3.11853671 3.37448931 -8.91808701
-2.97346354 -2.07269907 -11.34993553
4.15331888 -3.82419610 -14.86975574
1.47450066 -4.09647751 -15.87870884
3.11869431 4.25831032 -15.01974869
2.68813467 -0.70185190 -16.66015434
-4.01187229 3.55723548 -11.53187466
-0.26339635 4.02093649 -10.78031349
-1.86481786 -0.63532537 -11.53458595
3.76905823 -2.02761674 -11.34156704
3.87518549 2.68057251 -13.11316013
2.04795957 3.99376202 -15.79871559
-1.96380019 3.86607265 -9.58584976
3.40696812 2.71001291 -13.27889347
-0.58904725 -4.27127600 -11.59200287
4.28421736 2.43275833 -9.50339127
4.04445410 4.02469301 -13.06578064
-1.05699658 -4.97052002 -12.23208427
-2.56392598 -4.09173012 -13.68475246
3.26681781 -3.45151329 -16.81019592
1.01835585 3.80007172 -8.98499298
-2.93490076 3.99060822 -14.76158142
1.93890285 -4.03192043 -11.23768234
-3.14791131 -0.42708793 -17.28459930
-2.94775295 -0.56225371 -16.49862862
2.01990557 -0.15495431 -12.18436050
-1.61715662 -3.94425488 -15.35346508
-3.25614643 -1.46348548 -10.75363636
0.27992335 4.46323109 -14.42932510
0.10250028 5.06932783 -14.36511326
1.42994165 -3.69862843 -14.22259235
-3.92120385 -1.07296813 -16.08849716
3.54649210 2.98883128 -16.81599998
-4.35571766 1.85772109 -15.48768616
3.60943532 -4.45630598 -16.14857101
-0.43224922 3.23770905 -16.91163254
2.00290537 2.40190792 -17.07254028
-2.12146330 -1.12572622 -14.52805233
3.91942334 1.35394418 -8.81260490
-3.66282725 3.91717625 -10.35363579
0.91315264 -4.33995771 -11.59111977
-1.38024211 0.48873794 -12.83342171
4.00978470 1.69771457 -10.74639130
-1.84440315 -1.32635510 -10.02138329
-4.03857088 -3.04816675 -13.19873428
3.98744583 2.95937800 -14.90904331
