0.07591443 0.56894839 0.75978434
0.69916397 0.64876187 -0.71134198
-0.26866856 1.13881600 0.70708430
0.10710011 -0.46830738 0.58592808
-0.41321576 -0.57959521 0.14784831
0.84923011 0.17706907 -0.13207805
-0.99230796 0.98513734 -0.32272035
0.06660922 0.74374300 0.71952122
-0.86868733 0.98943901 -0.69493288
-0.00266448 -0.43214315 -0.26547870
-0.29834029 1.23601604 -0.50252479
-0.25186464 -0.54830384 0.09560893
-0.22351316 -0.08847415 0.68339151
0.19938178 -0.34571576 -0.09731220
-0.02521345 1.31541514 -0.61714214
0.06166621 1.43789387 0.67204475
0.26551396 1.25484133 0.63062072
0.88768458 0.23959363 0.12113883
0.25618604 1.46536541 0.50257283
-1.08388042 0.76320541 -0.26176807
-0.20709543 -0.47536898 0.42471796
0.18087694 -0.39869314 0.76999307
-0.75088561 1.28675628 -0.42209265
-0.96543550 0.31648535 -0.30773079
-0.28538862 0.04689685 0.76988244
0.31681073 0.28731069 0.50290483
0.19443047 1.33995402 0.41755757
0.33340406 0.27303448 -0.51554638
0.77011031 0.35072088 -0.78271717
-0.65741014 0.76305199 0.74844217
0.80315983 1.24218416 -0.14096855
0.48176563 0.53298050 0.52396834
-0.71653891 1.04609466 0.67435145
0.91501373 0.42978618 -0.46531913
0.67205882 0.27135786 -0.74888688
0.58284754 0.24765879 -0.05018322
-0.41209185 0.05348763 0.70984989
-0.33727571 -0.00776201 0.76981109
-0.42846316 -0.08837175 0.77438617
-0.06787073 1.19902802 0.72033614
-0.18132111 1.47940850 0.11600940
0.14591737 1.38131952 0.80783653
-0.40879706 1.22131288 -0.72812837
0.40691009 0.26192376 -0.66414297
-1.05611801 1.19348860 0.05638850
-0.11344373 0.03323910 0.75748807
0.67543626 0.31365347 0.24562123
-0.74338055 -0.05502361 0.69555879
1.05987036 1.12978530 -0.22241254
0.31767866 -0.26101875 0.46351728
0.71656483 1.23423803 0.02825962
-0.45981711 -0.01634198 -0.25940388
-0.14486279 0.10152170 -0.72751874
-0.93920088 0.53171831 -0.03695497
-0.12295557 1.16163528 -0.34969613
-0.98365766 0.34495527 -0.38183078
-0.06880495 1.28173780 0.75242311
0.21445714 -0.01691341 -0.35876879
-1.01740408 0.63332242 -0.06995141
0.72363442 1.20790148 -0.59554803
-0.67617017 -0.41596931 0.51848346
0.27311876 1.40712833 0.60075200
-0.58718580 -0.16790199 0.78488231
-0.90358472 0.27649879 0.07188070
1.04637301 0.36063534 -0.41234580
-0.64000934 -0.49948847 0.11349706
0.44114530 0.59379482 -0.78023934
-0.79826939 0.94854236 0.51313251
0.17687427 0.39928740 0.56469816
1.01179647 0.80953920 -0.34149781
0.49987814 0.80051374 0.35747239
-0.52431649 0.99075830 -0.79372841
-0.01866583 -0.54463422 0.01194610
0.01648241 -0.49828994 0.25608656
0.04666900 -0.51128685 0.03850177
0.15443125 1.50860965 -0.29230320
-0.48165575 0.47895652 0.67074502
0.54740816 0.18907779 -0.38394693
0.26828486 0.88328886 0.81302822
0.07275707 0.01698348 -0.42219749
-0.51291597 1.50169969 0.42751384
-0.56099159 1.34915626 0.70076472
0.90998572 0.86834753 -0.66692287
1.01107752 0.46625781 -0.29354498
0.14687638 1.51058018 -0.22731631
-0.76789296 0.30757898 0.18501785
0.58176047 1.22868204 -0.63302034
0.27122104 1.05045438 0.22504598
0.18760446 -0.33099419 -0.23690607
0.21884260 -0.08844525 0.43430969
-0.11823826 -0.40678799 0.72077674
0.47713470 1.01527166 0.44394591
-0.34937605 0.23213950 -0.48299226
0.20209338 -0.45738983 0.60179090
-0.35028264 0.33891684 -0.79582363
-0.46749458 -0.44009906 0.60111755
1.02001560 0.92216915 -0.35564291
0.07109760 1.27154374 -0.50177270
0.22897276 0.05863443 0.76478177
-0.77231085 0.78262746 0.33581910
-1.00926876 0.94313240 -0.76772910
0.06343693 -0.35960960 -0.24119312
0.23089470 0.83565414 0.64116585
-0.01492994 0.17179888 -0.52030063
0.70222920 0.19189930 0.26873809
-0.45124736 0.72813708 -0.77384758
-0.67473596 0.44690904 -0.78327817
-0.37051031 1.30321193 -0.19457939
-0.13517556 -0.56599975 -0.15572709
0.98047316 0.54210198 -0.13904950
0.28153682 0.99540687 0.41705865
0.93826175 0.67361128 0.26238236
-0.76050621 1.39590168 -0.02060707
0.95016229 0.58059561 -0.67567843
-0.07537825 0.15743333 -0.22033559
0.29820243 0.02983910 0.47079292
-0.76849419 1.28604174 -0.34302518
-0.37019750 0.32603171 0.75789613
0.04319616 0.43247893 0.74035019
-0.06305104 0.05864149 0.74178982
-1.06117380 1.17056739 -0.66459513
-0.72965044 -0.27292383 0.36580384
0.84413821 0.74242753 0.19178186
-0.55332047 1.24220014 -0.31658494
0.39585644 0.02333352 -0.13332681
-0.17411764 0.89765894 0.76371157
-0.57077950 0.61549115 0.77288634
-0.01025590 1.03344798 0.71874678
0.88819247 0.22150457 -0.59896356
0.25862119 -0.33436728 0.31637213
-0.79821706 0.24482113 0.77613956
-0.54554236 1.25284517 -0.76137543
-0.39560568 -0.46776628 0.07474238
-0.10360041 0.60732615 0.75170684
-0.09118400 -0.53071749 0.13748306
0.25703537 1.30254316 0.72832531
0.97074258 0.98009062 -0.74708867
-0.28512454 0.59093201 -0.78158438
-0.46652278 1.45982480 0.23817180
0.79643846 1.23153138 -0.14980526
0.24540557 1.04769814 0.21490470
1.06618989 1.01614416 0.25299054
0.55346364 0.71691358 0.20524721
0.43419725 0.53126442 -0.76975375
-0.74198103 -0.21964312 -0.15057157
-0.82757765 -0.10290718 0.06867919
0.37321752 0.75317979 -0.73551977
-0.50096035 0.90274858 0.76910937
-0.09989777 -0.54421628 -0.23567016
-0.96264720 0.65041655 -0.02863445
0.26956952 1.19694424 0.01410202
-0.91087830 0.29220706 -0.31980768
-1.08122003 0.94093096 0.21887331
0.53339851 1.24463034 0.19440177
1.01231885 0.77001750 -0.80952668
-0.26885015 0.71646369 0.81315184
0.17682426 0.99755836 -0.77409041
-0.59808660 -0.42658669 0.76215714
0.07477757 1.25015950 -0.56684041
-0.61911541 -0.51856375 -0.10787820
1.00124443 0.67691487 -0.68756938
0.16254845 -0.15110612 -0.28069875
0.98356950 0.55584753 -0.15611032
-0.66010958 0.41609943 0.51191002
0.71621740 0.81675452 -0.70753682
-0.84298086 0.22682324 0.14137164
-0.43948945 -0.51707971 -0.09609213
-0.70831126 1.17414999 0.81661373
-0.01860631 1.03423643 0.77047867
-0.30054253 0.75388479 -0.81770158
0.64846265 0.99436545 0.29870313
-0.71195060 0.51667744 0.52799332
0.66301948 0.24316466 0.12289789
-0.95036155 1.30275083 0.08937965
0.97794193 0.96756369 -0.65606999
-0.96794742 0.67085463 0.06237782
0.32671830 0.80166996 0.46866265
0.74552405 0.48668075 0.24095188
-0.96229368 0.43509150 -0.25429052
-0.42428026 -0.32566738 -0.23018999
-0.37565091 -0.06144220 -0.23857020
0.52542847 0.16332310 -0.24712233
-0.64613014 -0.12805474 0.66645336
-1.02567506 1.18616354 -0.17919134
-0.99637741 1.22517323 -0.54481608
-0.48089549 -0.50285959 -0.28662643
-0.39749336 1.49969935 0.65836555
0.08670707 0.16077539 0.78839386
-0.26231059 -0.10618019 -0.25326297
-0.21594359 -0.29862434 0.73966277
-1.00085580 1.09150839 0.27013937
0.96979731 0.23961312 -0.73108923
-1.03147948 0.58143669 -0.02762703
0.08847813 1.25196147 -0.64778072
0.45435405 0.27458698 -0.48886988
0.35734102 1.19860339 -0.37129486
-0.34551194 1.45558429 -0.17247649
0.83117306 0.49446929 0.29136810
0.80433255 0.95136422 -0.80395001
0.02441494 -0.50657809 0.08028670
0.03404265 1.52136517 0.48416379
-0.47633159 1.07607961 0.81143844
0.97996968 1.24133301 -0.79561538
-0.26383874 0.24867964 0.80410504
0.28235352 -0.43209302 0.45042795
-0.97153026 1.28335118 -0.40036711
-0.59464520 -0.22107100 -0.23057809
-0.76323473 0.36830992 0.50642836
-0.22366872 1.25904870 -0.49301884
-0.06029067 1.05830741 -0.65431887
-0.10312118 0.33173525 -0.51674390
-0.20534752 1.25751364 0.66052663
-0.81619430 0.97742140 0.25584665
-0.34095562 -0.56550944 0.31220600
0.23491491 -0.52479780 -0.00358385
1.04803133 0.47533482 0.10026849
-0.78997666 -0.30367482 0.56959927
0.09136833 0.75219786 0.65839112
-0.41499615 0.26031989 -0.79591763
-0.74152660 0.50922394 -0.81056166
0.32541752 1.33310890 -0.33127379
-0.15185781 1.45464993 0.40403828
-0.44080746 0.22082379 -0.41509402
0.61269176 0.26600745 -0.55421555
0.23079132 1.23328471 0.43965548
0.24545750 1.04252505 0.39494446
1.01693344 0.17170766 -0.54036063
0.55467933 0.34784707 -0.19675401
0.82204950 1.25240707 0.12563524
-0.48748127 -0.49624288 0.01257942
-0.13635327 -0.34171140 -0.32605124
0.11252559 0.21590340 -0.60421181
-0.95806599 0.66801691 0.22985724
-0.75034112 1.26775026 0.77721441
-0.73842156 -0.35351074 -0.18763705
0.37333736 0.76828003 -0.68832994
0.44823298 0.12718698 0.49831140
0.03892630 0.27805537 -0.64991397
0.98674691 1.29278660 0.08782972
-0.85761642 0.99164265 0.26204076
-0.71443939 -0.04293102 0.31850716
-0.86843604 1.18381333 0.78098935
-0.11397298 -0.31241888 0.76391876
1.03195465 0.50236541 -0.10017049
0.31718782 0.60928452 0.60272640
-0.64892471 1.05184639 -0.80679995
-0.32127464 0.06267163 0.78668928
-0.95568854 0.47923544 -0.22908385
-0.69363117 1.37596488 -0.30130735
0.23886272 -0.10733008 0.62978142
0.98331404 0.71293986 0.04780805
-0.78048146 1.17368019 0.48995888
-0.62502605 0.62621325 -0.75752556
0.57050985 0.58357185 0.46793345
-0.06991308 0.04039168 0.72002465
0.49998328 0.01755026 -0.22061771
-0.59367406 0.59102732 -0.74912256
-0.87154138 0.53120190 0.45219719
-0.48264813 0.94406915 -0.77837086
-0.49838871 -0.09439594 0.75466847
-0.78757888 0.96392238 -0.75234783
0.00658195 -0.45731115 0.05207976
0.37565520 0.68371868 -0.74315912
-0.09769432 0.99145585 0.73176295
0.86642629 0.76130241 0.19553816
-0.47797415 -0.33307266 -0.27381212
-0.39689097 -0.14648879 0.84032357
-0.58143669 1.38908100 -0.32790625
0.89192230 0.26207644 -0.26102519
-0.36131352 -0.49893850 0.39082265
-0.65527153 0.01214138 -0.24108063
-0.04666529 0.71930385 -0.83150905
-0.43431497 1.27218604 -0.64807022
-0.00943975 1.20734310 0.75540477
-0.00454427 1.29555058 0.79116589
-0.67801839 1.49000597 0.06444481
-0.96954030 0.47456154 -0.31889048
0.14899455 0.08843264 -0.50166512
-0.12920758 1.45329213 0.36932319
-0.72123802 1.20122421 0.36121055
0.26268053 -0.37784040 0.48390946
0.54556483 0.59311366 0.18281820
0.91500562 0.49024224 0.22386791
-0.99519914 0.55261058 -0.58971745
-0.54262877 1.44630206 0.15778026
-0.13330604 -0.49835199 0.63894993
-0.78616744 1.27951002 0.35454959
-0.32583773 1.27496910 0.75632721
-0.83211446 -0.18456697 0.62630033
-0.73012120 0.62351048 0.44198591
0.04687279 1.40941763 0.74684370
-0.95612603 0.36403275 0.19142881
0.09221034 0.00148103 -0.48451892
-0.52936423 0.00997689 -0.23258892
-0.32761088 1.25266504 -0.25509101
-0.52634549 1.51253855 0.49197653
-0.71180022 0.48211989 0.79579538
0.74409342 0.21554014 0.05858260
-0.71542490 -0.10152233 -0.27999413
0.68260878 1.21209478 0.31025672
-0.48921031 -0.51593328 0.17932260
0.37006366 1.02090549 0.22979985
0.23880492 -0.33472377 0.60962635
-0.94336528 0.54299736 -0.80175364
-0.79484320 1.09151173 -0.76246279
-0.61658758 -0.53311646 -0.04701763
-0.39278322 1.56244099 0.06025655
-0.71655709 1.46260571 0.75877106
-0.45973474 -0.54872954 -0.03757551
1.02270567 0.96265817 0.15565398
0.47077161 0.21936569 -0.61832035
0.24017680 0.12531677 -0.46090060
0.15329801 -0.45427066 -0.16896009
-0.12643789 1.24853611 0.79836941
-0.53204018 1.47014928 0.50655019
-0.07203104 -0.47741818 0.42296404
0.05965661 0.07720029 0.73290753
0.06641349 -0.34245187 -0.22751904
-0.95250225 0.30139351 -0.21042587
-0.78711361 -0.15474850 -0.18783353
-0.97703803 0.61727309 -0.29732800
0.57818639 1.09818912 -0.68826586
-0.53258389 -0.56110656 0.23402026
0.51647055 0.55402088 0.57631785
0.02388688 0.61012346 0.72390187
-0.20220859 1.12460566 0.76458412
-0.14270900 0.84961885 -0.80280823
0.75414872 0.77767801 -0.82379609
-0.42892659 0.94995052 -0.77028352
0.36539450 0.62927151 -0.73212135
0.21795778 1.28192329 0.03520252
0.24971481 0.01413924 0.24618950
0.45950663 -0.04017496 -0.32027742
-0.15992153 0.97188425 0.70843053
-0.85586703 1.00721157 0.29223648
0.49785593 0.95912999 0.26308548
0.60412318 0.26955926 -0.63577116
-1.00251091 0.83720911 -0.20027301
-0.78891265 1.40953994 0.73671687
0.42017424 0.96789742 0.48879710
-0.89439225 0.22389895 -0.56277084
0.26480538 0.91412842 0.76258314
-0.40798667 -0.11882865 0.73410439
0.31285796 1.19153714 0.61037481
-0.53470743 0.82167280 0.75231731
-1.05943859 1.07563472 -0.43730035
-0.05818694 -0.56730902 0.55712640
-0.77983409 -0.07696867 0.51990151
-0.77884138 0.11161509 0.35103789
0.22039823 -0.55836439 0.01726675
-0.87564975 0.33952871 -0.78141457
-0.78796095 0.26151997 -0.64109075
0.20092273 -0.48322767 0.34778282
-0.21065368 1.13852930 0.75897801
0.21417430 1.24954438 -0.39513010
0.13853085 1.23324394 -0.22229199
0.02754782 0.32372081 -0.77471691
-0.69107068 0.11673960 0.15964323
-0.16541508 -0.45198655 -0.23104358
-0.63455808 -0.21436536 0.77954054
0.24359417 -0.18803215 -0.06431411
0.21879406 -0.56927633 0.50758314
0.08334615 1.44441879 -0.27611423
0.47269154 0.18467948 0.06775287
-0.23496547 0.71028775 0.72673869
0.47414160 0.67920160 0.54585713
0.81214368 0.99269092 -0.77774400
-0.70609784 0.38030013 0.64248985
1.00244534 1.09969664 0.15549462
-0.72516048 0.75722063 0.28482041
0.05379611 0.54808450 -0.74662030
-0.79735535 0.78977627 0.21705391
0.84509975 1.24824333 -0.39684990
0.29076970 0.22423291 0.66911942
-0.54835129 0.51356262 0.79760855
0.91905761 0.28676566 -0.78117192
0.10596421 0.83921778 -0.73580164
0.85544592 1.23452640 -0.00327313
-0.56425244 1.49462521 0.01880797
-1.00071800 1.14188278 -0.57885569
0.89240468 0.91348803 0.25293931
0.31214112 -0.02563208 -0.04097955
-0.81486291 0.93555176 -0.80285841
0.25933066 1.31350458 0.60381532
-0.97722077 0.88393867 -0.72601706
-0.33304125 1.26176107 -0.62898207
-0.21447258 0.94443512 0.80894643
-0.07673506 -0.47115427 0.75268918
-0.42058349 0.25017059 -0.67902213
-0.40438491 1.53810811 -0.07674283
-0.55668187 0.19484231 -0.34146538
-0.76616925 0.04617864 0.14414644
-0.27306557 -0.23302656 -0.27411026
-0.47522566 -0.42299116 -0.10010199
0.52347648 0.98470771 0.29441652
-0.91207737 1.22305727 -0.06689943
0.54285890 0.71947348 -0.77255791
0.74823976 0.54842001 0.32904720
0.30942258 0.41450536 0.64426899
0.64767957 1.25881672 0.29749221
0.94559056 0.94525313 -0.73041332
0.26911497 0.82564986 -0.77929878
0.35306272 0.01849633 0.04340110
-0.67590231 0.32596505 0.47980756
-0.69296986 1.13029432 -0.77694184
0.69107097 0.27461535 -0.50758171
-0.72649348 1.14081001 -0.38934556
-0.77212214 0.76995546 0.21661462
-0.71115500 1.13301826 0.29086587
0.23512657 1.28974319 -0.59867716
-0.78824735 0.89292562 0.57129234
-0.26440737 1.08706844 -0.84398633
-0.03959234 -0.09996724 0.64018160
-0.34314942 1.47383440 -0.17763852
-0.74898708 0.34684312 0.30775446
0.12237828 0.91421974 -0.72283989
0.15732735 1.54085803 0.17071399
0.54639119 0.21068805 0.38882869
-0.51562434 -0.12741631 -0.26329860
0.02365061 1.48106682 0.06557311
0.26245046 -0.35921419 0.51373339
0.77329093 0.27534068 -0.53863794
0.07922066 0.38351429 0.77268219
-0.73311496 -0.51106441 0.18712084
0.87032223 0.24585035 -0.06225337
-0.65099227 0.48321715 0.77581590
0.23190372 1.05104828 0.42736039
-1.05215609 0.32105476 -0.19465868
-0.74554157 -0.12467843 0.18810499
0.06746081 1.47734380 -0.20462754
0.05384235 -0.60388386 0.20236830
0.02180617 1.47147596 0.64961457
-0.40740913 1.23705423 -0.59375626
-0.68270808 -0.41786957 0.73676908
-0.39299935 0.48371953 0.78089714
0.65204108 1.15335822 -0.79420948
0.19640253 1.25434899 -0.69360077
1.00665975 0.82450587 -0.62807822
0.38902602 0.08886394 0.45275599
-0.73446304 0.92615634 0.62762856
-0.84390503 1.00462055 0.26410237
-0.80188209 1.23637366 -0.66713011
-0.45602494 1.43044186 0.20509854
-0.75415850 0.98003745 0.55121553
-0.21302457 1.09773993 -0.71566832
0.44651011 0.27441561 0.45989522
-0.56030965 0.49469781 -0.72447324
0.90234685 1.23225570 -0.12424758
-0.29123390 -0.02663702 -0.24693725
-0.21612367 1.40078092 0.68201637
-0.76919985 1.07849848 0.58015400
0.32721543 1.40567589 0.40703914
-0.09280881 -0.10533297 0.78759229
-0.22830231 0.10645011 -0.50566202
-0.09578615 1.36992490 -0.27949691
-0.52480400 0.14687777 -0.43022445
0.10647097 0.17893642 -0.63630056
-0.14366592 0.08087814 -0.43917298
0.94540060 0.73865509 0.26644093
0.40489408 1.25134349 -0.47575074
-0.27841073 1.43821752 0.77911288
-0.75767219 1.40589738 0.51223195
-1.02591407 1.13561368 -0.70847213
-0.92715454 1.28268361 -0.72052068
-0.46631464 0.17832282 -0.46784464
0.03449314 -0.52189040 0.60389358
-0.25161716 0.56465405 -0.81030273
-0.95282161 0.26155198 -0.05675127
0.00359826 1.50957978 0.17015563
0.51126945 0.77223492 0.42593971
0.01927901 0.37942344 -0.78766441
-0.28984115 0.66423011 -0.76202685
-0.96455657 0.92826152 -0.32985887
-0.47152683 -0.46445113 -0.25936276
1.01923847 1.11836815 -0.53352559
0.64573306 0.23370481 0.07093468
-0.21984769 1.08447337 -0.82977766
-1.01805103 0.70501065 -0.70544219
1.00251186 0.72945201 0.04259686
-0.35796249 0.10092449 -0.47809163
0.46869683 0.03362966 0.27439967
0.97765988 0.71755975 -0.02352116
0.97540873 1.12336612 -0.41392195
0.42750743 1.04177928 0.19656177
0.16816774 -0.31123567 0.03351747
-0.27850720 -0.02511752 -0.26065788
-0.48844188 1.06524909 0.73238039
-0.75585729 1.32403839 0.11503618
0.54003996 0.18346682 0.27864769
0.23237978 0.05339652 -0.45559725
1.00781834 0.95769513 -0.40639529
0.49275479 0.22780037 0.05401990
1.07948685 0.47257513 -0.64432961
-0.29778981 1.29045188 -0.49687648
-0.81016791 0.51969612 -0.72436190
-0.76932436 -0.38129181 -0.13360649
-0.68256342 0.39979738 -0.75823307
-0.53398085 1.19109488 -0.59855866
0.35886726 1.23777735 -0.72936267
0.86958915 1.27977407 0.23422362
-0.90680200 0.93318033 0.30307999
0.55200136 0.03398648 0.02748519
-0.13438840 0.45950425 0.71188056
0.30682695 -0.05904633 0.20369008
-0.36473218 0.48794258 -0.76225930
-0.42131901 0.82188469 0.82275224
-0.32826763 -0.09566462 0.78491926
-0.97545874 0.74013609 -0.56172007
0.44674093 1.09971762 0.26640972
0.22477677 -0.55243361 0.03861415
-0.30685180 1.07917070 -0.79116666
0.24197374 -0.47491133 0.57724959
0.23136361 0.33573014 0.48167226
0.73433882 0.56838781 0.23047608
-0.23486197 1.36367548 0.76563644
0.31285945 1.11483574 0.18965891
-0.40024120 0.87445593 0.71634924
0.45901346 0.09019288 -0.34090328
0.11471310 1.06641686 0.76889747
0.05972920 -0.61180055 0.30077806
-0.25318906 1.32576871 0.76826817
-0.48973894 -0.46612471 0.67364973
0.16118371 -0.24110407 0.68303460
0.77310109 1.30613804 -0.14078267
0.85225248 1.26454973 0.07809295
0.41989222 0.27410740 0.48455045
-0.57721037 0.25200701 -0.40085894
0.18473355 0.48280701 0.60183948
-0.36700797 1.04459667 -0.74942249
-0.25008643 1.36388063 -0.15336707
-0.69710213 0.41700676 0.72952074
-0.41076350 -0.03316450 0.75534618
-0.68334252 -0.40881830 0.78454405
-0.74837291 0.33123851 0.39222977
-0.81997168 1.22300363 0.43738791
-0.07176971 -0.50286520 -0.09083652
-1.00893521 0.52144009 -0.03058832
0.04721004 0.05527696 0.75070024
0.24836349 0.94013393 0.70565164
-0.63147843 0.55922604 -0.72060835
0.15723960 0.74871063 0.76695979
-0.06581054 1.00275493 0.72964406
1.06416273 1.14164662 -0.29897362
-0.15574567 0.63013846 -0.78806597
0.38002631 0.00483403 0.40397280
-0.77437675 1.30307412 -0.09258583
-0.83016831 0.55682814 0.37114966
1.00593972 0.50778854 -0.59217578
-0.74680084 1.42569876 0.70491201
0.45873162 0.42127901 0.38063636
0.67055935 1.23447323 -0.58600771
0.21589567 0.74652094 0.80492169
-0.73405623 -0.16960812 0.21999116
0.22911672 -0.46500206 0.26543665
0.57158232 1.28852046 -0.37785119
-0.16390564 1.12112117 -0.67272770
0.02006064 1.27926207 -0.49362761
-0.72898746 0.27933025 -0.59304041
-1.03274584 0.40437430 -0.67515177
-0.81585574 0.55177569 -0.72601789
-0.10699586 -0.45529819 0.77974129
-0.29045472 -0.51775062 0.66363084
-0.74188155 -0.21963167 0.49848953
-0.27198520 1.51902628 -0.20613831
-0.56798816 -0.35968745 0.76719707
-0.77326703 0.70199442 0.31449208
0.80613333 0.26994497 -0.42445707
-0.09291863 -0.44729614 0.23297007
-0.74326414 1.33016431 0.47597402
0.09757511 0.28653878 -0.62120968
-0.10928970 -0.21018821 -0.18508725
-0.96176404 0.44074032 0.24891330
-0.25584415 0.46841109 0.85041946
-0.63332701 0.15175328 0.35971427
0.34375352 0.04368234 0.30200562
-0.76975346 0.50166219 0.23921797
0.68748498 1.17971396 -0.71725047
0.05710737 0.83847952 0.75108862
-0.79392076 1.35238540 0.30229339
0.61408186 1.17831838 -0.71674895
-0.98480999 0.32397586 0.08023512
0.24323420 0.84789485 0.62816459
0.61312681 0.41556087 -0.71278238
-0.53450114 0.11352634 0.72155279
-0.60677147 -0.24020618 -0.26263183
-0.55455178 0.61672890 0.73175871
0.57025164 0.99888694 -0.76127237
-0.81137961 -0.44010019 0.18753582
0.60544890 1.25630331 -0.62697035
0.40201423 0.14455137 0.58191568
0.43863502 1.28638017 -0.48937139
0.19746485 -0.49410182 0.16503341
0.97986448 0.49500939 0.15521117
-0.15872675 -0.50430739 0.25534073
-0.08320821 1.53468692 0.55293769
-0.65848774 0.73402464 0.59497875
-0.66268229 1.60448897 -0.04002776
0.82419884 1.24664879 0.15903635
0.29190481 0.85306299 -0.78205985
-0.95025009 0.37693095 -0.56664467
-0.60917938 1.15592563 0.75465077
-0.85579866 0.18221837 -0.63484049
-0.49005702 -0.21557486 0.67110795
-0.54284829 0.14161426 0.85065717
1.00051320 1.20057368 0.28490737
0.68771976 0.82770723 -0.74437428
-0.35684562 1.29782772 -0.76990509
-0.14845456 1.08193755 0.73324901
-0.69012469 1.24617040 -0.39509481
-0.16013509 0.84445828 0.69603139
0.28222564 1.29367423 -0.20741281
-0.28314024 -0.06768072 0.80290741
0.16081542 1.54393220 0.40965676
-0.74840128 0.70822835 0.65390867
0.44993851 0.62138748 0.47229370
0.31955287 0.84793913 0.48118153
0.77910823 0.26362932 0.21091120
-0.89700794 0.63918000 0.24273740
-0.40897211 -0.02097708 -0.41125739
0.23665273 0.57056504 0.67243499
-0.45507190 0.39005005 -0.72515321
0.72446501 0.63926077 -0.71794778
-0.20078075 0.94630516 -0.77542013
-0.18087949 0.29454401 -0.63689756
-0.61942708 1.29686975 0.81921798
-0.64181387 0.41736060 -0.75603461
-0.37135130 0.70629555 0.84811270
-1.01882696 0.79745162 -0.02303089
-0.71266311 0.20839497 -0.21401590
0.50476241 0.90915740 0.22939941
-1.00834882 0.44542149 -0.75729388
0.48772725 1.07709265 -0.76087350
-0.54305464 -0.52620220 0.33951423
-0.51933861 0.86248326 0.77702278
-0.74193406 0.15556550 -0.05763154
0.58459675 0.95680439 -0.73637617
-0.02531818 -0.40141600 0.57761478
0.26092270 1.20381165 -0.71085888
0.30101767 0.40054309 0.60419238
0.65033436 1.25221825 -0.03551936
-0.26250669 1.51212442 0.83008224
-0.75341505 1.41655052 0.23682685
0.02663386 -0.25084913 0.70500481
1.03105772 1.22636580 -0.10787489
-0.75116473 0.25870478 -0.08565912
-0.25920850 1.21256781 -0.40600094
0.07406222 -0.51938581 0.25308639
-0.48190182 1.15719867 -0.64311343
-0.04705888 0.69568133 -0.72274983
-1.00150657 0.24983770 0.01023161
0.60299563 1.13788748 -0.74446017
0.15938178 -0.01386285 -0.16506217
0.07242072 1.28655756 -0.67141163
-0.23865603 -0.48685575 -0.05429327
-0.93630970 1.16771865 -0.21498750
-0.78862906 0.21776590 -0.11700378
0.05616850 0.19071218 0.75021088
0.04312148 1.30697119 -0.69397229
-0.26113069 1.55141103 0.49736866
-0.13653678 -0.46131057 0.23585792
0.20755374 -0.14431149 0.20414288
0.05339653 -0.05162573 -0.22122140
1.07261801 0.40836447 -0.14372236
0.20992120 0.66432154 0.49665433
0.17809720 1.48396611 -0.04012943
-0.54141903 0.26703846 -0.41766834
0.21727017 0.60834038 0.53825438
1.03624749 0.47686714 -0.12097694
-0.69201595 1.20264506 -0.70741934
0.45527232 0.23778677 0.43086419
-0.03141849 0.28716424 -0.50594610
-0.97808433 0.52508938 0.04583436
-0.17606007 1.19338775 0.79409176
0.32731411 0.96422994 0.44461802
0.25590837 -0.04184175 0.18585560
-0.69246542 0.05434427 -0.25926471
0.84228146 0.23293164 -0.43493471
-0.07342730 1.01038003 -0.75016153
0.23768540 0.32978785 -0.70609993
0.05882347 1.37451792 -0.27397245
-0.12799872 1.43816495 0.44821653
-0.53759992 1.42163527 0.66851932
0.51015157 1.27042806 -0.28193980
-0.05148025 1.43709087 0.75177407
0.01797708 -0.05458832 0.74130952
0.26053563 0.65921122 -0.75840998
-0.14667687 -0.15486634 -0.28056434
-0.12684533 1.47330427 -0.10887689
-0.60207927 0.89220476 -0.76300758
-0.45567098 0.02333447 0.76278573
-0.81007338 1.26721549 -0.08999914
0.94407684 0.81210089 0.15711835
-0.34680957 1.16516733 -0.70442712
0.07929188 0.67577499 0.80983561
-1.06676710 1.23037410 0.04438752
-1.06617880 0.98765695 -0.49845225
0.51186520 0.35430664 -0.43203196
0.15124618 1.27597427 -0.62394446
0.76723856 1.23961091 -0.62883210
0.23177832 0.02185783 0.03281564
0.01671122 -0.34157765 0.68768060
0.47561729 0.90166914 0.35651821
-0.90922368 0.72084916 0.24333040
0.29918560 1.29907656 0.20129046
0.90501380 0.31339756 0.21993901
-0.02689816 0.37423903 -0.72420245
0.24287154 -0.18966836 -0.02754111
0.96303797 0.81125808 -0.70182627
1.00390303 0.23360881 0.22367999
0.33392727 -0.51954722 -0.23789777
0.24647750 0.01368091 -0.33668458
0.49683714 0.02744305 0.42856511
-0.34476575 0.20157719 -0.47407773
-0.17954721 1.46797156 0.54755396
-0.98555636 0.38775671 0.01822967
-0.38844490 1.51349699 0.63113171
-0.44603437 0.13014311 0.72177476
-0.54997128 0.29041392 -0.63397145
0.25567436 0.96390975 0.57002878
0.96125197 0.60597217 -0.30519921
-1.10675764 0.45696956 -0.70780361
0.75446820 1.32907414 0.10255121
0.99455678 0.45818087 -0.13223317
0.24257208 0.62907910 -0.72499925
-0.55115050 1.25233567 -0.59197187
0.96281266 0.98090160 0.16754113
-0.78206992 -0.10543650 0.28253949
0.20215775 0.38740492 -0.80466980
0.24050903 -0.40916729 0.58717775
-0.60297465 -0.39267880 0.83108097
-0.91885340 0.85140395 0.33280489
-0.65835780 0.17443126 -0.32044309
0.73074442 0.24877673 -0.28552273
-0.77033335 1.38610327 0.09903044
-1.05127037 0.65893269 -0.03295125
-0.99554300 0.31838441 -0.67222494
-0.15865476 -0.51099300 0.52175003
-0.40669382 0.34298912 0.83651727
0.24274284 -0.43006134 -0.04755805
0.11653239 -0.29086584 0.66276211
0.94449228 0.72497344 -0.47963628
-0.50601119 1.27021408 -0.25019118
-0.10742833 -0.49132615 0.03741028
-0.48134527 0.29316705 -0.82096189
0.56034189 1.04795265 -0.78094685
-0.92650551 0.86962187 -0.26364949
-0.89765751 0.24642989 0.24543579
-0.75566125 0.71176094 0.79863346
-0.14337887 1.03138256 0.78352869
-0.56730562 1.53920257 0.35621452
-0.22975565 1.02887678 -0.77888513
-0.81695181 1.33345330 -0.43528503
-0.66605586 1.27416301 0.34760946
-0.94777954 0.59076899 -0.73729312
-0.11196931 -0.45401102 0.37221029
0.02206590 1.04417181 0.78251308
1.05391836 0.99288321 -0.24882241
-0.00762559 0.38287017 -0.77683920
-0.55425894 -0.49424082 -0.01860997
-0.49845985 -0.00014502 -0.40994439
0.04880988 -0.47623432 0.75653797
-0.76229322 -0.34703994 0.41589588
-0.54835439 0.47689512 -0.73801154
0.45807213 0.99595416 -0.69819057
1.03869164 0.48049289 -0.51556396
-0.74444503 1.32687879 0.50622463
0.34511477 1.38565326 0.38425356
0.11578295 0.67900896 -0.68469417
-0.78085232 0.56450832 0.85670537
-0.19485897 -0.38707250 0.73306245
-0.34883016 1.01094127 -0.69779372
0.39800987 0.01743540 -0.13122067
-0.70327640 0.96597052 0.50494969
0.12045983 0.17688817 -0.53625107
0.78800398 0.40692443 -0.70358741
0.87707257 0.31578189 -0.66828215
-0.33229551 -0.43795723 0.79244655
-0.72723556 1.13859510 0.55686170
-0.55131978 0.30331099 -0.75251186
0.28133163 -0.08522701 0.19535157
0.98517239 0.78903252 -0.48909870
0.73198956 0.93041146 -0.79386342
-0.44729125 0.46304029 -0.80748755
0.07221047 1.38864279 0.75216782
0.97571081 0.54798877 -0.19240089
0.57378924 1.19800854 -0.65949762
0.19220418 0.62429941 -0.76410282
-1.06315720 1.09352386 -0.39791316
0.47288743 0.54289633 0.42746770
-0.45980382 -0.54085541 0.51662630
-0.63587034 1.26560211 0.73172951
0.31305110 1.47711086 0.67621613
0.24086300 1.43374062 0.38371465
-0.61939073 1.31006455 0.84144235
1.02157688 0.47852138 -0.01835556
-1.02550948 1.10807049 -0.43024775
-0.76129490 0.27655223 -0.13359576
0.44970238 0.87140489 -0.69594187
-0.18460864 0.68000144 -0.75899112
-0.13998826 1.04730582 -0.73883247
-0.49427259 1.24744093 -0.49539796
-0.96980619 1.10565841 -0.06980748
-0.54657412 1.00263953 -0.79658204
0.07878820 1.18343329 -0.78326654
-0.79445082 -0.10726386 0.54704380
-0.65828955 0.64898860 0.43791577
0.99766451 1.29479504 -0.70661843
-0.90156841 0.78242451 0.30644837
-0.78559202 -0.08692205 0.75205666
0.20668678 0.88003296 0.50832117
-0.07840929 1.47920990 0.01948131
-0.63532478 0.93282712 0.79496539
0.33043063 1.22730196 -0.51035672
-0.57219201 -0.45366007 0.53972149
-0.57240391 1.54022181 0.42192349
0.00945437 -0.45623410 -0.08178767
0.16615111 1.18823051 -0.71638286
-0.00385281 0.12797344 -0.46006325
1.03023493 1.12588644 -0.35734171
0.13877797 0.93390769 0.68603528
-0.84348023 1.24179518 0.01871113
0.92887735 1.16347361 -0.79958677
0.21594664 1.22060692 -0.61476690
0.54195356 0.07322177 0.23463401
-1.04027843 0.73197132 -0.64819580
0.82563877 1.20837128 0.21201274
-0.97051531 0.28425717 0.16204788
-0.68507552 0.02151921 0.55066115
-0.73885459 1.38749576 0.55868351
-1.03574002 0.63406253 -0.64686674
-0.50480270 -0.55871463 -0.18195663
-0.76262170 -0.11289513 -0.03970517
-0.68845254 -0.03186727 0.42925116
0.10395253 -0.46565133 -0.30885857
0.66565567 0.26203752 0.06829864
0.96362042 0.23460507 -0.60682636
-0.77976036 1.41511273 0.33445737
0.42365834 0.79737830 0.26537275
-0.67134625 -0.11462384 0.19953410
-0.12789436 -0.51193988 0.14082882
-1.00078380 1.15010691 -0.50207686
-0.24811365 0.70601892 0.76150751
0.96773726 0.70223236 -0.15751891
0.98957986 0.35372210 0.23884472
-0.66832948 0.09921736 0.71622360
-0.71890259 -0.52912354 0.31692833
-0.37010929 0.16327345 0.77453411
-0.05276487 0.31784961 0.74655068
0.52382392 0.96050572 0.26172093
-0.34921145 0.81517601 -0.77920848
0.22569290 1.09282076 0.26824057
-0.72494721 0.74968690 -0.70011854
0.44634625 -0.01626360 0.12950918
-0.74713236 0.07515618 -0.22851841
0.62130874 1.23168385 -0.47700539
0.92877865 0.21958956 -0.35059631
-0.74577129 0.28297085 -0.28881559
-1.03035641 0.56193161 -0.27893233
-0.84404755 0.29650328 -0.21533147
0.42500341 0.72921342 0.49698034
-0.80585480 -0.43611372 0.55545145
1.08374250 0.90875471 -0.60475940
-0.51506650 -0.22230434 -0.29091805
0.99202847 1.29137933 0.19505452
-0.17090365 -0.25103760 0.76320350
0.61938596 0.49164096 -0.71836889
0.25980392 1.45477533 0.60409045
0.17106843 0.92198324 0.67028499
-0.24858877 0.81458795 -0.75503528
-1.02495348 1.09947944 -0.65212327
-0.98292702 0.28508991 -0.08666863
0.13385496 -0.52334249 -0.28031039
-0.63784623 -0.50133324 -0.18126146
0.51904386 -0.09856248 -0.21689999
-0.74981040 -0.49279279 0.03833502
-0.53576887 1.53222632 0.72201335
-0.95912248 0.20923305 -0.62377393
-0.08091182 0.05225277 -0.48152000
-0.19164690 1.49099255 0.49699384
-0.00931500 -0.46706116 -0.21049105
0.09510308 1.45762277 -0.21340077
0.67228228 0.86958325 -0.76268375
0.44045222 1.29210448 -0.22357130
-1.00799811 0.44335535 -0.62836123
-0.63420182 0.28264612 0.71558034
0.09078362 -0.29458386 -0.23742303
0.21113642 0.69360477 0.74403089
0.31750518 -0.07695079 -0.06257435
-0.81531334 0.79372913 0.41558364
-0.70295972 0.09574118 0.76836890
1.00023162 0.62371683 0.14826092
-0.97343981 0.65415597 -0.69484311
-0.51840937 -0.27591842 -0.19568072
0.96152824 1.07195878 0.25440389
0.28472736 0.28313655 0.46711004
-0.66090977 0.01390812 0.84048271
-0.38231915 1.59812689 0.36856720
-0.75645834 0.81900829 0.42970490
0.45488295 0.22844315 0.35711849
-0.45448059 -0.50227368 -0.22868355
0.98727918 0.61841291 -0.57034183
0.31281078 1.03892541 -0.76392734
-0.54404956 0.22013059 0.81831205
-0.76373833 0.83468962 0.45644835
1.01866210 0.37691423 -0.67831701
0.20644619 -0.22224838 0.31283057
-0.38660729 0.13063201 0.70961469
-0.83445013 -0.05766958 0.55600101
-0.19460742 0.50143999 -0.78039896
-0.14849633 1.44155645 -0.28488278
-1.06793678 0.60995924 -0.81539196
-1.07356560 1.07560194 -0.38397816
0.05146762 0.25995606 -0.66515261
-0.23898573 1.08948922 -0.71527141
0.21293330 -0.16624600 0.25911853
0.87649071 0.41299742 -0.73011589
-0.41730949 0.02146012 -0.37207904
0.09675743 0.79085267 -0.76018661
-0.72178632 -0.52432716 0.52781612
-0.04137635 0.87737161 -0.73023069
0.26074734 0.99938869 0.35931426
-0.62786186 -0.41143173 -0.29807189
-0.82551646 0.58901644 0.25228998
-1.03086317 1.17027497 -0.45174679
0.33942446 0.64047694 -0.75305253
0.55101949 0.17982104 -0.29450682
0.47962272 0.66252184 0.48947525
0.18022227 0.78408182 -0.69979793
0.74470574 0.51899713 -0.62498617
-1.00159001 0.35085154 -0.30687314
0.39170849 1.19827724 -0.03955175
-0.74880934 -0.46225595 0.56750429
0.96196443 0.52030414 -0.68163168
0.43863827 0.17306823 -0.52166879
0.51100183 0.22079575 -0.05862892
-1.02930975 0.90062302 -0.23402542
0.74589694 0.69023681 -0.76236624
0.26054406 0.54319352 0.76270163
0.97215933 0.92586493 -0.23461759
0.49112189 0.49605572 -0.74207383
-0.92985970 0.24748859 -0.52786261
0.32117447 0.97831249 0.49047908
-0.17409086 1.40445018 -0.20450824
0.49462411 1.31899428 0.22183441
0.50194657 0.20088062 -0.53185087
-0.06137457 -0.59633493 -0.07248643
0.84344125 0.49420512 -0.81358916
-0.07563514 1.54670143 0.26076844
0.44123152 0.87916309 0.47024873
0.23164558 1.22987270 -0.67571265
0.14730604 -0.50372171 -0.10183211
-0.87524319 0.43481624 0.28807032
0.57158524 0.23820737 -0.21367779
0.73573428 1.17872977 -0.62133306
0.65923023 1.19977593 0.25452235
-0.20580785 1.07123315 -0.77324039
-0.55756831 0.84055895 0.68608528
-0.98245502 1.00039530 0.16718093
0.41254556 0.24628353 -0.77950221
-0.93516707 0.54427326 -0.79264390
0.51541448 0.03386366 0.11276834
0.52978337 0.41824713 -0.80440551
0.51149166 0.62824732 0.36422184
-0.81222713 0.31933779 0.41048810
0.05702187 0.43700534 0.73816830
0.42911091 0.64489239 0.50308096
-0.36553979 -0.29376191 0.75671232
0.38126355 0.30753791 0.52340251
0.39441794 1.19500160 0.08425777
0.62567824 0.21811035 -0.27921027
-0.94304878 0.30928159 -0.55759555
0.49712655 0.43469483 0.31531322
-0.75627315 0.97813994 0.59021437
-0.63466865 -0.56006682 -0.05299749
1.04803407 1.09704006 -0.56916428
0.93582731 0.40338317 -0.03418258
0.80931014 0.23981124 -0.30939174
0.21124829 1.51675260 0.31753665
0.37937310 -0.08056790 -0.08732159
0.45778057 0.43312100 -0.78602546
-0.98404676 1.10509098 -0.12725998
-0.57988900 0.40449503 -0.68697762
-0.05232739 -0.07105374 -0.28161651
-0.55361426 -0.33432949 0.69818163
0.42352951 1.13906407 0.22079408
0.15908255 -0.47902513 0.74395663
0.24503987 1.29139137 0.31918174
-0.67499489 1.46680892 0.57411146
-0.74082261 -0.49110907 0.33951339
-1.00018060 0.45019305 -0.13133536
0.84457737 1.26198959 -0.65301430
-0.65710926 1.57631314 0.45905796
-0.75735652 -0.19243342 0.83715308
-0.15271015 -0.30821711 -0.20986381
0.21156520 1.51255417 -0.02485009
0.57340395 0.58706164 -0.70072848
0.93834692 0.74465656 0.05777042
-0.19354440 1.36280107 0.74397099
-0.03959062 -0.22400439 0.72229046
0.40951210 0.04211470 0.34262353
-0.25305688 -0.48442405 0.38448995
-0.50294250 0.22753388 -0.34998241
0.30300274 -0.27404952 0.09023470
-0.56314147 1.46795762 -0.13226643
0.39312625 0.01883060 0.21909127
0.81684345 0.84237337 0.18805382
0.23436412 -0.10928237 -0.08328397
-0.54633957 0.73820788 -0.81863850
0.57202846 0.27815560 0.20475128
0.23346980 -0.39916497 0.13570277
-0.18836077 -0.47373313 0.60411358
0.80871546 0.21918601 -0.25802124
-0.51315641 -0.21422440 0.77146024
-0.99273688 0.37954083 0.16124257
-0.73266798 1.34280562 0.70490026
-0.28743494 0.12852263 -0.57510263
0.09422167 1.25648618 -0.21606782
-0.17412533 1.44349778 -0.24191321
0.51805723 -0.02798808 -0.33567211
0.17456913 1.52369261 0.29487044
-0.78739083 -0.23898065 0.24478422
-0.24781866 1.53922856 0.43161300
-0.79374254 -0.00178063 -0.03925033
-0.07845677 1.48406029 -0.28184816
-0.51254529 1.24739468 -0.62019038
-0.95891446 1.00919116 0.26037470
0.08090173 1.47835088 0.38226867
1.00698721 0.94129980 0.21310417
-0.65238565 -0.21668679 0.14896542
0.35588124 0.06775838 0.49915954
-0.43018368 -0.53521514 -0.22055620
0.21244018 -0.09398222 0.03889057
-0.75211149 0.09300515 -0.29493576
-0.28067124 -0.34314430 0.71531707
0.29251939 0.95439404 0.28192356
-0.86737728 0.10930720 -0.14525054
0.97913474 1.02795362 -0.32404739
0.09598852 -0.04307127 -0.25075841
0.70494401 0.67993015 -0.68534327
-0.05302975 0.84898031 -0.74520564
0.65508515 0.21663144 -0.06856214
-0.97122335 0.15026882 -0.01046164
1.06486058 0.92835963 -0.15311809
0.92542678 0.31897846 0.18453372
0.25224778 1.43189263 0.17034888
-1.02277994 1.10982037 0.18848811
-0.48254919 0.16868550 -0.56119615
-0.45797256 0.34726167 -0.78025621
-0.77436787 0.30386209 0.16748458
0.27174416 0.39646471 -0.80728143
0.98276776 1.17973590 -0.09082744
0.17807342 0.26421851 -0.49153537
0.25146973 1.31193888 0.53130662
0.29574460 -0.01629978 -0.48816234
-0.55046207 0.27494845 -0.40510106
-0.75503010 0.70524168 0.54358584
-1.04068577 0.86300379 -0.04284989
-0.12156114 0.06140494 -0.37842271
0.05708358 0.07290113 0.75704265
-0.10477488 0.24527842 -0.53294820
0.19305100 0.74311793 -0.73448920
-0.91376138 0.70760357 -0.27708548
-1.01259005 0.58427042 -0.00124816
-0.38875404 1.45626044 0.26094297
-0.06601895 0.87094533 -0.78122449
-0.19487058 -0.53292322 0.70106208
0.32585186 -0.33566457 -0.15094741
-0.67538667 0.29801857 0.53127527
-0.14857306 0.63890094 0.78264177
0.58677071 0.20986313 -0.49734050
-0.39725670 1.42484093 0.01308603
-0.01649715 1.28268170 0.64284885
0.50842792 0.12512323 -0.15987171
0.06983171 -0.16667378 -0.17424941
-0.72927594 0.33067295 -0.84316415
1.02008581 0.96023595 0.07568496
0.25619698 1.10965538 -0.77385867
0.95608371 0.47060436 -0.67723686
0.32446420 0.96777445 -0.74274093
0.21589494 1.23321843 -0.52105296
0.50678730 0.54941118 -0.72522449
0.98481017 0.71179628 0.14800057
-0.86883515 0.60579771 -0.77846253
0.47740075 0.19865018 0.37013853
-0.55351627 0.61054248 0.69207531
0.87442303 0.76445812 0.20383856
0.20787127 0.99069321 0.31436515
-0.01921119 0.25452942 -0.63708770
-0.70920992 0.21356568 -0.74260592
-0.20933375 0.06257746 -0.26858872
-1.04385102 0.44958347 -0.51487136
-0.10300311 0.19838539 -0.64609140
-0.74107754 -0.27511245 0.33121088
-0.57845134 1.06502700 0.74169022
-0.38282850 1.23427939 -0.37283790
-0.23221000 1.34158444 -0.24940377
0.50189227 -0.04785085 -0.29053283
-0.85602123 -0.37850618 -0.13083163
0.93603903 0.61270571 0.19293691
0.21816015 -0.49949497 -0.11131103
-0.49576482 1.45586181 0.29576164
-0.77041519 0.90199172 -0.71401232
0.17788835 1.51929045 0.50381291
-0.80170703 0.41498441 0.58476400
0.53599554 0.15236929 -0.31070358
-0.07643740 -0.28907645 0.70670676
-0.67072046 0.79709363 0.68360150
-0.25797230 0.04568678 -0.56566012
0.34498161 0.79977953 -0.79717374
0.96127743 1.24184394 0.17710510
0.76301706 1.21212006 -0.14738268
-0.54135180 0.28330553 -0.68066782
0.04988420 -0.39539784 -0.25319663
0.31707770 0.24427995 0.59606671
-0.79613596 0.79788083 0.14676124
-0.20622532 -0.50143981 0.80321747
-0.29536545 0.01167363 0.75221932
-0.49748138 -0.51817453 0.73092586
0.98582554 1.21260619 -0.63413686
0.43728688 -0.00949705 0.32973692
0.50624770 -0.00628632 0.45689878
0.19297256 0.05173355 0.55430537
0.20648767 0.21345586 -0.55238682
0.22515270 -0.00644755 -0.41269389
-0.54333699 0.16767547 -0.32739952
-0.41782752 -0.43507695 -0.25019383
-0.36144757 0.59141964 0.73056185
0.61655748 0.24763328 -0.19530620
-0.08785325 1.15250492 0.73744035
0.02834881 0.93931448 0.77877396
0.97674185 0.91453135 -0.64147961
-0.58825606 1.09782839 0.73718697
-0.01217471 -0.51021552 0.31292439
0.07415859 0.05904838 -0.51349300
0.48094350 1.27279103 0.04676592
0.63404870 0.19673371 -0.09180002
0.26486358 0.84296417 0.67032468
0.27910846 -0.23533958 0.72047991
0.23704581 -0.11187088 0.71686709
0.03652157 1.57569981 0.07394753
0.25426447 -0.01071751 0.64944917
0.11390652 1.03227043 -0.74530327
-0.72816241 -0.04090077 -0.05388502
0.26086146 -0.05875087 0.13235460
-0.98262542 0.85858560 -0.27151665
-0.93324488 0.26674294 0.04404645
-0.34344354 -0.49456453 -0.13925469
0.27494663 1.13573551 0.67997748
0.82631707 0.53752768 -0.76444584
-0.71114081 0.26062411 -0.12073426
0.30219927 1.37385297 0.55779523
-1.02037787 0.63903403 0.20200628
0.23631878 -0.03718942 -0.34717286
0.06805104 0.28662220 -0.53580695
0.25871009 1.29482532 0.13026756
-0.09281287 -0.02994770 -0.22807796
0.96258229 0.40935913 -0.11536799
-0.74965936 0.37551880 0.47898051
0.24600932 -0.02000570 0.67476058
-1.01270103 0.52303916 0.22779337
-0.96049440 1.23280549 -0.21702237
-0.78001672 0.33016723 0.70490909
-0.19807856 1.55205429 0.28979319
0.99042392 0.94324839 0.21770298
0.80489087 0.31058633 -0.10310052
0.35891780 0.01139838 0.18892868
0.92874366 0.63360828 0.22255413
0.04677308 0.65255535 -0.69819355
0.05998114 0.43003064 -0.80780864
-0.55831939 1.52696061 0.70415753
-0.70040047 1.41003382 0.08841866
0.52404177 0.92843390 0.50645667
-0.26139721 0.38704491 -0.78044623
-0.39980480 1.14601851 0.81330597
-1.00765336 1.10420442 -0.49199966
-0.39511725 -0.00374180 -0.23936379
-0.88932419 0.28187016 -0.23420000
0.35268351 1.09347320 -0.75421602
0.84745991 0.82245898 -0.71618825
-0.98722267 0.45982921 -0.24254999
0.13635705 1.05591774 -0.73063719
-0.74534166 1.15437603 0.65175569
-0.80706358 -0.39210081 0.16504154
-0.42199013 1.39740908 0.82983971
0.25311026 0.53020602 -0.72441489
0.95126420 0.51593536 0.16471878
0.22204463 0.45340046 0.70172167
0.02878070 0.99761420 -0.76389408
-0.90201855 1.18083274 -0.05913950
0.69943506 0.23309812 -0.45544708
1.05247569 1.10668850 0.06005232
0.24319577 1.17386329 -0.73373055
0.18080540 0.27622795 0.53591412
-0.63770241 -0.48042220 0.72528636
-0.75719136 0.31620806 -0.43376294
0.53022003 0.23761526 -0.67155761
-0.25613141 -0.49380302 0.33298039
-0.02710465 0.32997507 0.74898374
0.55200458 0.32304949 -0.44275743
0.93377209 1.20085156 0.04894191
-0.99085760 0.93167216 -0.08890998
0.26543733 0.07100087 0.46272117
-0.60220999 0.76562560 0.71502078
-0.31965154 1.34748375 -0.62591952
-0.18328412 1.50269401 0.54333651
-0.07409964 0.38035142 0.70466202
-0.01314919 -0.47148347 0.33381003
-0.98156524 0.58560002 -0.49812102
0.93325597 1.20285034 -0.14987017
0.29904279 0.49627006 0.60125804
0.51341909 0.03401795 0.37931389
-0.52590305 0.89812553 -0.82466835
0.58324587 0.82388294 0.24415468
0.89431876 0.21942526 0.00140512
-0.40639073 1.47917700 0.33495352
-0.18124378 1.02336371 0.72225392
-0.78538734 0.71353263 0.51080400
1.00823200 0.46372154 0.12143733
-0.98683363 0.87276256 -0.23180170
-1.02964020 0.32317433 -0.07990830
0.04354258 0.65637505 -0.76967704
0.43481883 0.13991058 -0.45295149
-0.28432870 -0.11138260 0.75048101
-0.10406562 0.55839634 0.67055887
0.23534316 -0.44638377 0.50684267
1.01756263 0.52106768 -0.61032486
0.19685587 -0.07975841 -0.15948787
0.51543534 0.40647268 -0.76361221
0.19834198 1.04939544 0.47082540
0.91810626 0.85095078 -0.70563018
-0.57036400 -0.49647349 0.46240243
-0.27687222 0.00163761 0.73696524
-0.54547447 -0.50788927 0.51613522
-0.51139611 -0.50271976 -0.26795268
-1.01096833 0.89897370 -0.67629367
0.13187291 0.75335109 0.81674212
0.63147897 1.15331173 -0.70644623
-0.23651661 1.41254950 0.19482222
-0.69298887 0.22441858 0.31283385
-0.12962608 1.25625587 -0.20808831
0.21672045 1.46269059 0.69024402
0.01831051 1.57020617 -0.00923079
-0.03453895 1.48870897 0.32903579
1.03168285 0.81430948 -0.34497377
0.53494298 0.30771762 0.10707507
-0.50567734 0.65918297 -0.76806802
0.52426064 0.27558219 -0.59446418
-0.56167942 -0.10692400 -0.21270120
0.12887955 1.48790312 0.51678944
0.29930705 0.19930020 -0.54501504
0.69038415 1.22859466 -0.40203148
-0.99108362 1.03579998 0.13525590
0.51778233 0.66635150 -0.77703220
0.60601866 1.26563740 0.18186554
0.49891856 0.56068641 -0.74065202
0.42552757 0.19512907 -0.16488628
0.77362436 0.83090258 -0.79505229
-1.01898980 0.87166905 0.03138464
-0.52166671 -0.50206697 0.58126467
-0.93741560 0.24294022 -0.10818581
-0.58158296 -0.47529835 0.33932859
0.24644031 1.12592006 -0.77122635
-1.01683676 0.37665164 -0.64390260
0.33495191 1.43582714 -0.09975448
-0.30712080 0.92698395 0.69810587
-0.71375221 1.44096625 -0.03210369
-0.22444548 0.72577429 0.73482388
0.92408276 1.23409772 -0.53069723
0.01716043 -0.20006990 0.71130198
0.86566275 0.98524755 -0.73469877
-0.28653127 1.04711056 0.72305644
-0.53361696 0.20082673 -0.34491992
-0.57720762 -0.26123846 0.76597667
1.04055297 0.79233038 -0.71211052
-0.51829594 0.28555056 -0.69567269
0.51944852 0.65745884 0.40123692
-0.99707073 1.16995096 -0.33927414
0.11221141 1.37290573 -0.25818264
0.41902974 0.27763382 -0.75762856
-1.06278062 0.47996110 -0.05067829
0.42709279 1.33395028 0.06079540
-0.89350039 1.26154709 -0.58836877
-0.96391600 0.57188016 -0.60695642
0.26867411 0.73543292 0.53423065
-1.03939414 0.40166953 -0.15582685
-0.71272457 -0.21668667 -0.08655402
-0.46625555 1.34458923 0.73237664
0.78144294 1.19092071 0.22076838
-0.75499159 1.34332645 0.01655106
0.55536938 0.18816695 -0.64693755
-0.07912211 1.29378533 0.77798015
0.51189721 0.45755395 0.26920030
-0.85560083 1.40727377 0.16693729
0.63294834 0.75096512 0.20588884
-1.00469220 1.11622918 -0.27498376
-0.69359547 1.27837777 0.61996394
0.49634868 0.95512581 0.27693024
-0.95258200 1.17465699 0.07854839
0.64557004 1.21135902 -0.67543763
0.77819496 0.22583073 -0.56863219
-0.81498891 0.89263272 -0.79022437
0.34406090 -0.22160637 -0.30584413
-0.65034544 0.42268670 0.80871081
0.72640455 1.22930360 -0.40987775
-0.10156288 0.84739166 0.71647716
-0.53165776 -0.00731635 0.74463367
0.06456362 -0.34321111 0.66794348
-0.61460507 0.30599055 -0.83987600
-0.65870017 0.79896176 0.68445867
0.53837776 0.93590909 -0.76607037
0.19205900 1.38582742 0.80834228
-0.53701741 -0.03254247 -0.36034882
-0.95559734 0.96598595 -0.77310097
0.93513018 0.38797370 0.23070858
-1.02825367 0.28099906 -0.48999059
-0.96364850 0.99079037 -0.30108437
0.66516113 0.84746009 0.25816265
0.09343973 0.64202434 -0.71892118
-0.60349160 0.90448034 0.63954598
-0.74767381 0.93973416 -0.66589397
0.75944191 1.30661392 0.03271640
0.07641467 -0.02715588 0.67442000
-0.06588230 -0.36345369 0.75057536
-0.35915726 1.06933498 0.71136242
-0.68668509 -0.43540639 -0.20523107
-0.49416611 1.24340415 -0.27039126
0.79790777 0.28724852 0.12118047
0.52434558 0.94951713 0.34486696
-0.53128010 0.68951684 0.75660104
0.01003111 0.60350156 -0.76332682
-0.22348867 1.22324836 -0.64666915
0.57332152 0.41531765 0.17422922
0.98713148 0.45496726 -0.25568014
-0.23256011 1.15552855 -0.60856789
0.42090964 0.03706849 -0.40139556
-0.56669825 1.27264333 -0.62088227
0.33838201 1.28128743 -0.32701153
0.30450377 0.09709874 0.38202927
0.54317671 -0.03289467 0.00107868
-0.55570811 -0.41065651 0.39661276
-0.42946970 0.92378891 0.73253512
0.99967265 0.68163526 -0.35121992
0.47178441 0.17435652 -0.37201577
0.27094063 1.04060638 0.56764150
-0.70067316 0.25553700 -0.48528928
-0.80694830 0.26014018 0.56807429
-0.17940567 -0.00173157 0.75819898
0.19201000 1.10179758 -0.82317144
-0.63852847 0.33196422 -0.80818135
-0.75221854 -0.46484655 0.48878574
-0.53570479 0.18154493 0.71828443
-0.84617174 0.26018065 0.09807988
0.27980316 1.26525116 0.55954415
0.95495903 1.29309845 0.14108413
-1.08230495 0.24410197 -0.40118271
0.77814746 0.24973741 -0.21607393
0.23764893 -0.02706814 -0.10054731
-0.98980957 0.36662680 0.02480541
-0.77823931 -0.41052818 0.02844119
-0.12800243 -0.32390499 -0.31457344
-1.03122997 1.09972405 -0.24809989
0.20376065 1.22999382 0.21843293
0.44184965 1.23506689 -0.39883405
0.19151279 -0.06417489 0.73742831
-0.74353927 0.25825775 0.07279693
-0.96682090 0.71221095 -0.48743132
0.57504725 1.25886500 -0.01387293
0.66826183 1.22198296 -0.25406790
0.03415548 1.40270996 0.79832149
-0.56798851 -0.05911177 -0.29041481
-0.70713860 -0.16856998 0.38732409
0.32833496 0.91919512 0.52039218
-1.01603854 1.05308270 0.11020480
0.22630745 1.02405095 0.50350881
-0.77813125 -0.39900482 0.27015296
0.55393046 1.28804994 0.00319129
0.12032216 -0.23113781 -0.27545255
-0.37107939 -0.42111069 0.69557828
0.86603040 0.73866558 0.24342826
0.28408009 0.02428344 -0.41989630
-0.09723356 -0.03804016 -0.22482958
0.20603240 -0.12255025 0.36367652
-0.22102034 -0.40835106 -0.07813445
0.22072420 1.00829911 0.60325557
-0.34905529 1.51382673 -0.19245133
-0.62905288 1.17433834 -0.55830979
0.26163700 1.21370268 -0.01044564
0.82636011 0.63297451 0.26359460
0.69203740 0.24103794 0.20214495
-0.72865754 0.62012118 0.75030208
1.02507854 0.26470718 -0.74932510
0.03253170 -0.49907643 0.40579775
-0.96862435 0.86259967 -0.59163493
-0.37386385 -0.13100451 -0.28242907
-0.00871620 1.21511650 -0.61042351
-0.65543991 1.03240061 -0.75777406
-0.05143577 1.52195108 0.60417724
-0.26317400 1.28671432 -0.56426269
-0.32851520 -0.59807956 -0.11247276
1.07958293 1.19315386 0.05520351
-0.85946620 1.07576406 0.59710497
1.03604329 0.45694649 0.05784490
