5.67504549 75.99141693 -3.48842216
-7.79457045 76.25047302 -8.33506393
-4.16487455 76.40169525 6.96757507
2.25295329 80.49127197 -5.37798166
-7.80345583 74.06987000 4.80789518
-0.14261967 78.06943512 -4.87343121
-2.14909101 78.58121490 -6.52051115
1.21850979 74.60422516 6.88940287
-5.06092072 79.41835785 -2.46590877
0.99975425 64.66425323 0.44871995
3.27090907 75.77645111 -5.60902548
-6.63709784 80.41745758 -3.33995676
-3.73186421 65.03276062 1.46349823
1.01681244 76.48688507 7.13217449
8.07505798 74.27385712 -6.88456106
1.87659347 80.06109619 2.80898476
-0.61889839 65.42375183 4.07427835
2.11268115 79.78114319 7.74898624
6.75963688 71.87805176 2.42095923
3.32730460 74.29981232 5.59062815
7.14143372 75.48502350 3.50602031
-5.87855434 75.57147217 -7.32088280
7.88103342 80.64804077 1.92760575
8.04792213 73.69872284 2.46042442
-5.67474031 69.30715179 2.64997053
5.13478088 79.76795197 -1.95518970
8.82259178 79.44716644 -6.69239807
-7.94457579 80.64959717 -4.38876343
-3.00705218 74.33372498 -5.97163248
7.42831135 80.03529358 -9.74076080
2.88179517 80.19100189 1.74359119
2.03923750 76.79578400 6.40834856
-2.76068354 74.14004517 -7.38310051
-5.76219606 77.98167419 4.04392338
9.11074352 79.67369080 0.61044741
-7.19561243 72.76327515 1.82646620
7.84476471 81.56163025 6.96257734
2.38834834 75.68725586 5.74535418
4.76684332 65.22388458 1.87420273
-4.92360210 77.55654144 3.25481105
0.95038122 80.92327881 -2.26198196
-9.29621792 80.52466583 6.44101334
-4.83471775 76.03793335 -6.78839874
2.06311798 78.25363922 -7.95038319
-4.18536901 77.98249817 1.82815087
-2.24261451 80.89192200 -5.36229420
-2.89288163 75.28347015 5.72960711
-6.63336611 80.83864594 5.92360306
6.23150826 74.00505829 2.97936058
7.46068811 74.05175781 -5.47025728
-5.62089300 69.33491516 1.80283403
1.85977840 66.64679718 -4.58318472
-5.62769890 80.92091370 -0.95753872
5.73119164 70.74975586 -2.04498386
3.38643003 68.34831238 -4.01657963
0.88816148 77.81018829 5.30246210
2.99056840 80.49911499 8.12457466
-5.92412186 71.62796783 2.85502529
9.43083572 80.20804596 -2.02513957
-8.26689911 78.70046997 7.99615622
5.21573973 78.37386322 -4.28204966
-5.26603365 77.06037140 1.85374534
6.33276892 67.51166534 2.45467162
6.68568134 79.46166229 9.18655014
7.45666170 77.92926788 3.55244374
6.42110491 80.49973297 -5.24944687
6.21257448 78.84962463 -5.81157017
-7.31586123 79.53160095 -9.36505508
8.36217499 75.92702484 5.11044884
-5.16271067 79.90694427 -8.22039413
4.53431845 65.93366241 -0.61416626
2.15843081 81.14947510 -3.75115919
5.02864599 79.48561096 -0.21405610
-3.07133436 63.96376419 3.85514355
-8.28989792 75.21908569 7.45752621
-5.81595516 75.30877686 -9.13174438
-5.78202629 76.86325073 -7.88735771
-1.61640799 72.88836670 -6.85317516
-7.27846432 76.27379608 -1.11078680
6.97766495 70.61901855 0.83678031
-9.99178314 80.51763916 6.63120651
7.30141973 80.47852325 2.86360216
4.08852100 81.17527771 -6.30040359
-6.22759867 77.87576294 -2.68475056
2.45609021 71.60755920 5.58964062
-2.09345317 78.43286896 -4.44394064
-1.43806565 63.40406036 -2.29373479
-4.15484667 78.16577911 7.54376698
-6.71928787 77.59655762 -4.28980255
7.77081442 74.50595856 -0.27341834
-5.87251854 73.20132446 4.88258457
9.08643532 74.83811951 -7.80002737
-6.57448006 67.36151123 2.39208484
1.37464213 79.30943298 7.91739368
-2.61285567 74.90922546 5.53065681
2.66407347 67.96521759 -6.56069613
4.07369757 68.72470093 -6.06224775
5.08341169 78.80446625 2.63350010
-6.78572083 80.29032898 -7.39974022
-3.67544770 80.93768311 3.68124819
5.84929037 68.66451263 -3.86343193
-4.78119850 80.30089569 -2.55202961
4.41093540 81.17671204 -1.75571811
9.18837738 75.29096222 6.81263781
-4.32678032 69.95975494 4.51310682
4.07223082 67.61122131 5.11344099
5.28161907 73.93058777 5.54789209
5.88934278 80.75685883 -7.21061754
2.37567282 80.06661224 4.66941881
5.85793304 78.87358093 -8.40184402
6.35301352 72.80694580 -3.37148023
-5.37143564 81.09214783 4.57099724
-2.29411149 77.69569397 -3.88820696
2.47564697 80.68818665 0.09131434
-4.93950653 73.32736969 -5.37795925
3.82187128 78.29208374 -5.45451260
7.23826313 73.99398804 0.48269272
2.57186246 78.21912384 2.62049007
4.45957851 74.42325592 6.93904161
-0.00601856 70.04143524 -6.44518423
-3.29358578 75.77741241 5.35046673
2.59029078 65.92045593 -3.94188619
-4.99081135 69.46427155 4.46087885
6.16436958 68.19512177 0.39284486
-1.63900280 77.94682312 -4.62228298
5.07183218 72.21612549 4.61452293
2.56013632 78.13832855 -6.79449606
-9.20106316 80.67738342 8.19444847
6.27193546 78.60351562 0.57088977
5.25506544 77.95229340 -2.45466828
-4.85755396 80.95827484 6.36278152
-6.95881557 77.76275635 -7.21234417
-7.55106926 74.26732635 7.93964434
3.04919195 78.09716797 -2.94001269
1.39255905 80.00283813 5.07009459
-0.51701951 80.28595734 6.43744230
-0.18049932 65.40435791 4.47664070
8.72169209 77.71681976 5.89717579
4.88219309 68.02982330 -3.46725893
-4.49974728 70.14392853 -4.66682959
-0.99205446 79.73223114 7.90858889
-3.24477386 78.07858276 -7.57705355
-3.54029775 77.47926331 -6.28987741
-7.12148619 78.33466339 7.30908203
-5.19074154 64.64329529 0.82667911
-3.74954200 79.63485718 -8.43793488
6.82988882 78.46996307 2.18552470
-7.48465443 75.74582672 5.25383663
-5.37035131 70.43582153 4.05820131
-2.72671151 74.66700745 -4.80606794
-2.27281904 70.75675964 -5.76427031
-0.02310276 78.29431152 -6.46535063
4.93089724 80.23532104 -1.43303680
6.10454893 69.61881256 -0.24967316
6.18132448 78.41121674 -5.30451298
1.39724815 63.80374146 -3.26691890
3.95333004 75.70442963 -5.13732433
-7.70861006 78.04807281 3.97486448
-8.01426983 80.36686707 4.19593763
-7.12614918 76.89378357 3.72631836
0.27621424 78.51046753 7.50445604
4.33021832 67.31973267 5.34203625
8.38069439 79.88613129 4.60112429
4.67266417 74.20155334 -3.66103745
-3.27265930 63.80453873 1.04336655
-4.56401730 75.24697876 -7.14602709
-2.37736344 77.92590332 7.31095266
2.03167439 81.42682648 5.54514313
-7.78711796 74.75826263 5.34628296
3.40906143 79.10768890 8.24970245
4.32133579 73.84669495 -3.95704484
-8.93899536 74.94499969 -7.23875189
2.66656470 72.04709625 -6.57451868
7.76019812 80.17393494 -1.15982819
5.57337523 73.69432068 7.23876762
-1.60880077 72.55677032 5.05017090
-0.92919105 78.66561127 -7.44696283
2.09388900 80.78454590 -7.19342136
-1.31316686 80.98098755 -1.73649955
0.64837748 64.35427856 2.96187711
0.73527426 77.63618469 5.88615227
5.34879255 80.08968353 8.03491211
-2.60587382 81.36127472 -5.86455488
-7.15353918 76.55436707 -5.71301603
-5.90800953 80.36572266 -1.22377050
4.32154179 65.97488403 -2.11694241
0.86300147 79.98821259 -7.59277773
-8.95047760 80.32687378 -7.50346899
7.20448971 75.34687805 -2.73245668
0.66039711 79.45440674 6.92249155
-8.33988571 76.70785522 -7.84226370
-3.55885386 71.85072327 4.48313951
7.20124388 80.00551605 -1.28368878
4.00427628 75.69226837 -7.16393423
4.30608940 75.36401367 -6.85606050
4.67979717 81.09651947 3.83859873
7.11987686 80.58624268 5.23610735
7.88918495 79.94791412 10.13449097
-5.11362219 71.22039032 -2.90554190
3.44328332 77.95500183 5.62516069
-0.99579358 69.80194092 -6.36296415
6.17231560 75.96937561 9.11399841
-6.27317905 68.44239807 1.32007611
-4.76243544 67.75352478 0.51272452
7.78670740 80.12020874 -4.94766426
2.19791555 63.44588470 0.02896028
-5.73343325 81.40008545 -8.15838051
-4.74284935 77.53263855 8.77166939
-1.49460649 71.90753174 5.73611879
6.17761421 67.06307220 -2.31470370
-0.57783633 70.75131226 -5.40223598
7.03885460 73.53074646 6.72340012
2.06246567 66.67997742 -4.30265093
3.86180735 69.78365326 5.12796879
1.57627952 72.70429993 -6.55856466
-0.54564738 76.68863678 -8.25060654
-2.35642982 66.94461823 4.11482573
-1.67778265 79.74608612 7.66216516
-5.68918800 76.27530670 -3.37555838
4.35666180 77.37832642 2.92497182
5.62711287 75.29551697 8.81006050
-2.48807716 77.14969635 -4.03701496
-4.78515720 68.97959900 4.81093931
8.44551849 75.74327087 -7.12432957
8.62981796 79.65503693 -4.05475187
8.22057152 78.67662811 0.53229827
-1.75977886 78.17462921 -6.70633602
-7.78980064 75.40688324 -8.07318115
-4.06491947 80.72106934 -5.84585047
-6.21705246 77.36894989 1.84852779
-2.97247839 80.66986847 6.84927940
1.96574140 64.56029510 -1.83887649
2.03821516 79.69580841 7.36127758
-10.13980103 81.00625610 -7.24686098
-3.36577773 76.42625427 -5.76680088
2.97502995 80.65303040 3.88312793
0.43324524 68.36965179 -6.95232248
5.22063112 63.68427658 0.00638168
-0.15835682 63.85468292 5.55766487
5.73515081 74.01981354 4.06974459
3.75822258 78.50822449 -3.29653859
-5.62908173 71.94557190 1.47217894
-5.94983673 81.39499664 -9.62426949
1.81097877 77.66642761 3.18390346
6.25858021 80.46437073 5.74728346
9.14970493 75.71941376 6.36725950
0.55315340 65.65989685 -5.27102137
3.07910728 81.15840149 -2.33292985
0.88270789 80.54063416 6.60839748
-2.46189308 80.63162994 -0.78476429
-3.26917934 79.57646179 3.20246315
-7.66535664 80.00495148 -2.97242618
-0.82955104 77.59218597 5.74040985
7.68203688 74.01198578 7.51859236
7.31337881 73.67309570 7.14920712
-3.81394267 80.61922455 6.79465485
-1.38111591 73.05251312 6.21994543
6.52673244 78.35383606 -5.77315283
8.33201408 77.24473572 -7.39626122
-4.09485388 75.00788116 4.65315866
1.24032664 77.26978302 1.93238723
7.60729742 75.56780243 4.89000797
6.22200298 79.99014282 6.82636595
3.43857574 77.75268555 7.00553370
-7.69959211 74.76818848 3.93756390
0.91533470 77.96453857 -4.06960011
0.48026618 70.81140137 5.86146498
-5.53271532 73.97723389 5.28746080
-2.54675889 64.47344208 -1.99152172
-5.39247417 78.08268738 -3.82935095
-0.15664637 78.10243988 -2.78160119
6.51931429 73.99984741 7.79944754
-3.01751614 67.34155273 5.29980278
-4.12790298 77.55766296 -2.28882933
-6.01136208 77.95495605 -5.62446070
4.06569481 80.77170563 -5.85636473
4.03604507 77.18102264 -6.25282955
1.00300837 80.97846222 -8.19141769
3.76247811 75.21462250 -4.65367699
-4.35639572 77.87281036 7.82546186
-0.90044481 80.51062012 5.28745127
-4.64173222 80.83157349 4.23493385
0.50420475 80.69451904 3.55988860
-6.15604830 78.69537354 -6.67973280
-2.54514098 80.50032043 7.45584774
7.69237852 78.35530853 8.65978813
0.37994999 81.16829681 6.51986170
-8.66594601 79.88786316 2.28142715
6.79966021 71.87821960 -2.07689953
1.75946307 73.06374359 4.87475252
3.13382006 71.97059631 -6.03958607
7.35187721 80.25397491 -6.14256907
-5.58842373 74.16368866 4.26487923
-4.78682709 79.63460541 6.17750692
-6.80008650 78.74317169 -8.00254917
5.50351286 77.50933838 5.57872581
0.29112831 68.80876923 -6.03920364
7.75125313 80.38066101 0.22300184
-2.60363793 66.51581573 3.94423962
7.04912043 81.60796356 -8.39927101
-1.22197795 67.64270782 3.71266532
-6.59520912 74.47216034 3.70057511
6.66863775 79.81450653 8.26393509
-3.22982121 78.45636749 -3.29760885
4.76622534 79.78524780 6.85998440
-0.03559251 78.60324097 8.30494118
-3.25478053 78.31333160 2.39433050
-4.64491463 77.87766266 -6.44661522
0.69023883 79.11806488 -7.51202774
6.88546896 75.91606140 8.11534309
5.70421886 74.55771637 -4.28909874
3.49842787 63.95809174 2.33203030
-0.82828075 77.70607758 -5.37193346
-7.64407063 78.88605499 3.97313547
5.07621050 79.78685760 7.72864771
6.63896275 74.45292664 -4.01178026
-4.18152666 67.34143066 5.49026203
6.10682440 72.53625488 2.46779442
6.76455784 76.21515656 -1.56612527
-3.08207631 77.81113434 -1.43253016
-5.40532923 77.44801331 4.69205666
6.90742016 80.43395233 3.54136133
7.07151031 76.45944977 -8.22427177
6.32419157 75.24315643 -1.60211837
9.24482155 79.12928772 5.27305746
3.71506929 64.91165924 -0.98400998
-4.78515768 80.07026672 2.08775091
-6.03047276 80.42364502 7.30864096
-1.45963323 80.92179871 0.31590155
-8.46270466 78.21131134 -5.29816437
-6.05997372 80.21221924 -0.07701703
5.84392691 78.79920197 -4.09683323
1.67690825 69.18435669 -5.95738792
-7.02932930 74.53925323 0.26124159
0.55117160 70.10001373 5.68805885
6.39057207 77.55849457 5.94683266
2.65108848 80.38739777 -1.70178986
-2.97983336 77.57879639 -2.96910715
6.89380646 74.89850616 2.28271699
-3.71768379 70.81219482 -5.89284706
6.73393202 73.42001343 3.03725386
-4.04433775 77.13102722 -6.54416895
1.22308791 69.82543182 6.23413229
4.56280899 80.21650696 8.69561958
-5.01426697 64.63825226 0.75438708
5.44369984 72.22078705 -4.23159075
7.16850042 69.38800812 -0.25577545
3.62437487 63.74841690 1.90495706
8.70114994 73.87444305 5.36471891
9.17335033 79.72853851 -5.67384958
-1.98242080 75.14681244 -6.76842213
-6.28649378 77.74499512 8.31094933
6.97028112 74.74137878 7.08070564
7.13215113 77.85920715 3.75726056
2.49929857 63.97349548 -2.54446888
1.97599018 79.97332001 -3.26377845
6.97674322 72.06793213 1.88054872
-8.31505013 77.14916992 -1.19765210
-6.01096058 77.49172211 -9.08527756
8.90449905 81.28453064 7.09055996
6.08292055 72.00234222 4.09140348
-8.38661766 80.11460876 6.63292456
-6.49647808 78.51835632 6.80932188
5.67858887 67.66595459 2.18332648
8.85290337 75.00574493 -7.50556087
-6.25618601 76.34320068 -7.99510193
0.45951155 80.46005249 -6.98056984
-8.19722939 79.54329681 -0.80088937
5.17265272 70.72456360 -4.14010906
-0.19735202 80.03172302 1.85706329
-2.11545229 80.33844757 3.01198840
8.49318504 78.01956177 8.93650436
1.35554850 81.43531036 0.67615086
2.15746021 64.17626190 -4.48573494
2.94847655 73.31410980 6.67404222
3.37916780 77.38863373 -7.54389668
5.40163183 73.38928986 5.66787100
-8.38194275 81.18328857 7.67580938
5.43693924 76.41137695 -0.94565231
1.41485143 71.85391235 -6.26167297
0.91748506 78.28280640 2.92503357
6.82954264 78.13412476 -3.04377127
8.73453617 75.54240417 6.65622139
-7.71150064 78.29154205 8.66811943
-1.49552560 74.73690796 6.37849331
-2.64699936 77.44168091 5.11996603
4.70001316 77.96531677 -6.30437183
6.97390223 73.98664093 -0.15702519
-0.63833755 80.45917511 5.41842365
7.76424885 75.23110199 6.27251101
8.07269192 79.60119629 -7.61408091
-3.11383796 78.34998322 6.67888355
5.94574976 77.61825562 8.33666420
-8.78933144 80.88803101 5.94029522
-1.04675388 64.94512177 -0.96273708
3.98917389 76.79631805 -7.16021109
5.93112040 78.11778259 -6.09072018
-4.30621147 77.26808167 5.85926437
5.50046110 80.34232330 7.53918314
-8.63428020 80.77392578 -4.60870934
1.82577455 77.19732666 -0.51074100
6.43812752 77.51612854 6.56365585
6.34336042 80.89167786 4.26836538
-5.77932215 80.33081055 -9.03471947
5.34266520 74.94052887 6.39593744
0.89079100 71.96943665 7.30149031
-4.19837952 65.32537842 1.65938151
-4.97641993 80.85744476 -2.19473577
-8.59552670 73.61948395 -6.49787664
-1.25831580 77.14667511 6.07710648
-1.35752654 67.16533661 -6.48707342
7.37745094 80.96497345 2.12576818
-7.36380148 78.33432770 7.06551361
4.89788675 80.63259125 5.95706034
-6.06240988 74.94108582 7.17010164
-0.44677800 64.37158203 -0.11650758
-5.69912338 73.17024994 6.95186329
4.89392519 71.22901917 -4.06461906
-3.06687808 77.16093445 -6.31771851
-0.03324975 80.62656403 8.86755753
-4.95248127 74.10404968 5.70933056
8.48260498 79.49900818 -6.54569006
3.16945577 70.16491699 6.03049088
-6.60101986 77.22323608 0.79188418
-6.51080179 71.07223511 -0.65864378
-0.64998060 80.83407593 6.70157385
-5.91901588 74.93300629 -7.75110102
-7.20057249 77.68238831 4.35163498
4.44560909 73.12580109 -4.85064411
1.90526652 81.20654297 -2.79087734
0.34281811 63.48854446 4.23016071
5.09374619 76.85739899 -2.33501840
-0.27567914 67.34054565 -5.23568773
-6.47223997 74.49580383 0.34293789
6.32061100 80.20735931 5.19019508
4.17395544 72.26084900 -4.27066422
-2.17160940 72.16950226 6.77455854
-3.68646169 77.38177490 -0.51474094
-1.20633626 81.01329803 4.69893026
4.08017015 69.48958588 -4.27269983
5.09289789 74.69984436 -6.47899246
0.83950287 72.54459381 -5.84843969
4.28675318 80.65911865 0.02378887
6.97272730 72.47364807 -3.80721831
-4.47749281 64.24588013 -3.23100376
-5.18143320 73.96846771 -7.22995090
1.72300470 78.11833191 -1.26136541
7.03921318 75.12147522 -3.38735247
5.97434711 78.27551270 3.62565231
7.62307072 73.48078918 -6.47459173
-5.63125420 71.65231323 2.79215932
9.81071472 80.23435211 -5.51847363
5.65804577 72.33486938 -5.49679470
2.75714135 78.04833984 -6.90276623
-4.76314640 68.04434204 0.53768247
1.62680912 72.08974457 -5.73337841
4.43784094 78.01937866 -3.20203757
-5.96792984 80.66122437 6.93427658
-4.40507078 79.49987793 8.54642868
-5.84611368 80.68953705 8.00460052
-2.83399200 81.16284943 7.45589161
2.85380268 76.45112610 5.70897293
2.84434223 81.10272217 2.20922971
-5.96081400 77.82289886 1.56095517
-2.28897381 70.75653839 6.60541534
6.26617098 71.54811096 -3.20816207
0.32714280 79.17253876 -8.70605850
0.35338700 80.66964722 -3.54861283
8.74479008 78.85778046 7.76185417
-6.92275381 72.74555206 -0.70937800
-6.76667786 73.34941101 3.17875242
2.63196301 78.03614044 7.68296003
0.94957179 68.86795044 7.15060616
4.81979179 70.21593475 -5.77507591
1.64055276 65.46922302 -4.70876932
-2.06911230 70.21305084 6.02946520
5.65830374 70.19260406 -3.76106572
-0.77679020 81.39035034 1.46277881
-5.18956089 77.65034485 5.67792177
8.89608383 79.93331146 6.62315226
7.99182081 74.75207520 5.59818125
5.38110590 74.96726227 -3.34327173
-4.26075935 64.78714752 2.60408616
-0.59741461 64.72170258 0.65227956
3.10105848 75.78890228 5.33687782
4.01287794 80.19623566 -7.30341053
-6.91967821 76.19867706 -2.94634151
-1.93791831 77.25337219 1.46442914
4.34370089 78.04775238 -4.45741510
-1.91832399 68.26877594 -6.39818335
5.88204718 71.96637726 -2.37467098
5.68721437 70.81966400 -1.85506046
4.20910645 75.10515594 7.02229404
-8.57406425 81.11823273 -6.18382931
-4.36435223 77.77616119 -0.34107655
-3.12807417 80.62969208 -4.78843594
-6.32542562 70.12850952 1.05989492
6.73173666 78.54405975 -7.29056740
-3.82883620 70.37234497 -6.89855003
1.00589871 77.28449249 2.57036424
-3.59566045 64.28462982 2.94102144
6.03920317 72.66997528 -3.00598860
-7.93878317 75.22114563 8.65424728
2.85340405 67.30771637 -5.09588480
2.95223784 70.95345306 -7.01970673
3.52620006 77.42269897 -7.58379841
4.85258007 72.04846954 -4.26468229
-5.14544868 80.28379822 0.58725125
3.03621125 80.28470612 5.73490763
5.80798340 69.78680420 -1.52496624
-1.45326698 71.70932770 -5.62591505
5.34628391 74.22296143 6.04471588
7.41449881 74.24022675 -3.01442266
9.48374176 75.55387115 -7.46807337
4.91803312 74.72711182 2.57359266
-6.03894234 73.47568512 -6.47996044
4.72810793 74.31501007 -5.25188351
2.61450672 73.13501740 6.51424456
0.54029042 77.38648224 7.63415289
7.65773773 77.48631287 4.81502390
3.08377099 78.53803253 3.66436362
4.12536097 73.15027618 -4.47536421
8.90484142 80.52893066 -4.12103748
6.01603317 77.07474518 -2.92448997
-7.26691151 71.62353516 0.67712367
-1.40082502 80.82276154 -4.27097797
-5.52093315 79.97349548 9.73831367
-2.33396101 80.80596924 6.09558487
3.64711332 73.45027161 7.40401220
0.92185014 73.14439392 -6.44557571
6.41964769 80.79165649 -9.36762238
-4.35253286 74.95269012 5.21092606
-3.26341987 74.60072327 -6.27282619
3.31598663 80.26194000 -5.83622313
-3.35147357 78.13341522 5.68512678
-0.72903883 70.95860291 4.81202078
-1.75764406 80.63559723 -7.42497253
2.14671683 77.18336487 6.99913502
0.12815942 64.26793671 4.51187611
-2.56047297 77.54016876 -4.87025070
0.01140046 78.98325348 8.24787331
6.67431736 73.98100281 -7.07807016
9.08247185 80.44982910 -8.07206917
9.60268593 80.80589294 5.59456158
8.08914852 80.44369507 -6.88418245
5.66079521 77.82685089 -8.11383629
-0.24765509 80.60240173 5.44216967
5.09718561 80.48621368 2.76567173
3.56256437 70.13559723 -5.78821421
-5.63596010 70.81176758 -1.54323781
5.11198521 68.26593781 3.82862115
5.40636635 80.37332916 -7.22734308
-5.27305269 68.22002411 4.58445168
2.24410987 75.27256012 -5.26922607
0.06100796 63.56287766 -1.55843818
7.93797493 77.65870667 5.28681183
4.40622950 64.50368500 -1.65000379
5.38098955 72.45941925 4.35991144
2.95616937 80.00621033 7.97117043
-8.76266956 80.32589722 2.70074630
1.85666692 77.03626251 5.32581949
-1.76294148 80.04737854 -7.67569351
4.16490746 77.59346771 -3.95836067
2.18974257 77.76493073 5.39221048
5.52999115 80.30039978 6.07207346
-6.39280653 73.86455536 3.15600348
-5.44850016 73.95297241 6.79382992
0.67979014 78.53132629 -1.90325224
-0.06218228 69.07650757 6.15736914
1.84379208 77.80490875 -4.71098995
-0.62979621 77.51332092 -2.47388601
-0.40152755 67.42908478 4.68359566
6.00871706 78.46884155 4.02012682
-1.88975406 77.06466675 7.67407322
-6.63290548 78.06876373 -8.87832832
-4.70000696 78.57419586 7.06679869
0.23126353 74.99460602 6.90775156
-6.44863892 67.38279724 -1.72493923
8.69805336 74.84780884 -6.91432190
-7.17017698 80.32666779 -8.67685890
7.06036282 75.41649628 1.07962871
8.17143154 77.99683380 -7.83637190
-6.27360058 80.20226288 -10.85875130
-1.58828211 65.83496094 4.01198959
5.08305311 75.22974396 4.27393723
-5.20422363 75.43008423 2.01063275
-3.91208601 76.63301086 -6.75193405
2.85016155 66.71113586 -4.03672600
-6.09928846 77.30419159 -3.23586559
8.10768604 73.66319275 7.03972101
-3.94155598 79.77030945 8.21105194
-2.39511895 75.94499969 -6.10407972
-8.32998562 79.29258728 7.85809326
-4.17202234 64.33250427 3.15560889
-1.62475538 65.24221039 4.32965994
-8.53458977 80.38276672 8.46948814
-6.74205494 73.54300690 8.05772018
-7.52130890 74.54776001 -4.54238129
3.70469356 77.46170044 5.15964317
-0.75522923 79.44136047 7.34214067
6.71922827 75.78800201 -2.20100904
-0.65814507 67.19906616 5.79649925
-4.25688124 69.30418396 4.98344374
-9.44695091 76.67642212 -6.96568060
8.28612232 79.23293304 -7.30176401
-4.03343296 65.94846344 3.34383488
0.69894892 63.92393875 -4.99388456
-1.21268308 63.97892761 4.50047159
-1.62409353 72.80314636 5.99956703
-4.10386276 74.27552032 5.09489727
6.64065313 72.98052216 6.98515892
6.02348852 69.51118469 -3.87816262
1.10576725 72.64241028 -4.65972185
7.04476833 79.25215912 8.94337845
-4.38964748 77.09178925 -4.58693838
-2.61226773 70.69953918 5.26808405
-3.66614819 77.25415039 5.64216328
7.29049063 80.11211395 10.00761986
-3.18955493 70.23491669 5.78008938
6.44926167 74.98393250 1.52681279
-7.04843903 77.32048798 -1.70527649
6.29431677 67.10626221 -0.62482172
-1.96287823 68.15766907 4.96173143
-2.64346242 67.95166779 4.73085165
-6.20380783 67.02797699 2.33543038
-1.36115563 79.95095825 8.27551651
-1.64714277 72.77525330 -7.01034212
-5.64135504 68.78291321 3.40267205
-8.93418694 79.79924774 -0.08974107
-0.48619273 74.12085724 -6.80703259
-6.38981056 76.48266602 3.12316298
-1.99840927 70.16184998 6.41098213
-5.24351501 81.50859070 -8.80596542
6.36487055 80.72436523 4.37635279
5.51235533 70.95671844 3.16122341
2.25243688 69.75501251 -5.76178503
5.88182831 69.36695099 -2.81225801
-8.47635078 81.80622864 4.93415499
-5.28621531 74.15592194 7.23381615
1.03203738 68.55756378 7.23385954
4.03152370 66.97216797 -2.53210711
6.38152838 75.55081177 2.56259370
-4.80020094 63.86194611 -1.21659982
-4.95041180 77.64506531 -7.73195028
1.23949909 76.95045471 6.94838715
-1.75458312 74.73552704 5.40614462
-8.02676105 77.13740540 6.79454994
5.20862532 77.03379822 -7.54066181
-6.63914633 71.44284058 1.90402842
4.65413141 74.45653534 6.32833529
-7.03883934 75.92075348 -6.10701466
-3.32863903 77.60282898 -7.10807133
7.48551273 80.16513062 -5.12289953
-8.18002224 76.26161194 -7.27947330
-8.15520191 80.98820496 8.91095543
-6.39781046 74.56809998 3.01526237
-6.57135677 74.43476105 8.82859039
-1.79804289 64.02518463 2.32409382
-7.73909855 74.29387665 7.44413137
-1.70017231 66.22338104 4.14657831
-4.58850384 73.68794250 5.87476873
5.41251469 76.14071655 2.87117672
5.14496183 76.62422180 4.39824963
-1.92579269 70.11138916 5.96964216
-3.40780592 75.43157959 7.71142769
5.60425854 74.85009003 -1.83995032
7.45217705 76.52573395 4.60418463
3.27654171 73.33542633 6.28131962
3.30079556 75.50033569 6.68750572
3.26478267 73.42037964 -5.97147989
-6.07162714 76.65846252 -3.89780402
-1.31286883 80.30760956 -1.99488330
0.71069312 73.69696045 5.38785791
3.56545830 74.16893768 6.59573030
-5.15929079 74.81140900 -7.26722622
5.36243439 64.41310120 -1.31103933
9.16982460 80.82830048 7.23194742
-7.44020510 78.83307648 -0.15802167
-9.36226845 80.22438812 -6.21333122
0.53864789 80.74119568 -8.22745132
-2.41891026 80.09279633 -3.68090796
8.90181351 80.93682098 -2.89885139
4.26689339 75.27564240 -5.68733358
-5.83956242 76.28344727 -7.30117702
3.04875660 76.50897217 -6.51646090
-5.45700216 78.25274658 -4.35803652
-7.01302147 78.76047516 7.78301716
1.95388401 69.54435730 -5.79841232
-1.84603703 64.40525818 2.88784432
5.33035851 75.73693848 7.47778082
-8.16176605 79.86788940 -1.43993306
-4.99717474 72.79474640 1.68890429
6.78621578 80.80492401 -0.09254661
8.53753376 78.91055298 -2.82510877
7.40832281 76.82567596 5.36055374
1.71359062 72.15395355 4.67851210
-6.67474222 66.75675964 0.63730747
4.28798532 80.48661804 -3.98623013
7.35433674 74.34208679 -5.77342463
5.39084673 74.03334045 4.93226099
-7.66154289 75.91117859 -2.60198236
5.73251009 76.15901184 -1.97206843
7.04181004 76.04544067 -7.55960226
4.49320459 63.69320297 0.66118944
-1.55273187 74.46509552 5.98706865
6.43396282 70.25986481 1.33189082
5.68229580 80.58287048 5.20468140
-2.72505879 81.55826569 1.53206384
8.83404732 78.63851166 7.19157600
2.54516983 76.74405670 -5.20006609
-0.28105766 63.38610840 -2.07868385
1.98924911 77.97151947 -3.14335275
-4.16847754 70.94092560 3.99242353
1.52873933 77.06712341 7.29856730
0.97537404 71.45920563 -5.17596912
4.12925053 77.22179413 2.23490405
-6.11211109 75.26323700 3.89352584
-3.82881165 64.09540558 1.97179043
7.94046831 80.84387207 -8.54914665
3.95131755 67.03585815 -1.18235362
1.30830443 80.29121399 -4.16800404
7.52221823 80.82762146 -9.81395531
-5.68266439 77.40967560 1.42623949
8.65572262 79.55542755 5.93160105
-7.23307705 74.67691040 -2.24180889
3.82030630 68.98356628 -5.91980839
6.71331167 69.82459259 -2.69935012
5.08955193 72.18467712 2.40326643
-5.19589806 76.63081360 8.56863785
7.02215767 75.39151001 4.41757536
6.46795130 79.97821045 0.73852843
6.99558163 73.52148438 -6.41761494
-0.43285114 73.19254303 5.44240665
1.56334054 80.66845703 1.01900625
3.67474818 80.77134705 4.22393036
5.39847517 71.31972504 -2.29519200
1.65010989 69.71787262 -6.68068600
5.90055513 67.70243073 -1.49354243
-7.39058065 78.13883209 0.64644444
-10.86270714 80.04064941 -7.00975513
-2.32433891 63.50550461 -4.10801554
-4.98308706 78.58073425 7.36287355
-0.79573321 64.18525696 1.51531851
6.83340883 80.94552612 -8.21243286
8.54236603 74.03762817 -6.13446426
3.45828795 64.05327606 -1.05563879
5.85171175 74.52637482 -2.04519725
3.57087684 73.02593231 -6.67118549
6.24387980 69.20646667 -3.29207563
-6.56410456 72.75253296 -2.40841675
3.39884782 74.82820892 -5.00860167
4.41228533 74.14143372 5.15131330
3.11585522 76.32859802 5.57759953
-6.66038370 67.36199951 -3.62348318
3.36647296 73.71891022 -6.06214285
-2.52223110 79.98857117 1.86160457
6.32463074 77.68162537 -0.64653164
4.50968122 70.16842651 4.56008244
5.46097946 73.54747772 8.46491814
4.86778784 77.87273407 -4.51832867
-6.64355087 75.18692017 8.21805382
2.03184319 63.18199539 -0.47278208
4.93348360 75.60997009 -4.82685518
5.85562801 71.29260254 -3.43418241
-3.61221313 75.97564697 -7.72557735
-5.77626419 80.86133575 -2.71588922
-8.65963554 80.76802826 -6.64872932
7.51024342 75.43343353 1.86222410
-2.30124187 64.49872589 0.63536388
1.05705082 80.64495850 5.32978868
-0.70887649 80.57948303 -0.02304324
4.50201607 74.86260223 -4.74940014
-0.59895527 80.96345520 -2.32746339
2.58198905 80.11333466 0.06109801
1.33842921 80.87786865 2.90502834
-4.76917410 74.46595001 -6.22344923
-6.66598558 80.45920563 2.88272166
2.92945027 66.34523010 -4.27809525
0.25123638 78.34936523 7.31625509
5.34602976 67.63742828 -0.66440225
4.96102142 72.42105103 -4.83180952
-6.19942427 80.92214966 1.57616067
2.17795634 79.03670502 7.71903849
7.03548002 80.55095673 -3.13407612
-3.78031635 67.16771698 -6.14536524
-3.47073269 80.66831970 -3.67321205
6.03535604 67.95265198 -0.21358922
0.95220190 77.69089508 1.13567293
-5.31829166 78.07581329 0.11286086
5.27008915 80.60081482 -1.51303935
1.65011835 65.85343933 -5.04859447
0.37549001 71.69778442 5.94330120
-0.13087967 74.32466888 7.57811832
-5.89868450 78.27792358 -0.58767951
6.69089174 76.28073120 5.58343172
5.79219294 76.67062378 -3.96695638
5.72958660 78.41771698 -0.97806293
-6.82385588 79.91666412 8.17061996
7.91396809 78.38038635 4.47938156
0.26284829 78.52490997 6.92244577
-4.48600388 78.86235046 5.92183590
-9.10536289 80.82621765 5.55036449
6.75236702 78.08258057 2.98963737
1.67007875 64.18859863 2.52924919
5.30057383 73.61027527 5.23964167
-1.94056404 65.50518799 5.14541292
7.87839222 76.98958588 -7.52251291
7.15850496 78.42366791 -6.33084345
3.55322838 72.13169861 -4.92170906
4.56515265 66.87310791 -0.88683629
-7.25715685 74.41115570 -2.05523276
6.85808182 76.99552917 2.62670135
1.62154937 64.58879852 -4.81351042
-7.86993122 77.26019287 -0.66551244
6.08930588 80.82653046 7.64981842
-4.49990606 81.11181641 8.57044601
9.75855160 80.31119537 7.90365696
5.24693918 76.97000122 -3.25837994
-6.96372032 75.72512817 0.97848547
-4.59460783 69.34985352 5.02362204
9.14299202 80.42423248 -8.25138664
-5.30422163 74.19760132 -7.87904453
5.60219574 70.67925262 -3.73826694
-7.23008060 74.41513824 3.58130169
3.28792334 80.94820404 -6.18274975
6.85273790 80.32016754 8.32174873
2.62936234 73.73788452 -6.05000019
8.67016220 80.18139648 4.80976439
4.60356188 79.47941589 8.54146004
5.06820679 68.24497223 -4.27897358
6.41905308 75.15884399 8.31467247
-1.62177324 80.45124817 8.89569092
-2.28375793 77.44758606 -1.08603632
-6.47936249 76.64894867 3.51245427
6.19207764 75.90660095 -0.77464503
3.92014003 80.11994171 3.05090046
4.86731768 67.11226654 -3.73015714
5.62697983 69.34452057 0.51170278
2.30673742 64.28083038 1.28457475
-5.21613598 81.00997925 -7.19732666
2.45871902 73.06130219 5.67537308
6.28241062 78.25479126 5.59849596
7.07243252 80.60586548 -8.01641846
-0.50474352 63.72327805 -1.21668911
3.56282949 80.44072723 -5.99427986
-1.77747905 66.14029694 4.86571741
-3.80428076 77.68007660 0.87256092
3.06604123 76.53322601 -2.83442664
-6.63507795 77.78282928 -3.52224231
4.65622234 78.07516479 6.21758223
-5.50872469 76.69935608 4.81852531
0.09843054 65.03700256 5.00219822
-8.96878338 80.24759674 -3.69518518
6.90890217 78.41235352 5.90353584
4.69080400 78.88246155 -5.63964415
-2.37225318 73.76924133 -6.23493004
-3.64776683 77.85405731 -3.65225768
5.87211132 80.08083344 7.44968414
6.05823851 73.59191132 -2.58256269
1.50592947 65.28306580 -5.36580849
-5.08357573 75.61249542 1.79383719
0.15832843 80.64601898 -4.57430887
-1.44325876 70.10377502 -6.80673790
-0.29155493 64.53967285 5.61640358
-6.78411341 68.34622192 -0.19546232
7.80172920 80.51121521 4.50422716
1.60193563 66.94621277 -6.36772966
-4.37553167 80.24158478 -8.02568626
2.70078683 64.11352539 -4.12692213
10.06301022 79.50375366 6.80242062
4.03432178 73.10987091 4.35013914
0.38251668 80.72839355 8.47653198
-5.58203936 75.17473602 5.11567163
5.70932007 80.85665131 -3.86024308
-4.34065580 71.60816193 -4.72153091
5.87834930 74.58049774 -2.04457402
-3.48072600 75.42156982 5.35309219
2.49001145 76.37611389 5.72669077
1.89808369 67.41774750 -4.01771355
3.73332286 78.58343506 -4.07368469
2.25026679 73.78897095 -5.71672201
5.87810564 74.32661438 2.96890855
-5.66640854 75.01023102 2.66734433
6.36662674 75.82778168 -2.64821887
4.86986685 73.77757263 -4.31248236
-6.45587587 75.87442017 2.60664892
-6.38930225 73.65345764 8.36044693
5.36868429 81.35683441 5.69873953
-5.88679171 70.05449677 3.66566849
4.15981817 77.14444733 -6.77612019
8.08485317 80.94988251 -0.83751380
-2.79410481 80.90309906 -7.58460426
-5.10924196 73.25490570 3.40857339
-4.97801924 75.73199463 3.98433638
-2.26147366 80.84297943 0.44023898
-7.97865772 74.61944580 -5.04243135
-6.00596857 80.06616974 -2.14030981
-7.05549049 79.89524841 -5.99808884
4.22437954 75.72538757 -5.57117605
4.72343969 73.48362732 -4.52222824
4.38995504 62.91198730 2.43144274
-2.70031166 77.11599731 7.22075129
4.51281548 78.01053619 7.68581247
7.69569731 80.82196045 2.97681665
-2.11152196 64.35299683 -2.32031631
3.59430170 63.88313675 -1.84574032
-1.92084301 77.42713928 2.79328299
3.32417750 80.98124695 5.15910625
6.41178894 77.64652252 -2.44533706
-1.96820128 77.51182556 6.23401833
7.26842070 77.50463104 -8.20744896
1.34214604 80.47183228 2.78119898
-4.20333242 67.36765289 6.00366545
5.19779301 80.65270233 -7.87553310
7.71634054 80.96233368 -1.76543391
6.11266756 76.52102661 8.50067520
7.46203232 74.19053650 3.77830768
3.70104122 74.78894806 6.97068691
7.07385683 67.48575592 2.10960603
5.88919210 70.25466919 -0.00830457
1.66783392 73.02471924 5.59233522
4.57642603 65.68511963 -2.61694384
-1.28194225 78.18049622 8.22140121
7.72755146 78.68241882 9.13558197
-4.94302988 75.87974548 7.95663691
-0.93283176 75.46789551 6.43719101
-2.09915566 64.55540466 -3.76282310
-7.72923803 80.74116516 -9.51959991
5.95803833 74.03285980 4.98299408
6.66744757 76.84060669 -1.85712659
-0.98416692 67.47345734 4.38566828
-1.29697883 80.82539368 2.68863320
-5.09032011 74.30027008 4.93432283
3.36953521 77.71041107 4.60930824
7.94611025 79.44174957 -1.06183457
-3.91392684 66.04685974 1.72312903
0.50140893 65.78366089 -5.59018564
-6.19399071 71.57917786 1.31377256
5.30589342 79.64181519 8.52436829
2.50160456 77.56250763 1.20084345
-0.05504273 72.79354095 5.64469194
9.01934433 74.97541046 7.58376932
-2.37051749 72.26436615 5.99704027
-3.50314236 66.35964966 3.42759442
-8.16928577 73.78074646 -3.94613981
9.23201275 79.06489563 -7.28990459
-0.93115997 67.61480713 5.76992750
1.69813108 64.58260345 -1.52488601
7.13122463 70.30230713 -1.00708342
1.84579897 75.61989594 4.94053745
7.52412176 79.11753082 -8.81988144
3.08104014 80.73297119 0.19749649
4.87895298 71.26983643 5.22656775
6.09604168 75.99459076 -8.74157524
4.75244188 68.36709595 -5.31629610
-2.67147946 63.88195801 3.62762761
3.30423427 80.68796539 2.98353815
4.10665798 78.11164093 0.00937007
1.39747226 74.39277649 -5.98280334
5.25179148 67.13984680 -1.37357545
-7.00176239 71.36011505 -1.12174785
-4.16267967 76.20195007 5.29364395
-5.49229050 78.29534912 4.21719694
0.58774632 80.59672546 -2.52389169
-3.43599653 77.46243286 2.25144792
7.58522701 79.36590576 5.08045673
7.99213123 79.32235718 0.89007425
-5.49980068 80.59323883 0.48317295
-2.18954062 65.54808807 4.56423140
0.51553237 80.19316864 5.03200197
-1.06389439 77.57569885 -3.07757854
0.03986326 80.98513794 7.85148239
-6.65777445 71.93154144 1.55646729
3.92813659 80.72366333 1.71129024
-4.29135704 75.01049042 6.74536943
-5.21277952 66.95345306 4.89068937
2.02210712 74.22801208 6.02811098
7.97696686 79.61524963 2.48448586
-5.10681486 77.55119324 6.11662722
8.78937531 79.24421692 5.46037912
8.92856312 75.39263153 6.10055351
5.27442884 77.32094574 7.06763220
7.40449333 78.38722992 2.99246836
1.75051093 77.75324249 -4.00859547
0.66300029 78.09571075 0.37885007
5.22782373 79.78247070 6.64264345
-9.23096085 79.15799713 -7.00316048
-3.57814050 74.21857452 -6.48626614
5.96113253 68.21376038 -0.27498329
2.67400312 78.07166290 -3.36031651
0.31721115 80.39901733 3.97144294
-3.44121933 81.47291565 5.70866823
7.11796618 78.50799561 -3.22045565
7.94790459 79.16159058 2.01278663
6.63747168 73.14166260 -2.42393231
1.29494059 64.94844055 0.89424837
-6.17913342 80.87038422 -2.95088911
5.44944715 69.12293243 -4.07108736
6.21837807 73.74238586 6.93817377
3.61604857 76.99172974 5.67518473
-2.83969140 80.14153290 -6.62987614
-0.57004261 64.45866394 3.39396095
-3.69528151 81.15261841 -8.62432289
-7.84728670 75.39994812 6.89847660
-6.64592123 81.07384491 6.23601007
6.78649139 75.02114105 8.24106979
8.24056721 80.74796295 -6.21450043
-5.24363899 66.62535858 1.23988461
4.29079342 74.73799896 -4.67621422
-7.64020634 76.77982330 -4.27764511
-0.41238767 72.24082947 -6.92030382
1.28299546 80.69519043 -2.30892444
-8.16010952 77.20828247 -6.92378330
-2.96259141 63.31926346 -2.62929964
-0.15625745 63.89665222 0.64164031
-4.58861589 69.30247498 4.21080875
-7.22945070 80.83748627 -7.34114790
5.35629797 75.49449158 -4.36020422
-9.13908577 79.81348419 -7.12383366
-3.09457517 74.07155609 5.30898190
-6.56645012 80.18129730 -9.20329285
1.30277848 80.55825806 -0.60573095
0.18245372 77.84750366 -4.56836128
-9.01001072 80.20906830 8.72832489
-2.06496286 78.95172119 8.08068848
4.81703568 73.43319702 5.98107958
1.80105889 76.28848267 6.44052410
-7.26273155 80.45986176 -1.02276587
-5.58959675 71.42268372 3.75685501
4.35653448 73.23234558 -5.34954643
7.29844332 78.58184814 -7.19310093
-5.06024885 78.03862762 1.17469633
1.38323414 77.60081482 3.67425227
8.87253571 80.96971893 5.66308928
5.23406839 77.28640747 3.60956454
4.07457352 77.01673126 5.28182745
5.08097172 75.98874664 4.91467810
7.64995956 75.72393799 -7.86529493
-5.11447763 77.04324341 -4.02122831
4.48876524 76.17749023 -4.81839657
2.15870667 64.61023712 -2.53955984
-7.85807467 80.16310120 -4.35137701
1.79633033 74.01279449 -5.35020304
0.90531832 63.47192383 2.34434319
-6.08874559 70.93624878 -0.43289033
6.86378431 74.06109619 7.25277901
-6.59366369 79.47570038 9.00052452
8.73292160 79.19106293 -5.41149521
-3.89719701 81.17561340 -8.75562096
6.54606438 79.57983398 10.35545349
-7.54940319 79.32365417 -4.51109266
-1.86152339 75.45943451 -5.73476791
-5.60306215 75.37556458 5.49511814
8.85467529 80.44232178 -8.32562447
0.30100507 64.10310364 4.32812452
3.61328816 78.55312347 2.52457428
4.88728189 64.06819153 -1.66873932
3.59733915 64.85776520 -1.06132579
2.43475008 81.09025574 5.46339989
4.86899519 81.08612823 -1.21777320
-3.73773789 80.83454895 -1.86395252
-7.95755720 79.06094360 -3.28476620
-3.47457433 77.80489349 -4.95607996
0.14815590 66.85569000 3.85284281
-5.80611086 81.45518494 -7.28029490
-4.42926788 80.73420715 -4.02859497
5.32014418 75.02913666 8.00379562
7.85508871 75.68568420 -8.82209778
3.77854061 80.71237183 6.90143204
6.14174080 81.30564880 0.44811770
5.83624220 70.88098145 2.21737576
4.60764742 74.34194183 -4.77669382
7.31883907 78.38713074 1.28312564
2.62599921 71.02233887 -5.89687824
8.48640728 75.13088989 -7.31218576
6.14070845 77.96905518 -4.45343828
0.48318440 78.24984741 6.29962111
-0.28229469 80.29866791 8.21914291
7.44321203 74.55178070 -7.68713951
-0.50174385 79.63716125 -4.28363323
1.17402434 63.95578384 3.43149853
-6.88918400 73.18302155 1.06902504
-9.13687611 79.65811920 -7.39251423
5.84592104 75.80278015 -1.45125020
-1.91700459 67.92854309 6.24388838
3.76420736 77.68945312 -5.76626492
-6.42522812 73.99519348 5.99240780
-5.73322630 69.09261322 4.09688854
7.28776693 77.32910156 -3.85468221
-6.23183346 73.94472504 5.23004675
-8.69064903 77.30213165 -5.77599287
9.69132710 79.58666229 7.05350304
-6.80748987 76.95926666 -8.75347328
3.40967107 69.21407318 -5.38421488
0.93324929 80.43049622 7.38059521
8.10759258 80.14365387 0.20853169
-3.73851132 78.65814209 7.55576324
6.65459585 79.69581604 -9.85308456
5.22581291 75.69530487 8.49326897
-6.38519144 77.61003113 -1.50744772
1.51978374 68.88697052 5.28080988
-8.53935814 74.56621552 7.78893709
3.44806170 76.13403320 7.44295502
-5.14554548 75.46360779 4.88598824
5.95599604 80.32873535 1.73101401
-6.01954889 80.72959137 5.84952068
-6.16110277 78.51860046 -6.89815187
3.38662863 77.04846191 6.88927269
-5.87837648 67.19898987 3.07534599
6.68818283 75.84297943 8.66181946
-5.71872997 71.96313477 4.31351948
-6.94876432 73.97059631 6.94362211
6.01322365 73.53985596 -5.39167404
2.63035393 72.70218658 -6.12792587
0.59111977 63.85947418 0.75440550
4.98143578 71.94297028 3.63031697
-2.38191104 80.68782806 -5.82076311
-0.89193434 72.08626556 -6.47240496
2.81896710 65.86493683 -3.77385759
5.55847692 71.55187225 0.14328165
-3.56463623 65.92546844 3.49988294
6.06183004 75.55234528 1.81742370
-6.86202097 77.77058411 4.00066566
-8.12287617 78.92188263 7.44863367
2.87953758 79.24329376 7.89023733
7.05743122 74.12384033 -5.32273006
1.14250612 76.77819061 -3.47693920
1.40217447 80.35976410 -4.88960600
4.39573812 78.25883484 -3.71505404
3.67426443 71.69264221 5.65259838
-0.97045463 76.24913025 6.93038607
-5.09089518 80.83531952 -5.58212757
6.25174284 76.86396027 2.75601959
4.07322025 72.84970093 -4.14045763
6.86737823 78.50092316 3.68957043
3.53532648 64.18734741 2.28082705
-0.37767747 77.51098633 -2.50636435
-2.76889110 77.81559753 -4.55229950
3.08168435 80.26972961 -6.59341145
4.65185404 80.65499878 6.44124985
8.92957687 79.53984070 3.62695956
7.55363226 80.70174408 -5.06932926
0.40310070 80.78849030 -0.98196447
5.10101318 67.37994385 -3.27374625
8.20470619 74.13730621 -5.63420153
-7.62494469 80.51750183 5.00182438
-1.96342671 64.31864929 -4.10185814
-2.20473576 68.52999878 -6.91553497
0.52091199 71.99153137 -6.20621061
-2.23643851 64.86724091 4.07421350
-4.02474022 80.52953339 -8.67367935
5.16092920 70.08591461 -2.76819563
-6.87581873 73.73860168 4.07799625
1.86792493 80.93400574 7.81285238
-1.38908935 80.83365631 -6.54465580
-6.80586100 80.76098633 1.41263473
3.72989440 80.09317780 8.88842964
5.91686153 74.04646301 -5.09116983
-7.01777649 75.04626465 8.49531364
8.25487614 80.53907776 -8.55348778
-3.77534699 76.30592346 -7.23376846
3.14710665 67.26026917 -2.60462737
1.21907413 78.10903931 -3.57745266
0.66375935 77.97451019 -7.94754028
2.33546758 75.10562134 -5.68335056
-3.50411487 77.04302216 -2.56907010
-7.19498301 73.84966278 -6.04158926
-3.47299504 64.11254120 1.14633143
2.99455428 67.69620514 -6.30814552
2.25235724 74.40297699 4.55737019
-2.38681698 80.53977966 2.25506616
-0.96965921 80.97860718 2.87371778
6.03242016 73.94000244 -1.05464709
7.26083517 78.61116028 8.49940300
8.50571346 77.98290253 -3.49044180
-0.17142920 77.07239532 -3.17463255
-8.25935078 80.71543884 2.90723991
-5.29209089 74.43328094 7.44885635
-6.44676971 68.15087891 -2.12872744
-1.50654006 66.23741150 4.44844389
-5.90801001 74.46395874 -5.98103857
-4.68162346 75.41884613 -6.03637218
7.60804796 73.81188202 5.94866133
-1.34154892 80.39735413 6.16602087
-1.58682072 64.05363464 -2.12839937
-0.89632022 81.04154968 5.21738195
-4.89636278 78.30677795 1.50754738
1.24601495 78.50218201 7.96019363
1.53123569 73.44487762 -5.64634180
-1.74531865 77.00741577 6.71341896
-7.04665756 78.48683929 4.90821123
-7.49607372 77.59038544 7.96531343
-2.23780060 74.43003082 5.56581020
5.69193649 76.51335144 2.10229468
-5.72919989 79.46854401 2.94246984
3.18205214 75.35417938 6.63163328
5.59787035 80.90624237 0.76895821
1.44868636 65.98963928 -1.21814978
4.73632908 78.02186584 5.17128181
2.77260208 76.53786469 7.47965574
3.34664059 80.62448120 -8.13997078
7.08924055 76.53510284 -7.98504734
5.00130939 74.72339630 5.60665798
-6.42718649 75.84774017 0.66704172
-5.65857029 76.41960907 8.02234077
4.66541672 76.11396790 -6.78616762
2.33898878 80.55015564 6.13522434
7.90788841 80.70985413 9.22501183
6.76438570 73.88147736 4.13947630
-0.29594889 64.42040253 3.49258137
-2.99077392 63.62814331 1.08435023
0.96816880 66.31550598 -4.87387180
7.58773088 76.13591003 3.85329247
2.12156701 73.28482056 -7.00321341
-0.18440242 78.65520477 4.44798088
-0.96620309 79.85604095 7.97799921
0.28613064 81.10399628 3.65079474
-2.51847458 75.87951660 -6.56295538
0.74641943 81.28642273 4.78534842
5.27770424 75.30120087 6.33660889
4.72249794 73.82125092 -6.10583735
-0.50846881 77.99239349 -2.01921082
5.53629208 72.19727325 -1.07804203
3.40300536 77.55491638 7.03816557
2.09576392 79.04505920 -6.50790167
6.34505987 77.57645416 2.32245779
-5.73578405 74.75256348 -6.06075287
-4.34011078 75.53984070 -7.04363918
8.85229492 78.96880341 -7.79586554
-5.43370533 68.07080078 2.75684810
3.33438396 77.93757629 -1.52638268
-7.52755117 76.94942474 8.94502831
-3.71812081 75.63881683 6.76349783
6.83047915 74.90957642 7.06229401
2.26202273 80.50802612 -5.43933916
6.96485853 74.61744690 -1.59245670
1.34347439 81.22784424 5.70331717
0.24048735 77.66493225 6.94916868
1.84289002 64.12805176 2.99835038
-4.62079096 81.17408752 0.30656895
8.84125233 78.74705505 8.06241798
-8.30042458 75.51272583 6.84245682
-4.77776909 77.45420837 -3.48390913
5.55663157 80.40956116 -3.63934374
-2.94283628 67.37957764 5.50157452
5.01911592 64.70719147 -2.95114398
-7.11379385 70.93759155 0.02043874
-4.03714037 67.12969208 0.66207969
-7.09173250 72.31800079 -0.25249541
7.08046436 80.82829285 -0.87695515
0.34229994 78.45460510 0.78049433
-4.44806147 63.99497223 -2.16962218
4.37628508 69.56681824 -5.68350887
2.75359344 64.36507416 -0.86960244
-2.09837556 76.94519043 0.67171258
4.37636900 80.34693909 -6.57500124
4.95048714 75.07210541 -4.32036352
-8.76728344 80.41165161 6.14377737
-1.15892661 69.92693329 5.70294333
7.93204832 76.21615601 3.29552054
3.70661402 77.32159424 -1.34311593
2.01825333 80.20278168 -7.10225630
-7.34313250 80.75045013 -1.17923808
-5.04641104 76.50233459 7.22026253
-7.04428387 70.95228577 1.43666637
-2.90515971 63.93029404 3.99576139
-5.82851315 71.58160400 0.39395884
3.67566991 69.79558563 -5.80316114
4.97689342 68.70660400 -4.48750734
6.58344078 80.63316345 -1.24970102
-1.01004684 77.12850952 -0.18969344
0.61534584 80.56708527 1.66254830
3.20362878 63.80825043 -2.05005908
5.25845861 75.42298126 4.01154661
-4.57847881 63.16232681 0.08208417
-4.60937929 73.53780365 3.29327393
4.95469809 77.69743347 1.55358589
2.08548236 79.79859161 7.95163488
-5.17178488 73.19178009 -4.68922043
-7.99738407 79.60142517 -1.23131895
-5.04085827 75.92675781 -1.86664510
2.88942385 79.06419373 7.69231844
-5.89584064 75.01545715 -9.10468864
0.55421555 78.72963715 5.43023920
-3.07805610 70.87869263 5.17053318
2.92251110 78.40370941 4.28621244
4.75446272 77.14421082 -3.78690362
5.77045012 72.93979645 5.17870617
2.35327101 77.53096771 -3.88372207
7.29493761 80.23417664 6.27088785
-2.62532687 63.57171631 -0.77173507
-5.54065084 75.83116150 -1.59212077
-7.10100269 75.25949097 1.37104607
-1.49461114 80.14305878 -7.20226192
3.97645235 77.50404358 2.79334116
4.86179924 68.52429199 5.29665804
-9.15354443 80.34525299 4.48950291
5.00464630 66.34640503 -3.83935428
-6.33125162 73.43125916 -6.67915678
-2.43746758 80.81534576 -4.90442467
4.14098978 70.94258881 -4.05025911
2.04865265 77.84972382 6.19445610
-3.10696554 63.87150192 1.31297743
-3.61389709 69.22753906 4.86857271
1.49870396 80.59065247 -7.91942835
-3.88292503 79.93273926 -8.42000580
-5.27737522 69.31613159 2.20823240
4.17999983 79.55131531 8.02091408
-0.11942080 80.49235535 7.27060366
-2.74885273 67.15145111 6.20687866
7.43093920 80.53609467 8.70199203
-2.28443861 78.26610565 -3.44950247
5.16968966 79.15291595 8.47188950
3.98713565 65.61217499 -2.28122091
-0.42595154 66.29127502 5.67160225
2.07387280 66.58246613 -3.48868370
-5.83505917 76.27740479 -3.33979797
7.67045498 78.96689606 8.38164711
-6.02140045 73.69340515 6.81779337
4.50631475 67.30880737 -5.41024637
3.37241697 77.89514923 -2.95327353
-9.43894386 79.77789307 -7.05660391
5.69386911 73.98446655 4.55137539
0.70540404 68.57664490 -5.98056555
-4.40758371 64.07304382 2.35829878
-3.31225753 64.92777252 -1.18942404
5.46057558 78.14704132 0.39747846
-4.80887318 65.37915802 1.74871147
-2.80942273 70.76201630 6.69356823
-8.90007496 81.15395355 -3.96623206
-9.33243752 79.18897247 -6.92090273
6.82868767 75.84539795 9.68263054
5.81762886 71.06323242 4.47104073
8.69752884 80.48580933 -4.81610632
-8.90266991 78.17906189 -5.91345978
5.12999916 66.74209595 -1.60646200
-1.56693804 64.14912415 -1.03536069
-3.67901492 80.31792450 1.55888319
2.03845692 79.77466583 -4.82143974
-7.44471741 81.13971710 -7.47827673
4.90780830 80.47035217 1.46512997
-0.08592308 66.73075104 5.92918015
-5.21416569 68.06165314 3.96922994
1.17735898 80.96646118 -5.07075357
-8.94491386 81.36883545 -7.19477081
3.66709495 81.15016937 -4.45429468
0.04621317 63.91337204 -1.47861886
-3.74614072 65.22304535 2.12727976
-7.04706430 79.14791870 -0.67598468
-5.16888571 77.98320007 -7.54686260
0.19073513 71.41683960 5.93116617
-4.39967966 80.67301178 -1.91950250
-2.71925497 80.78522491 -1.14416850
9.30448723 78.68227386 -7.40118361
5.83721495 73.50214386 1.58566082
4.34000158 67.42012024 -0.86634648
-4.20836401 68.70461273 5.83383560
-1.96272349 80.77233887 5.63556433
6.30466557 70.94458771 2.20809102
-1.04600704 66.83270264 5.25902081
3.43835783 80.76696014 -5.01127577
6.48579836 76.93498993 -1.76116669
-6.06252670 76.36510468 2.97264671
3.77846479 66.67436981 -3.10557842
-8.12167740 74.85912323 5.32842922
3.64163971 71.78746033 4.61148071
-4.22645712 64.77111053 3.22341609
6.88725090 75.93654633 -3.66159058
-6.63485432 72.40598297 1.44219267
-7.52577257 77.96936035 -1.11694670
8.25793266 77.14510345 -7.73254633
-5.33107328 75.69487000 -8.24451637
8.55210686 79.65879059 -8.63265800
-4.68244457 72.62989807 4.27781343
