0.45825708 0.99565381 0.75330627
0.92632592 0.17738055 -0.30791810
-0.23233360 -0.20082326 0.96180981
-0.03096770 0.09301604 0.99045032
-0.46909657 -0.65896231 -0.82621384
0.37043807 1.03864050 0.15369894
0.84142184 1.05860448 -0.42191833
0.23115195 -0.96822900 -0.37771159
0.59089553 0.96478879 0.47957954
-1.12400603 0.70457554 0.12155808
-0.57959211 0.62776810 -0.75048071
0.73607743 -0.13812868 0.56267500
-0.71291339 -0.84150594 0.85064316
-0.02453911 0.19195457 0.97766083
0.99640405 -0.03355793 0.03267150
-0.18952845 0.61785799 1.02398610
0.08305453 0.99417871 -0.72025704
-1.01341689 -0.75275135 0.01716934
-0.79101074 -0.78492939 -0.50319701
0.93443072 0.48664743 -0.16989949
0.73287094 0.97885054 0.10433875
-0.68772364 1.02301633 -0.48239848
-0.47756943 -1.03225100 0.92910415
0.44698784 0.97106051 -0.84698749
-0.92843974 -1.03995228 -0.18134052
-0.93997180 0.99020612 0.31781536
-0.96320689 0.95414853 -0.05255289
0.05158525 -0.97632748 -0.09943614
-0.28573489 -1.01438129 -0.51170182
0.31549254 0.68069106 0.98611385
0.41403517 -0.68138456 0.92050701
1.06449151 -0.34306639 0.09922229
1.05430460 0.81554198 -0.12907262
0.46376085 0.94038957 0.80132836
0.76678300 -0.97560215 -0.14870523
-0.79080951 0.25094435 0.42612550
-0.74072635 0.62190229 -0.67296815
0.25886860 0.16191216 -0.89634025
1.02408242 -0.92683733 0.16307034
0.59505045 -0.88493764 -0.75115496
-0.65777779 0.81316817 -0.89703339
0.61400163 -1.02406657 -0.69493657
1.05095530 -0.27208319 0.22477713
0.57839847 -0.94650012 -0.84788382
-0.51081216 0.05380308 -0.82919532
0.50365818 -0.79031038 0.89927059
-0.35564804 -1.03422964 0.30930296
0.96501172 -1.02805531 -0.29457211
-1.01392138 -0.01951226 -0.03026923
0.03799845 0.93685359 -0.13816865
0.05902315 -0.49152160 0.96529812
1.02418041 0.91411626 0.01024453
0.21501631 0.98296022 -0.48831648
-0.76801956 -1.07204974 -0.01814186
-0.97873068 -0.86901277 0.19884564
-0.56866455 -0.48804441 -0.86487603
0.17677766 -0.44162011 -1.02366829
-0.39818794 0.93194461 -0.73244524
-0.39465335 -0.98947179 -0.72026855
0.65097558 0.56787485 0.70140892
-0.96401966 -0.98650140 -0.02813056
0.95839560 0.06306858 0.22265831
-0.80390358 -0.46857777 -0.60202760
0.39823917 0.30366996 0.95798868
-0.50149345 0.98121244 0.45080468
-0.83766019 0.97928500 -0.60978317
0.70166254 -1.02384400 -0.42709994
-0.13807474 0.63270062 -0.94014895
0.58964646 0.35366735 -0.83868682
-0.78867745 0.40998146 0.59567398
0.27296385 -0.85221118 0.89294738
-0.57061982 -0.38097069 0.81666863
0.81981945 -0.36321023 0.55619413
0.87229216 -0.74598736 -0.18472463
0.70787549 -0.42676499 -0.59342146
0.90129423 0.39821228 -0.16829823
0.10446411 -1.03768563 -0.17868820
0.54907477 0.59600598 0.90240628
0.32729426 1.00164199 -0.00699154
-0.94600105 0.96044815 0.11383872
0.44384986 -1.01659727 -0.23911284
-0.74636829 -0.60334730 0.56889111
0.20213760 1.04923904 0.16265294
-0.73735309 -0.36912879 0.69608414
0.66690564 1.03631306 0.18089549
0.63592494 -0.92697716 0.67354769
-0.84583497 -0.46791208 -0.39840263
0.86053824 0.12548654 -0.57900327
-0.26107916 0.70619172 0.96772736
-0.90119648 0.19704011 -0.51704007
0.05596841 -0.81372839 0.98472464
0.15973741 0.99387044 -0.35441506
0.95682490 -0.43048188 0.38015783
0.83989465 0.08455490 0.60226363
0.20498979 -0.45588824 -0.99034196
0.81381118 0.61420953 0.57855403
0.79126370 0.43530926 -0.72689646
-0.69923031 0.31322446 0.61696750
0.50072551 0.74188203 0.82127190
0.24379973 -0.84332508 -1.02987814
0.40610307 1.06621873 0.03825685
-0.12723595 0.97470891 0.09583227
-0.62123907 -1.02942586 -0.41955394
0.39001977 -1.00914907 0.10605052
-0.02008556 0.80805796 -1.01174736
-0.64970231 -0.98286736 -0.72124189
0.48123157 -0.44322830 -0.90539050
0.66887689 -0.19217816 0.69055331
-0.88100743 -1.00946987 0.24769609
-0.36654568 -0.07898576 0.89516109
0.62539899 0.32600060 -0.76679748
0.19496633 0.59461832 -0.97100109
0.89906883 0.54297787 -0.43327159
0.93682671 -1.00988054 0.23817442
-0.18044986 0.16370775 -0.93810445
0.49015248 -0.89758062 -0.91307396
-0.44589758 0.19768269 0.88127208
0.08125459 0.97619379 -0.95347077
-0.34458515 1.02246225 -0.70379698
1.01308119 -0.94757730 -0.21125518
0.69491363 -0.55496997 -0.72292173
-0.08590323 0.44033617 -0.94042867
-0.46761560 0.97869408 -0.36849201
-0.81824994 -0.99682736 0.55247867
0.44529760 -0.63002485 -0.93244094
-0.74678969 0.58774322 -0.63109398
0.83211303 0.54455286 -0.53413314
0.91951406 0.46387923 -0.32221082
0.19361696 0.22533745 -0.96929377
0.96814048 0.69213223 -0.27426183
0.74833155 -0.08675114 -0.64746714
-0.61728954 -0.25680256 0.79793268
-0.15903127 -0.84154606 0.95292979
0.99049306 -0.82494360 0.13535085
-0.23855084 0.99578470 0.46493995
-0.54930258 -1.00458944 -0.40935871
-0.72547603 -0.63876718 -0.70186001
-0.99859762 0.99379998 -0.00463069
0.62982440 -1.02727473 -0.11031260
0.84030843 -0.33067626 -0.16008128
-0.95886803 0.87250561 -0.39990538
-0.48683512 0.93810755 0.57046729
-0.94883943 -1.00193870 -0.18269913
0.14065494 1.00148582 -0.58554161
0.31133878 0.92096639 -0.05399067
0.98569894 -0.27381858 0.00054252
1.03416646 1.03593218 -0.07059463
0.82174134 0.30152142 -0.66652751
0.48373201 -0.95674860 0.12995678
-0.90881884 0.96793997 -0.15001915
-0.98822570 0.75909990 -0.01087977
-0.95079637 0.85134703 -0.43424791
0.32468742 -0.98788047 0.67660445
0.94210446 0.35250157 -0.13419147
-0.75242293 -0.14172608 0.66382378
-1.02647960 0.07544259 0.14138412
-0.49958691 0.48756596 -0.82650483
0.14961050 -0.91700208 0.03779178
1.00202155 0.00254128 -0.10598914
-0.15050548 -0.95803845 -0.88956416
0.94409859 0.97089064 0.02376637
0.69155383 -1.01771080 0.41280088
0.72190452 -0.23936105 0.68033367
-0.25199419 -0.95846635 -0.94755554
-0.44078502 0.96950197 -0.59087986
0.72950590 -0.63515496 0.75918990
0.19949955 1.06904101 -0.47490352
0.02911597 1.04013336 -0.61947471
0.34815070 0.40115714 0.93526632
0.60631192 -1.09157038 0.75060511
0.31004450 1.02094972 0.79298621
0.71817946 1.03659439 0.70339894
0.46932316 -0.52089459 -0.89194471
0.96586382 0.52533174 -0.10875906
0.28179970 0.92274845 -0.98595423
0.96278393 0.54741138 0.05492313
0.72952950 -0.35331446 0.60351509
-0.66739929 -0.56267148 0.79425240
-0.34082657 1.00208592 -0.49194434
-0.94595420 -0.90021938 -0.10304809
-0.28352872 0.41029513 -1.00938916
0.93267143 -1.00341165 0.07670431
-0.23478135 1.06782711 0.20393562
-0.34120098 0.42443657 0.95369917
-0.74917436 1.01499128 0.38759428
0.63779736 -0.61494935 -0.86367470
-0.65472400 -0.15560283 -0.79435521
0.17442489 -0.84674215 0.99528712
-0.33943436 -1.06261599 0.17662881
0.56153071 -0.45870146 -0.86041325
0.17532866 -0.23798817 0.95913583
-0.78699100 -0.21074109 -0.64216435
0.52756679 0.98313832 -0.45419404
-0.09491422 -0.99708676 -0.52557552
0.77188134 -0.79429072 0.69993389
0.60462594 -0.95981461 0.65121698
-0.60428548 -0.95370775 -0.55030090
0.51134944 0.99709737 0.68159711
0.95419431 0.66120899 0.30855638
0.27941138 -0.96362698 0.51225650
0.17489752 -1.00175035 1.01132345
0.04791546 1.02159905 0.58171690
0.27760559 1.01911926 0.72878021
0.90492606 0.15597977 0.08289951
-0.01130492 -0.46048597 -1.01536632
0.24502718 -0.68195713 0.97133797
-0.49867409 -0.85062814 -0.82198787
-0.72304046 0.77795410 -0.67652130
1.00296950 -0.26667026 0.12632610
0.10460227 -0.88784409 -0.97741807
-0.38960794 1.02245474 0.01988837
-0.69600379 0.18168871 -0.71901739
-0.61403298 0.94964921 -0.25667888
0.03299548 0.97110432 0.44871452
-0.87631917 0.32370600 -0.26224646
0.44858712 -0.13982749 -0.93042165
-0.14641193 0.98946500 0.19193247
-0.49533135 -0.90389502 0.61632150
-0.15703847 0.94920772 0.99019605
-1.03211892 -0.84884173 -0.12646271
0.74274278 0.54643500 -0.63431627
-0.62186384 0.99101937 -0.57965326
0.19748679 -0.07927841 0.93305188
0.75269520 -0.38802862 0.69328898
0.31636783 1.01955974 0.32452205
0.50994170 0.39353654 0.87819868
-0.03492782 0.59183812 0.93539333
0.47881776 0.98817343 0.08123714
-0.13774371 0.84003448 1.04459310
-0.83524919 0.06071580 0.36025631
-1.00523973 -0.24451107 0.17540121
-0.81031621 0.59876966 0.54318786
0.42784077 0.23772888 -0.91385663
-0.90928733 0.42708001 0.45955130
0.02247997 0.33176845 0.96342498
0.40328985 -0.90293312 0.96489018
0.44015238 -1.02591348 0.48046336
-0.73025346 -0.42081758 -0.70354831
-0.38512141 0.47722003 1.01722193
0.55018163 0.96189278 -0.60129118
-0.24546410 -0.23919895 -0.97287709
0.19158565 -0.70317626 1.00151896
-1.01084077 -0.53874332 0.06294266
-1.04408419 -0.43890348 -0.07182205
-0.21323843 -0.88918126 0.92583507
0.61155105 0.55876511 0.71628410
1.01644182 0.64033371 -0.12437388
-0.98915684 0.11131388 0.00590089
0.05941588 -0.97935593 -0.54551601
0.82317650 0.99093646 -0.51619035
-0.55484009 -0.99410683 0.43483067
0.62340856 0.90698820 0.77318186
0.72517240 0.99481076 -0.00269957
-0.84062576 -0.96503490 0.49491912
-0.63308990 0.88674277 0.04006526
0.86091459 0.96062112 -0.45786196
0.60519826 -0.58634925 0.73971033
0.73351061 -1.00193560 0.49818590
0.87040949 -0.07375169 0.32692903
-0.56039608 0.94709516 0.42697269
-0.44172829 -1.08692420 0.03511635
-0.66864204 0.99913704 0.48317981
-0.45018032 -0.99693310 -0.00585218
-0.62727702 -0.78832442 0.73939222
-0.93576121 0.64462906 -0.42544591
-1.09496057 0.04986329 0.21263304
0.85177588 0.54688680 -0.53164691
0.89294624 -0.06987403 0.26680830
-0.76964295 0.19301806 0.67818850
0.71112680 -0.65554261 -0.70159602
-1.11143243 1.00205421 -0.06177980
-0.87713349 -0.84480566 0.36428773
0.56261027 -0.15618975 0.83111393
0.46726876 -0.34612936 -0.97368145
-0.90658844 0.88364875 -0.43931037
-0.88054121 -0.93655092 -0.42496917
-0.05018481 1.02405441 -0.73082340
0.96442866 -0.59879965 0.07564138
-0.61906028 0.33423761 0.88270563
0.38781047 -0.92542708 0.54785275
0.95494914 -0.45257622 0.29975376
0.56669855 0.62081718 0.75770378
0.43257123 -0.80751014 -0.89206177
0.62608969 -0.26707244 0.84272206
-0.17710409 -0.81115836 -1.02319264
0.42784414 -0.97072691 0.16745605
-0.47195712 -0.12783350 0.88532954
-0.73725033 -1.03038824 -0.07895222
-0.92584622 0.41299975 0.00732066
-0.65382266 -0.35685033 -0.81851059
0.88896239 0.75473458 -0.22385034
-0.94049799 -0.72406363 0.36264426
-0.84552407 -0.95375043 -0.27325368
-0.69414532 -0.93108392 0.75861126
-0.62516606 -0.48865026 -0.81761748
-0.88069332 -0.74909633 0.43100959
-0.86719859 0.28048313 -0.55891043
-0.40558904 0.78654802 -0.90136832
0.74545646 -0.65947223 0.75180000
-0.60720730 -0.82920176 -0.72076321
-0.29555741 -0.74656796 -1.00304008
-0.63204479 1.01509035 -0.37189910
-1.02075875 0.20712903 -0.12628579
-0.75048637 0.51710528 -0.77246058
0.79690313 -1.03709984 -0.56350023
-0.99444926 0.35101852 -0.19356187
-1.03839946 0.54675800 -0.10428412
-0.60584486 0.42990565 -0.88237554
0.87888873 -0.25590140 0.44268066
0.40352887 -0.97461730 -0.81618977
0.91683233 -0.00782981 -0.27509090
0.00569534 -0.98789197 0.59162295
0.27100545 -1.05631244 -0.48070836
-0.69166970 -0.62063754 -0.66732877
-0.74163854 0.67323601 0.71296459
-0.98964071 -0.34114021 -0.10549985
-1.00817597 0.96156514 0.05504692
-0.63018835 -0.52752250 -0.68443090
0.96358848 0.31910786 0.34373808
-0.36278933 -1.02778554 0.45917213
0.05423781 0.99795461 -0.51175064
0.53715885 -0.98814201 -0.39174581
0.60486257 -1.00640619 0.83169925
-0.09682127 -0.02522033 -1.01543856
1.01413763 -0.00505646 -0.11451825
-0.13105534 1.01996040 0.95508403
-0.02454033 -1.02744329 -0.78267819
0.25969890 1.04423773 -0.56674606
-0.51070404 -1.06200647 -0.49032745
0.51941562 0.35526526 0.82990241
0.92664433 0.75612503 0.07710451
-0.59932947 0.91748834 -0.71800232
-0.91181338 -0.46793303 0.48784536
-0.93355620 1.04517436 -0.39088470
0.36404407 1.05658805 -0.72404879
0.38576677 0.99046540 -0.20450827
-0.83567953 0.01507087 0.53213459
-0.81501019 -0.34364697 0.54340225
-0.40130052 -0.82718593 0.83460349
0.31609049 1.02923799 -0.69121498
0.58284199 -1.02603805 -0.64048010
0.48390710 -0.02822078 0.95558101
-0.40010980 -1.06683946 0.88412279
0.87206781 -0.42637417 -0.55545777
0.86036098 1.01544249 0.17096113
-0.20897806 1.00574684 0.01251148
0.50412381 1.05683649 0.44332221
0.07363868 -0.98391235 1.02592731
0.53890336 1.01146042 0.67115182
0.98560917 -0.69408029 -0.03280602
0.44297323 -1.04887986 0.80447662
-0.08071241 -0.56515145 0.92412680
0.63916171 -1.03636026 0.74128234
-0.79291272 -0.57253021 -0.54617190
0.21066460 1.00331676 -0.57037151
0.91568863 0.53237587 -0.35030654
-1.03213894 0.18767558 -0.01967022
-0.78262413 0.93685812 -0.58601934
0.74298048 -0.80907923 0.65317756
-0.22897722 -0.92741787 -0.51162690
0.12014490 0.33677581 0.95742482
0.31829205 -0.98796070 -0.37062213
0.93768454 -0.19112608 0.32119673
0.46901423 1.01994407 -0.39821035
-0.48301908 1.03693879 0.74721164
0.77050769 0.83894801 -0.64471626
0.10161139 -0.52220803 -0.95812517
0.24509476 -0.32197240 0.95564306
-0.94962156 0.88249338 -0.36187947
0.67860889 -0.85061979 -0.87145400
-0.80019212 0.25293931 0.55811477
-0.47810027 -0.98641658 -0.37950349
0.54730630 0.16744348 -0.83819664
-0.32816467 0.86496544 1.01245284
-0.86842346 0.37904751 -0.41775867
-0.88996351 0.84863490 0.49355510
-0.97144544 -0.87543571 0.18696758
0.93060112 0.90985537 0.48457420
0.87703657 -0.38402110 -0.49317467
-0.59242117 0.99310660 0.42706871
0.93441033 -0.30771220 -0.40452775
0.34547117 1.01450682 -0.78377414
-0.96333647 -0.28949782 -0.37857628
0.01386581 -1.08260393 -0.07980520
0.22381794 0.41475034 0.96772194
0.24424228 1.02871299 0.17324939
-0.74296939 0.97045225 -0.13676143
-0.22755921 -0.01019208 -0.96674430
-0.91053522 0.86958194 0.30499941
-0.60957921 0.44666433 -0.79271710
0.14437310 -1.01676059 0.86239886
-0.20868573 -1.04108489 -0.94391936
-0.41876584 0.97026211 -0.04867849
0.46540210 -0.37402853 0.95476162
0.55585122 -0.56500810 -0.83472884
0.92948353 0.86087513 0.23480260
0.84700108 1.01808631 0.07927474
0.89514601 0.85814893 -0.45506540
-0.51232636 -0.93488288 0.74616808
-0.33739203 1.04019737 -0.29518375
0.54079783 -0.01644222 -0.83367592
0.31731299 0.98349953 -0.92605156
0.43573833 0.96799272 -0.53991508
-0.94326150 0.92077112 0.39723951
0.30944860 1.04399979 0.34967417
0.71084845 -0.80518347 0.64340103
-0.47581825 -0.34435651 0.96560019
-0.40113378 1.01581502 0.01337185
-0.40447691 0.18728936 -0.88951707
-0.55939341 1.00230432 0.55199426
-0.82463777 0.43362010 0.69292909
-0.80082834 1.03004086 -0.14190343
-0.39104322 1.00443900 -0.12377811
-0.96291018 -0.31124043 0.07005835
0.84013677 0.95519531 -0.27974328
0.38282642 1.01025152 0.46015167
0.44386286 -0.95968771 0.16074845
-0.39517120 0.35137859 0.93041313
-0.80966449 -0.32688487 -0.53378004
-0.37152883 0.99823356 -0.86839616
-0.34353471 1.02572131 -0.33856633
0.04801131 1.02053785 -0.45356435
-1.00301909 1.01063037 -0.14677575
0.94300044 -0.15080138 0.29345021
0.53541887 0.22144207 -0.88025153
-0.07863852 0.87821072 0.93815058
0.53715742 -0.65137231 0.74022287
0.87645543 -1.03224182 -0.22503559
-0.37828645 -0.81804085 -0.92287964
-1.05006647 0.48263025 -0.13060203
0.66451085 -0.43345207 -0.76001322
-0.06743404 0.82813752 0.95306706
-0.45096803 0.98210531 -0.55495375
0.43502098 1.03594458 -0.06243763
0.05940448 -0.60930669 -0.97068805
-0.43168849 -1.04641664 -0.19280651
-0.00708720 1.06794214 -0.33789933
0.28067094 0.36275658 -0.93863297
0.44288018 -0.01713773 -0.87886018
-0.64538491 -0.99548447 -0.53770429
0.91112995 0.13362983 -0.30744213
0.97895443 1.00061500 -0.11919929
-0.54751265 -0.08326353 -0.82936072
-0.24559730 0.99343157 0.63795871
-0.52839243 -0.90054321 0.85448271
-0.92835391 -0.14155543 0.40516418
-0.13168930 -0.48484832 -0.99354702
0.39239860 0.97049618 -0.61975384
0.39485532 -1.04691005 -0.74837881
-0.02392491 1.06271362 0.99998444
-0.30169085 -0.79493171 -0.97231948
0.93044424 -0.03933740 -0.23911197
-0.20882343 0.48155880 1.02541113
0.95138395 0.68948120 0.20659967
-0.41339010 -0.39732563 -0.83703721
0.85810590 0.10478161 -0.43800959
0.52297390 0.44308963 0.83174455
-0.72447181 0.96663427 -0.54939431
-1.03795457 -0.15151097 -0.06882593
0.20138589 0.99266773 -0.26211891
0.38758299 -0.97191012 -0.78578240
-0.97705710 -0.97408587 -0.32626811
-0.65618575 -1.04687643 -0.07788070
-0.72128260 0.76046503 -0.70000005
1.03052425 0.47376317 -0.01635043
-0.08420588 1.02576542 0.26479355
-0.96542525 0.88434744 -0.29149139
0.98842311 0.44153473 -0.02242424
-0.52239931 0.97542477 -0.82676512
0.14142030 -0.19923928 -0.92183602
0.64881802 1.00499022 -0.57937735
-0.25360098 -0.97704673 0.33211485
1.03247845 -0.68896216 -0.02584338
0.82377374 -0.24324040 -0.58206093
0.58973992 0.98990649 0.59096837
-0.02888165 -1.02962029 0.15420282
-0.88187325 -0.87585407 -0.42904046
0.13646653 -0.10059518 -1.05117774
0.22906324 0.95491630 0.15386026
-0.96178496 0.76237071 -0.18947533
-0.68839705 1.08137834 0.00135864
0.68246949 0.98741096 0.58797747
-0.92429483 -0.70934385 -0.39042166
0.64250815 -0.71616584 -0.76124883
0.86686325 1.02188981 -0.19712129
0.93412042 0.82269490 -0.02074998
0.64322615 -0.59958655 0.77945548
-0.45092896 0.64236224 0.97307134
0.00262437 -0.35523459 0.97010380
-0.34307799 -0.93728948 0.18311685
-0.26426616 0.90830553 0.45325944
0.85672843 0.97226447 0.43792349
-0.75158811 0.99925017 0.08232112
-0.37333885 0.74876189 -0.88147461
-0.77799463 0.65471554 -0.60442048
-0.94377983 -1.00393867 -0.30161968
-0.18588805 -1.04612410 -0.61071718
0.26559356 -0.29522598 -0.93887359
-0.51578605 -0.97434646 0.68874890
0.92358840 -0.63393158 0.41780585
0.07096371 -1.03620183 0.67055535
0.07898679 1.00135410 -0.01084468
0.50424349 -0.99417567 0.10954631
0.32365754 -1.00777245 0.54748118
-0.77505946 -0.58534789 0.76191652
-0.60643184 0.96755868 0.86614799
-0.75294173 -1.00060928 -0.35255712
-0.18166581 0.04384697 -0.93311983
0.66486216 1.02540398 0.66850644
0.02127855 0.44216523 1.01082325
-0.23084581 -1.00215733 0.25739026
0.80041873 -0.99626172 -0.20530741
0.69355071 -0.98594040 0.25397995
-0.79728794 -0.65292096 0.56612438
-0.95343351 0.42807153 0.30550814
0.42338574 0.17370501 0.86707503
0.82079697 -0.01623402 0.59570014
-0.08833880 1.03292775 0.01028065
0.63259423 0.96805561 0.60415506
0.98606455 0.16513219 0.01612323
0.17131069 -0.99778402 -0.01466395
-0.56094730 1.00397646 0.65597504
-0.25226778 1.02714419 -0.30008781
-1.00349343 0.93029100 0.20361890
-0.49878377 0.39664268 0.83637756
-0.97936237 0.03652239 0.11882800
-0.34588242 0.96917772 0.45921743
0.14463803 0.97850293 0.54530704
-0.47115269 -0.51522380 -0.78154457
0.16916364 -0.99928522 0.15651572
-0.64089799 0.81701285 -0.72389019
-0.12354661 1.03579462 0.74194944
1.06388080 -0.30748051 -0.24048668
0.11722180 -1.02297175 0.64761078
-0.79244375 -0.34769464 0.60867161
-0.91456783 -0.97765172 0.14953405
0.14176989 0.11123002 -1.04216027
-0.43859383 0.07702548 0.89778370
0.22818117 -0.23297164 0.96833158
0.95845270 0.24298479 -0.32026917
-0.97908533 -0.23655438 0.19301723
-0.81161690 -0.77375597 -0.51881456
0.58331513 -1.03833401 0.12057690
-0.15485361 -0.98490924 -0.67852348
0.31153330 -1.00571942 0.62813348
-0.13229421 -0.89547050 -0.98635817
0.87067866 0.49208704 0.58171761
0.08971409 -0.75345784 0.98779821
0.63716590 0.64789444 -0.71101183
0.72042727 0.97270030 0.49030659
0.75214124 1.05429280 0.29530177
0.40846395 0.37272477 0.84053141
0.79751158 -1.03215742 0.27386588
-0.96636534 -0.73415077 -0.17837523
0.71946955 -1.01950383 0.38245913
0.59995127 0.34225696 -0.70547682
-0.75068486 -0.24364120 0.62453473
0.02961118 0.52534163 0.98230046
-0.83915973 -0.62622863 0.51810598
-0.66998696 -0.99444246 -0.37580070
0.91002512 -0.65383482 -0.44367036
0.66432118 0.69565207 0.74440795
0.54730225 1.02658868 -0.10193007
-0.07282274 1.05057490 0.30744290
-0.77190650 0.95414782 0.18004647
-0.55078900 -0.65251410 0.87185466
-0.70086253 -0.56998610 0.77317542
-0.65063214 -1.01047027 0.11512873
0.87097323 -0.45624924 0.41484472
-0.91980672 0.46654978 -0.21478020
0.81423235 -0.91191971 0.18865202
0.29451591 0.98334652 -0.62762845
0.27830371 -1.02144551 -0.72005296
-0.03884894 -0.99275607 0.79781622
-0.97089422 -0.58652961 -0.23799069
-0.99166763 0.88502806 -0.09424861
-1.00871074 -0.28459957 -0.02296847
0.62700117 0.96403593 -0.53990138
-0.63157463 -1.04869318 -0.39330193
0.32149866 -0.98077559 0.11961803
-0.53367841 0.96260476 -0.02243105
0.39893693 -1.00466239 -0.12342504
0.94719779 -1.01597548 -0.24462736
0.31487730 0.84632117 0.89066207
-0.32351330 -0.97833902 -0.64962202
0.18871944 1.07826340 0.46110225
-0.27310327 -0.28711575 0.96233124
-0.74927568 0.65906417 0.68967366
0.55897868 -0.13209599 -0.76011902
-0.26659128 -0.99955207 0.09832261
0.73418427 -1.02802563 -0.34943143
-0.62210739 -1.03630400 -0.63721883
-0.98369634 0.49235934 0.19729538
0.95008326 0.11030628 0.30429661
-0.31449723 1.01791513 -0.70107150
-0.42716858 -0.11160710 -0.84512728
-0.40946493 -0.93291563 -0.86868930
0.68642068 1.05035019 0.62879306
0.58759010 0.89447647 -0.06511283
0.52439809 -0.97483981 -0.15380511
0.14875279 -0.49738982 -0.96121258
0.04776602 0.83905154 0.99685860
0.08548529 -0.98657364 -0.89509022
0.60387325 0.75290674 0.80097002
-0.21447293 0.29259697 -0.91592526
0.11522838 -0.30251026 0.95722860
0.45209014 0.95018691 0.67124450
0.83935475 -0.36347795 -0.39467016
0.26894003 1.02063608 -0.46381238
-0.65345430 0.02262351 0.76566720
-0.48075995 -1.05657697 0.14570458
0.19523822 -1.05085027 0.76161301
-0.98850071 0.29349208 0.09766880
0.39615843 0.24110310 -0.79783779
-0.74327779 0.34035388 -0.66948253
0.50483668 0.97025073 0.50082558
-0.24563427 0.07545727 -0.99499339
-0.93002570 0.80296290 0.20980425
-0.80447757 0.12327377 0.58861166
-1.03273737 0.59350336 -0.17774145
-0.95024610 0.49745804 0.27358127
0.12546386 0.31496799 -1.06441092
-0.64961553 0.60309702 -0.77453732
0.90873492 0.85697889 -0.39682412
0.92335641 0.86544669 0.39272445
0.96501434 0.55473179 0.35999778
0.93788016 -0.43645456 -0.51251245
-0.24333139 -1.06174862 -0.06119920
0.13141708 -0.06296448 -0.90334690
-0.25153148 1.05383241 0.13331082
0.65058470 0.16388443 -0.74610990
0.97031713 0.45902053 0.45291647
0.21916161 -0.96010190 -0.32258216
-0.56491113 0.61610043 -0.80397296
-0.29559100 -1.01723480 0.25409326
0.63182473 0.11240969 0.78710592
-0.79361892 -0.60774720 -0.63618141
0.67122233 0.94846445 0.72847211
-0.67668962 0.93461162 0.77422678
-0.48263878 0.94054049 -0.85165560
-0.14385678 -1.01562798 0.77785659
0.19376855 -0.48735848 0.99696052
0.18291496 -1.03686976 -0.07378635
-0.45695794 -0.98903525 -0.82056183
-0.44566479 -1.08005607 0.60276353
0.14793795 0.51761860 0.93764538
-0.90081596 -1.02775419 -0.18740828
-0.22655244 1.04569924 -0.84932828
0.01000959 1.01314759 -0.24471444
0.38276476 -0.96610814 -0.58936936
-0.77644086 0.25778499 0.50085014
0.55451787 0.14135851 -0.75666469
0.13967220 1.03786337 -0.50492549
0.54349434 -0.59018886 -0.86723089
-0.83016658 0.94832033 -0.36104625
-0.35555249 0.01385440 0.88507468
0.01990087 -1.02203894 0.08319205
-0.81986475 0.88596940 -0.60739940
0.69670224 1.02348518 0.70351684
1.01265490 -0.84537935 0.10866194
0.22211982 -1.08125210 0.74539781
-0.12495320 0.67176360 0.97480702
0.47769380 0.84017682 -0.82244474
0.02866469 1.00331450 0.05413101
-0.93391097 0.78709769 0.23302777
0.16098174 -0.42391804 0.91975993
0.13572820 0.08107384 -0.93960112
-0.71550119 0.85213119 0.66941214
-0.83799672 -0.08393254 -0.62130487
0.88176537 -0.87748724 0.39216739
0.47972482 -0.30157995 -0.92153984
-1.01564229 -0.19889097 -0.02920971
0.09866617 0.77938950 1.05670047
0.62510967 -1.03951824 -0.67571282
0.83244169 -0.05346521 0.58057940
-0.36586678 -0.46321100 0.91518962
0.99537957 0.01662633 0.09605111
0.43338332 -0.65538514 0.97103769
-0.53214550 -0.99888885 0.51515102
-0.47993752 0.97991145 0.01162748
0.08978874 1.01298964 0.71862531
0.11013509 1.05009151 -0.71691322
0.08867460 -0.93270499 0.98923481
-0.04756913 0.31927860 -0.95465606
-0.46715081 0.91974247 -0.57241994
-0.17295228 -0.94896418 -0.44467834
0.79043448 -0.67939204 0.60168225
-0.94849050 0.57758200 -0.01766829
-0.18404803 1.08962071 0.96092021
0.73864627 -0.98445624 0.61922866
0.46751860 -0.61771876 0.99713647
-0.55900347 0.58512574 0.84560078
-0.72437513 0.78870618 0.65736026
-0.69253469 0.21544503 0.68319815
0.84233761 0.41864377 -0.49897590
0.89627242 1.06954896 0.02063984
-0.09441092 0.78706217 -0.94536757
0.93309605 -0.43966061 0.30632120
0.00802251 -0.44427222 -1.03679872
0.02477812 -1.03412545 -0.29228452
-0.71284187 0.09147433 0.76645899
0.11215619 -0.06933340 0.98247755
0.33575106 -0.28857356 0.93348974
0.68674910 0.86993629 -0.71453977
-0.84468818 0.02099286 -0.57229465
-0.51758385 -1.03443515 -0.47824448
0.95242989 -1.03436553 0.24649656
-0.69193339 -0.69577438 -0.59391266
-0.94247687 0.89935470 0.00045007
0.03289247 -0.93239903 -0.84976047
-0.47143295 -1.06066191 0.45742106
0.01495418 0.98887873 -0.66052878
-0.50214851 1.11162710 0.18608803
0.01337709 -0.51546168 -0.99686521
-0.23079975 -0.20154834 1.01832199
-0.24754211 -1.02869260 0.53708822
0.10772908 -0.97520620 -0.73150253
0.96989655 -0.28823656 0.28327501
0.37573147 0.95561153 0.74937099
0.99477851 -0.16525295 -0.16017002
0.72588670 -0.97030789 -0.56312591
0.58442903 -1.10342300 0.74676681
-0.00069663 -0.38016525 -0.97420335
0.58372760 0.98805124 -0.78571653
0.53013527 -0.75609171 -0.85620397
0.97441936 0.65849090 0.05188240
-0.92796421 -0.07059353 0.32463244
0.32145622 0.22779146 -0.98251486
0.36215195 -0.09652959 -0.88405633
0.42638713 0.91698545 0.96113342
-0.39719695 1.00305283 -0.77478695
0.86479580 1.01716733 -0.21955422
-0.99520350 -0.89423227 -0.12702690
0.75950480 0.78060019 -0.53283912
0.72452927 -0.82798052 -0.69606185
0.67301714 -0.90256774 0.71396887
0.33338583 0.93767673 -0.30533338
0.16371579 -0.46671906 -0.98948836
-0.44743967 -0.55233395 -0.93336421
0.75717914 0.98329115 -0.26362625
-0.82276142 -0.04997072 0.61443681
-0.78674853 -0.95300418 -0.35815778
-0.39418492 -0.97579050 -0.54558879
-0.24916887 1.06752288 0.10323213
-1.02846694 -0.86774743 0.06423551
-0.68525136 -1.03184903 -0.40157592
0.77563488 -1.07450223 0.18501636
-0.33934236 -0.80814177 -1.02561831
0.05821411 0.97024590 0.97283995
-0.10777686 -1.01248181 -0.75670165
-0.19196936 -0.89782059 0.15525021
0.57598937 -1.00626552 0.77095449
-0.59007406 1.02501571 0.65892410
-0.56520486 -0.99791640 -0.20254193
-0.13840587 0.49662903 1.00067377
-0.36182824 0.75497645 0.98798323
0.37838683 -0.75926602 0.96124536
1.02628434 0.22346260 -0.20659159
-0.86934376 -0.75703645 -0.21658416
-0.62055349 -1.01693368 -0.47317335
-0.40703729 -1.02975965 0.23705593
-0.73314571 -1.03519976 -0.42820159
0.55339718 -0.98946470 0.66421473
-0.28663531 -1.05299878 -0.44431764
0.36152074 0.73064911 0.90365815
1.02124298 -0.09318537 -0.18007958
0.30597439 -0.90714675 0.10796604
-0.84622252 0.37293771 -0.49198335
-0.94794428 0.50069070 -0.34035689
1.01449049 0.43908051 0.11939641
0.49341092 -1.01644170 -0.83485585
0.70797563 -0.98636234 0.32482180
-0.20790745 -0.93943501 -0.74192137
0.62586713 -0.69401962 -0.80136967
0.68011880 0.99130249 -0.59373784
0.96872473 -0.81031519 0.06061418
-0.79998410 -0.96939534 0.20785257
0.79878795 0.81574368 -0.65767753
0.33317366 0.82451212 0.99142808
0.19165672 0.94729930 -0.04217287
-0.85053289 0.65596068 0.26460123
0.46795732 -0.87873161 0.33519122
0.53010690 1.01971745 -0.50853747
-0.91136098 -0.01878343 0.41012776
-0.79714119 -1.02237415 -0.01611750
-0.65809739 0.91040081 -0.18963876
0.03543910 1.06763470 0.62374836
0.98557067 -0.24986780 0.05238411
-0.29312456 0.25586826 0.98082656
-0.10066670 0.98824245 0.58095998
-0.77018607 0.75718439 -0.63487136
0.23537944 0.97653431 -0.49635923
0.84750760 -0.61831021 0.51054716
0.64221358 1.05541003 0.29829156
-0.77155054 0.96215183 -0.36069617
0.44994062 1.02285171 0.09289653
-0.04525943 1.00821674 -0.83395249
1.05230892 0.55229568 0.11969452
0.34832695 0.10779365 0.90878320
-0.55689645 1.05569768 -0.00959037
-0.39733252 -0.81619167 -0.95785576
0.09252743 -0.65632737 1.08226824
0.67134118 -0.49435273 0.75029486
-0.62169576 -0.95254576 0.72145575
0.90458369 -0.86711562 0.47242773
0.27300301 -1.01633906 0.11632177
0.40229186 1.03833973 -0.85783267
0.22938491 -0.91342592 0.42574888
0.71099246 0.96836537 0.63552445
0.94167173 -0.65658373 -0.25921527
0.95925665 1.02005196 0.08076613
0.27168503 0.35223469 -0.92110640
0.01641276 -0.83311266 -1.00741887
-0.85795414 0.69308978 0.40370065
0.13390324 1.04621017 0.96255213
-0.69986761 -0.45607644 0.68432212
0.70918226 1.08972073 0.18638326
-0.35585386 0.69363391 0.98027128
0.36081737 0.92356014 0.91250819
0.93443358 0.13879064 -0.01397952
-0.94220388 0.65847868 -0.34233177
-0.74143589 0.04403342 -0.74068868
0.91325319 -1.03504837 -0.01621520
0.69867635 0.75456589 -0.74200356
-0.53065205 -0.36238369 -0.92515886
-1.04609561 0.09228653 0.22028071
0.10118078 0.96512252 -0.92181659
-0.04603005 -0.13802856 -1.00557327
0.98044276 0.46560794 -0.17725119
-0.90180099 0.03706582 0.44348362
0.48300532 1.03441501 -0.74944150
0.88562167 -0.96407783 0.04929767
0.01957006 -1.05004072 -0.67030543
0.82252491 0.05292980 0.51324928
0.82444322 0.96210319 0.32336220
0.27597532 -0.98495650 0.19057313
0.86012638 -0.44097048 -0.61317235
0.93576372 -0.69477850 -0.20505096
-0.22389287 -0.94632053 -0.47980270
-0.85438275 -0.43919387 0.53191710
-0.31078219 0.29146454 -0.91763669
0.37814465 0.97706443 -0.50080907
-0.98995388 -0.24111454 0.26202813
0.01008036 1.01364636 -0.96401113
-0.61919534 -1.01778138 -0.78139901
-1.02169514 1.00809789 0.22767653
-0.10582257 0.42046937 -1.05819869
-0.09722174 -1.10202956 0.75832981
-0.98394406 0.09881394 -0.15050583
-0.64746606 0.96454424 0.01126515
-0.45689303 1.02720451 -0.63721669
0.36616686 0.21361732 0.92330623
-0.78531277 0.02355492 0.55813372
0.95776558 0.07041553 -0.13139933
-0.90616071 -0.24176471 -0.38856333
0.81087577 0.38040760 -0.53794003
-0.38906553 -1.01383221 -0.49714217
-0.27175805 0.05065614 0.90644044
-1.03222382 -0.68295407 0.26277342
-0.61736119 1.00209904 0.31838545
1.03492558 0.54198384 -0.09760403
-0.34611905 0.61419690 -0.88602108
0.28396949 1.01498616 -0.07677323
0.43225124 -0.34356970 0.88731807
-0.24509114 -0.93965280 0.96569043
0.92706704 -0.11378160 0.08358426
-0.21944855 0.96330005 -0.93923640
0.84815383 -0.75713027 0.61968994
0.20208567 0.57845056 0.96140152
0.31015542 0.92295587 0.98467273
-0.74073696 1.01976669 0.18928805
0.08800405 0.99276692 -0.66806835
0.34328631 -0.83295387 0.93255866
0.23869143 1.01990891 -0.00366442
-0.79121304 -0.87613875 -0.69177622
-0.80442226 0.49731717 -0.52156341
0.58090603 -1.01791036 0.49856475
0.33667898 0.99166334 -0.97038192
-1.00064886 0.13340007 -0.01499322
-0.33449394 0.08774754 -0.90332913
0.74184763 -0.46640238 -0.66788149
0.60790193 0.53262085 0.68607366
0.67007911 -0.30724016 -0.81073475
0.35138163 -0.36971098 0.98919576
-0.75884652 -1.04070997 0.51946962
-0.92429793 0.90271980 -0.24085557
1.02996945 -0.64942324 0.15187708
-0.47398823 -0.60325587 -0.84623802
-0.83876801 -0.96137691 -0.17684194
-0.86066163 0.71511996 -0.46852404
-0.70615518 0.29535764 -0.59550512
-0.03518449 0.91231239 0.56633222
0.90748715 0.79754460 -0.16242197
0.92668831 -0.99995577 0.37464365
-0.57839942 1.05153525 0.49580345
-0.50236177 0.96817148 0.65141827
-0.23177010 1.02508163 -0.16586050
0.44275418 0.80383372 0.82017905
-0.72677183 -1.07035470 0.57279366
1.00504899 0.44279650 -0.11260550
0.57168758 -0.75080460 -0.89193928
0.09388223 -0.99575818 0.14500484
-0.92677391 -0.17082383 -0.35341054
0.15980734 -0.93970209 0.79912645
0.98322892 0.42780593 0.17599078
0.09636588 1.03002250 -0.75992644
-0.34583423 -1.02507699 0.36396906
0.18539935 0.37127450 0.97429454
0.05264660 0.57244474 -0.99136347
0.53052545 0.65718240 -0.84262192
-0.12695797 -1.02714431 -0.95305181
-0.47864828 -0.04833333 -0.88332659
0.77223766 -0.95883769 0.67660719
-0.69900763 -0.45326170 0.72673619
-0.95040739 0.46587583 0.19545630
0.11762469 -0.86166334 0.99096340
0.90681076 -0.09092779 -0.52634519
-0.64481783 -1.03922129 0.58931649
-0.36938915 0.96898615 -0.32111534
0.95546913 -0.26163927 -0.22157690
-0.86959994 -0.44720390 -0.28870234
0.28450489 -0.94213116 0.92054999
0.11762171 0.90312290 -0.96994269
-0.88453817 0.96308261 0.03090136
-0.24075797 0.42074287 0.99318397
-0.91336095 0.54887527 0.46255934
0.96722722 0.48029760 -0.39805627
-0.40284508 0.88297582 -1.01355743
-0.95167780 -0.93095082 0.51172346
-0.48096591 -0.16796170 -0.88559580
0.85906923 0.53090507 -0.60200197
-0.87465441 -0.83627278 -0.38254470
0.76596534 0.16286817 0.58526599
-0.54915059 0.92425305 -0.50096893
-0.52350080 -1.02195609 -0.37852019
0.71861041 0.93245542 -0.46160275
0.99056029 0.45576966 0.18100663
0.67866647 0.31381863 0.73690718
-1.01275229 -0.23582140 0.24594881
0.11982832 -0.23453060 0.99314320
-0.70795619 0.99326360 0.59620380
0.79134226 0.47481981 -0.63839561
-0.98464966 0.13600180 0.32637602
0.37241328 1.03214836 0.57613444
-0.81328034 0.96370286 0.47603640
0.97740293 -0.19124612 -0.40437886
-1.03202486 -0.82038200 0.08264875
0.15863521 -0.14691384 -1.06918335
0.07035664 0.79781514 0.96129274
-0.60857058 -0.97954434 0.14950193
-0.07899236 -0.97260934 0.16993818
0.21995379 -0.13898484 -0.98393333
0.82647407 0.32377359 0.57894623
-0.49876362 -1.00159895 -0.04321656
0.39654243 0.90273696 -0.44197133
0.31003752 0.47920963 -0.96715939
-0.40706944 0.95872712 -0.00743841
-0.64446032 1.02461505 -0.20527737
0.45269835 0.03227204 0.79995298
0.95198727 -0.30275199 0.13721794
0.60034037 -0.94078547 0.56137311
0.16395047 -0.62556624 -1.03049779
0.96003747 -0.75618911 -0.07521167
-0.11847252 0.97924721 0.07864792
0.83204257 0.83295453 -0.57903582
0.35722721 0.49883366 -0.96190733
-0.39971721 -0.93924856 0.82154173
-0.50449443 -0.99546105 0.80894268
-0.98189139 -0.32189986 -0.22643034
-0.46918985 -0.48935610 -0.87727493
-0.69145429 0.75891775 -0.73749709
-0.10061607 0.92324823 0.48452127
0.94123161 -0.87403214 -0.50884897
0.95522237 -0.43092656 0.16355133
-0.92464650 0.97409344 0.10456337
-0.54625797 -1.00073290 -0.22830108
0.20783195 0.97921008 -0.72697014
-0.18118961 -0.98939461 -0.37177777
0.66062295 -0.57327378 0.78865343
-0.93649375 -0.15151186 0.39221269
-0.45714778 -0.58780301 0.87834775
0.01930735 0.94983065 0.47813585
0.68883336 1.04382992 0.61799973
-0.82878411 0.21493395 0.73881209
-1.02428997 0.61819047 0.16728798
-1.06795096 -0.20499340 -0.03950835
-0.12810975 0.37214437 -1.00310230
-0.00019036 -0.98373586 -0.46842286
0.48086300 -0.28504115 -0.83895022
-0.88915336 -0.14365834 0.32234845
-0.93853116 -0.81638741 -0.51408821
0.89233375 0.20360701 0.35563707
-0.93518531 -0.46074763 0.39963686
0.67067778 0.69746637 -0.76577139
-0.93340182 -0.69157690 0.13553393
0.77808022 0.39247185 -0.64002168
-0.71839118 0.97396392 0.30133554
-0.96516645 0.32620201 0.25401029
0.98406971 -0.11802229 0.15360790
0.08387624 0.83758426 1.02583408
-0.77933002 0.46348235 -0.59080833
-0.36547640 0.38044477 -0.89729726
0.14471880 -0.61141253 0.99953353
-0.65745258 0.16431351 0.76854050
-0.96463037 0.40430501 -0.03975442
0.20030971 0.90875971 -0.95765585
-0.22712098 -0.98085099 -0.56748229
0.89788103 0.53678888 0.52535683
-0.22438698 0.70094562 -0.91498739
0.35791013 -0.49564648 -0.89941192
0.74601221 -0.80969608 0.52761471
0.93178117 0.28032073 -0.45563108
0.27503702 1.02064669 0.49602017
-1.00613999 0.12031370 -0.46452793
0.81035757 -0.40330738 0.69362402
0.17427212 -0.17679551 -0.91148949
-0.71361792 -0.33564067 -0.75458032
0.64460540 -1.02859509 -0.68797559
-0.60037100 -0.98293984 0.55782878
-0.48288584 -0.98139590 -0.25004297
0.90874469 -0.82393873 0.44729701
0.92372990 0.06955539 0.44839787
0.79953361 0.78544551 -0.64630419
0.97276330 0.12201851 -0.04424987
-0.33501002 0.94298857 -0.76335949
0.58965361 -0.43288150 0.76366651
0.11560564 0.66710401 1.02417970
0.00989640 1.00894880 0.13210408
0.44622144 -0.97191614 -0.50775951
0.21872504 -0.99862939 -0.21597831
-0.63881385 -0.96184403 0.72301948
0.52864325 -0.91028702 -0.91379905
0.07625220 1.08562338 -1.02259803
-0.51047194 -1.04168224 -0.60780400
-0.61839521 0.98205364 -0.56859559
-0.28941184 -1.09166467 -0.03972962
0.50003791 -1.04987228 -0.65043968
0.16576138 0.30164519 1.06984091
-0.96971309 -0.19393826 0.35000655
-0.05857408 0.94545394 -0.44694355
0.24067906 1.01639283 0.73998636
0.52775407 -0.12115727 0.85018003
-0.84624469 -0.85575134 0.64633042
0.28239015 -0.99774307 0.50015390
0.07474504 -0.68814600 -0.96388042
-0.62500608 0.25656134 0.79934675
-0.97582972 -0.61534810 -0.11008552
0.72377050 -0.86626589 0.46037850
-0.90486169 -0.87856895 0.47272947
-0.65451801 0.80701172 0.72766227
-0.08444332 0.06425664 -1.00344205
-0.44418108 -0.03549712 -0.95436817
0.99777508 0.14117120 -0.33215156
0.38865849 0.94493800 -0.24150926
-0.01507150 0.95600146 -0.17525317
-0.11784587 -1.01557732 0.30162090
0.88750315 -0.97553134 -0.14174013
-0.24059933 1.00324368 -0.74404687
-0.83311629 -0.20329507 0.56949145
-0.08791420 -0.97281861 0.25803617
-0.22320540 -0.96979022 -0.78193098
0.36795080 -0.66163146 -0.89579475
-0.97813404 0.61800450 -0.25184140
0.75526619 0.10035056 0.52192700
-0.93888736 0.83177787 0.35017484
0.28049022 0.84290981 1.05395079
0.10836658 0.09116762 0.97035128
0.97479653 -0.68438262 0.21626022
0.19779100 1.01724076 -0.02463602
0.65539074 0.09064061 0.75509757
-0.05815604 0.65638864 -0.98779309
0.09392584 1.08594096 0.75546205
-0.98481297 -0.56011170 -0.13567729
-0.78228700 0.66693205 -0.77918094
-0.86485720 -0.17906682 -0.55707794
0.74055731 1.04155457 -0.25779545
0.47911257 -0.33141932 -0.87856948
-1.05523884 0.86523008 -0.16586302
-0.34516513 -0.08032513 0.95073324
-0.20085838 0.97728252 -0.20965672
-0.85072231 -0.32967439 -0.48540121
-0.91951668 0.83790684 0.03865354
-0.13033393 -0.70683450 0.97906840
-0.22265334 -0.45625553 0.99624074
0.24144787 0.11985224 -0.99765885
0.53671896 0.96199453 0.78224242
-0.72408581 0.64172071 -0.72996390
0.89168704 -1.00652957 0.37139997
-0.88703835 -0.02807734 0.46365318
-0.02117707 1.01195097 0.87412351
0.96400321 -0.89876962 -0.03257522
0.87694812 -0.77706373 -0.34348905
0.09883494 0.03786186 0.94965309
0.22600350 -0.88200390 -0.99025154
0.82898533 -0.29659000 -0.59899133
-0.22416061 -0.98067194 -0.49367282
0.09384383 -1.00579977 0.98895842
0.12167000 0.70142376 -1.02184439
0.26582399 -0.97815257 0.23471546
0.39437497 0.67081499 -0.89736933
0.24041265 -0.19814919 -0.96249473
0.16257030 0.76798034 1.02927971
-0.68910599 -1.00605845 -0.61379910
-0.51507103 1.01379251 -0.46621734
-0.40676033 -0.98860967 -0.63983846
-0.08839542 1.05387902 1.12341905
0.39759973 -0.99946696 0.04806427
1.04116654 -0.92221469 0.16582067
-0.16017534 0.99737334 0.24262893
-0.45694801 -0.24699575 -0.94291067
0.64794779 0.03210822 0.81654829
-0.14519714 -1.04532003 -0.14653097
0.50315130 1.02112842 -0.27504870
-0.85714161 -0.38696295 -0.40256152
0.80237162 -0.92325288 0.70909208
-0.66584325 1.03617430 -0.78773516
-0.55488563 -0.99831063 -0.09117736
0.99637294 0.83124256 -0.28173456
-0.83909357 1.02605736 -0.01032924
0.10253038 -0.77646369 -0.99669516
1.02134430 0.96419734 0.19438286
0.35930440 -0.95587820 0.09967514
-0.98381484 0.56607574 0.11574840
1.02651083 -0.11440914 -0.47812206
-0.05535896 1.03858149 -0.12633352
1.04363108 -0.44492257 0.11044911
0.23065396 0.94511294 0.60141790
0.56452692 -0.96208096 -0.17144793
-0.87860990 -0.26794392 -0.46171680
0.40107220 -1.05728602 -0.20085347
0.55558825 -0.66824102 0.88895583
-0.53411186 -0.38122195 0.86446071
-0.97701132 0.96568704 -0.22765356
0.94987631 -0.67896110 0.05519803
0.05831034 0.60536653 -1.03223109
-0.94284427 -0.70965493 -0.32042694
-0.01398217 0.01118604 -0.99409646
0.65204179 0.52094638 0.79028314
0.93419313 -0.02037718 0.15210918
-0.52748072 0.91042984 -0.77781916
-0.78141773 1.03886759 -0.26966050
-0.50777102 -0.51948345 0.87321383
0.34862179 -0.95678473 0.35680476
-0.19791177 -1.03209424 0.25114489
0.06621880 0.69473523 0.99417543
-0.26687163 0.94720048 -0.80589724
-0.12416280 -1.04485548 -0.31649494
-1.03569269 -0.52193761 0.02296774
-0.83920979 0.21654233 0.50588930
0.40328643 0.99905026 0.60760158
0.26905817 -1.00498486 0.85223716
-0.91117609 0.38152850 -0.46162650
0.45954508 0.05142856 1.04595757
0.73034215 -0.05215124 0.66260010
0.43689686 0.64566743 -0.95039171
-0.30108130 -0.76224661 0.95903873
-0.92258751 0.40371925 -0.42424369
-0.14579116 0.40069187 -0.95543307
0.95018566 -0.18884513 0.22743243
-0.61048341 0.85216820 0.79465920
0.67466331 0.99875706 -0.48153332
0.65074492 -0.96662909 -0.15114404
0.86977839 1.05933881 -0.04255793
-0.91249359 0.93832302 -0.16828749
-0.25691605 1.02476263 -0.33094361
0.48341480 -0.88722014 0.90652972
0.55936742 1.10180771 -0.20796311
0.02805799 -0.61757457 -1.08629227
0.96899807 -0.98363703 -0.11898833
0.18993020 0.99110144 -0.95223159
-1.01277852 0.79966491 -0.12785286
0.31146443 -0.74636358 -1.01515198
0.08604948 -0.49087301 0.98880100
0.60821211 -0.72774720 0.80039781
-0.99981153 0.83047020 0.20075488
0.39398614 0.27926993 0.90717596
0.22063555 0.17846933 -0.98912263
-0.06363795 0.98388034 0.20708236
0.02824470 -0.44348967 -1.00384355
0.37106684 1.02419686 -0.71667755
-0.96170056 0.77761132 -0.14246500
0.05721301 -0.08511841 -1.06968474
1.13608658 0.50458753 -0.00140127
-0.76405382 0.53084791 -0.70027113
-0.49040684 1.00696599 -0.26550755
-0.73953032 0.88422209 -0.66632378
0.64696908 0.99956119 0.04365226
-0.01081347 0.99753439 0.34549084
-0.99792385 -0.91680807 0.12033281
-0.83643568 -0.02730650 0.55608332
0.81557286 0.86824530 -0.59129155
-0.00349731 -1.02692080 -0.03049685
0.01961567 0.28239101 1.01281238
-0.32776183 0.95265603 0.70466679
-0.55557501 1.00965440 -0.72698516
-0.58485520 -1.05056822 0.27906147
-0.79816449 -0.02052150 -0.56365544
1.00097406 -0.38551503 -0.07697994
-0.78265715 0.97928977 -0.19761029
0.97042191 0.19686005 0.44385082
-0.57321310 0.98743343 -0.00437481
-0.90490139 0.18728846 0.30429131
0.84214878 0.28981179 -0.49882314
-0.17136890 0.13594167 0.92779040
0.04575082 -0.97238445 0.60979229
0.86267209 -0.10055637 -0.52307224
0.92967892 0.34260488 0.29558635
0.73628104 -0.48957217 -0.58576769
0.06863951 0.60777897 0.99408984
0.05916401 1.08082294 1.03019786
0.14222544 -0.57269728 1.01885366
-0.92194092 1.00384057 0.51035011
0.48073107 -0.99763596 -0.83484387
-0.77606142 0.14096956 -0.58857447
-0.09302446 0.09179670 -0.99014640
0.16844830 -0.49674609 -0.87879145
-0.46250704 -0.01581650 0.89133263
0.76673210 0.31478813 -0.49153507
0.32118031 0.93189049 0.18868221
-0.37642983 -1.00939035 -0.10750760
-0.76220763 -0.23304179 0.51646250
0.74649227 0.35272136 0.63404107
0.12447393 -0.84324849 -1.01113009
0.52787328 -0.57791108 0.82458431
0.53846836 -0.10228811 0.84655261
0.99712920 -0.16289783 0.01028010
0.84803617 0.99346071 -0.22560506
-0.91841292 0.09578127 -0.46329132
0.18034096 -0.99310243 0.87465137
0.10732948 0.99689013 -0.42335817
1.04164696 -0.68870109 -0.06593127
-0.50363803 0.27553678 -0.87931323
-0.26717481 0.93526310 1.00309348
-0.21655582 -0.72822446 0.92291373
-0.47812825 0.98894405 0.32060283
-0.42470220 -0.73643440 0.89155591
-0.44081429 1.01152802 0.20402931
0.83538151 -0.22419448 0.54545724
-0.36224514 -1.08567560 -0.89461219
-0.69887471 0.26047719 -0.71132565
0.93254602 -0.07834080 -0.22819115
-0.24823681 -1.04958200 0.57017475
0.48724633 0.96337515 0.22536503
0.34828475 -0.88587719 0.86733687
-1.04889941 -0.72262961 -0.18750721
0.65489388 -0.95890099 -0.53551006
0.86047065 -0.42918995 -0.62557912
-0.93840182 -0.90032744 0.18142889
0.86280227 -0.37367910 0.55104959
0.28868109 0.98919249 -0.30485970
-0.28535488 0.68459833 -1.01630068
-0.15503010 1.07187331 0.16746137
-0.16467768 0.81584710 1.04300213
-0.44413289 0.81359667 -0.87459844
0.06858178 -0.57782334 0.98556882
0.30866596 -1.04451025 0.02854553
0.31786808 -0.55216134 -0.92786902
-0.43573564 -1.06917942 -0.27329683
-0.57446158 -0.81956553 0.77642626
-0.93454266 -0.99905854 -0.10974206
-0.11396066 1.01114953 0.62575144
-0.51100838 1.01693654 0.71097821
-0.39832500 0.91658074 0.03677547
-0.16049768 -0.69739419 0.97454113
-0.47055972 0.95518142 0.63528734
-0.68534219 -0.47667095 0.73014933
-1.05073607 0.01063864 -0.31268677
-0.20411520 -0.99519068 0.30074003
-0.25250745 -0.20889609 -0.89618528
0.14027089 -0.61991304 -1.00828195
0.94050586 -1.00262535 -0.04032940
0.30111116 -1.01250207 0.30893067
-0.16817187 0.71717620 -1.02941370
0.14171880 -0.83605677 -1.03435636
-0.26092359 0.92976737 0.63765651
-0.52620888 0.83539045 0.90043229
-0.10864238 -0.71573061 -0.96266890
0.36310443 -0.49767289 0.96273512
0.02369640 1.03500283 -0.18383183
-0.14836358 -0.29309291 -0.95620763
-0.40469107 -0.94905627 0.01395482
0.47113544 0.47513148 0.75748575
0.95500875 0.64558679 -0.24037513
-0.51150966 -0.30587041 -0.79209805
-1.00832343 -0.56221843 -0.13107480
0.39114547 -1.04965425 0.32101184
0.05279283 -0.97378850 0.12543322
-0.32675731 1.05887592 -0.53611392
-0.20375484 -0.98063558 -0.51063162
-0.04463634 -0.96575904 -0.97268671
-0.26245320 -0.99971634 -0.24687438
0.94947517 -0.56247586 -0.43580303
0.37745106 -1.03589082 -0.51553732
0.81125891 0.60150719 0.50215930
-0.38548061 0.69851184 -0.91507292
-0.98419404 -0.81898707 0.07619436
-0.96916425 0.86182523 0.25314206
-1.04046869 0.11721303 0.07228296
-0.36834788 -0.62385434 0.87756324
-0.84482992 0.41527250 0.44089445
-0.94556916 0.09886006 -0.38530520
-0.65338159 0.32665342 -0.80005246
0.40341011 0.98590773 0.14097148
0.31275919 1.00649345 -0.43597424
0.49989218 -1.01669204 0.10854328
-0.08037537 -1.04908180 -0.39367101
0.55216086 -0.83650851 0.80258250
-0.56850827 0.13390335 -0.71920300
-0.49732730 -1.03080499 -0.57613415
0.51330507 0.98059386 0.33859494
0.07063007 -0.98362452 -0.83266544
1.09071887 0.32551485 0.16254213
0.95715845 0.12831548 0.12852252
-0.45825860 0.95762938 -0.41748497
-0.96987593 -0.29758787 -0.34256446
1.08156013 -0.16869867 -0.05362692
0.48678392 0.99699652 -0.21647595
-0.00803664 0.36679214 -1.00191092
0.06939171 -1.03848791 -0.81440550
-0.97809541 -0.58583200 0.09845277
-0.80346358 -0.40853494 -0.52069396
-0.16293013 -0.90064359 0.93307143
-0.91515958 -0.97013211 -0.04422326
-0.09381636 1.04254603 0.78837764
-0.43579465 1.02262270 0.61267531
-0.29695719 -1.08512580 -0.07553427
0.19914883 -1.06863761 0.31265998
-0.50336909 -1.00757611 0.24194512
0.18403114 -0.96934623 -0.49515373
0.46721476 -0.95350498 -0.29933360
-1.07877207 0.35633841 0.02636070
0.46445885 -0.46843535 0.95045918
0.87296188 0.46979621 -0.52486604
-0.68233216 0.43700621 0.75302368
0.12892409 -1.00578690 0.39628524
0.40295652 -0.82249355 0.96039051
-0.98498499 -0.06234553 -0.09292386
-0.01140968 0.72645164 -0.99919313
0.34482896 0.04862083 0.94861817
-0.92830801 0.67737651 0.22880845
0.87808836 -0.18246755 0.45825136
-0.94511175 -0.47732425 -0.50240481
0.22269064 -0.99006629 0.67459315
0.98286605 -0.57380217 0.33214206
0.15156314 -0.16566898 0.99609447
-0.56262100 1.02017260 -0.75569534
-0.96959114 0.06277400 -0.49944869
-0.20638479 -1.03910565 -0.51637214
-0.66095912 -0.77292860 -0.76107121
0.17412384 0.97192842 -0.80168760
0.40973175 0.99863595 0.14961536
0.60056019 -0.53299922 -0.75116777
-0.95226514 0.06002237 -0.23520333
-0.33186013 0.97027248 -0.31188327
0.22291289 -1.08489954 0.16001840
0.11737102 0.67486638 -1.05126286
0.09238455 0.00853862 -1.04495144
-0.22602083 0.66634721 -0.96380901
0.87182283 0.99934995 0.27009454
-0.53070772 1.00298572 -0.41952407
-0.12357178 -1.01760602 -0.55339265
0.05640601 -0.38879737 -0.99278384
-0.40792531 -0.39972770 -0.96759409
-0.04415358 -0.39347783 -0.97874838
0.90975976 -0.13427633 0.45730868
-0.72286487 -0.30793345 0.70896637
-0.51172531 -1.03299201 -0.70165080
-0.08117423 0.95743191 0.15982729
-0.31268448 0.69458330 -0.98253691
0.41444477 -1.01472485 0.20301256
0.48088700 -0.88133097 -0.33374605
-0.28361681 1.01945126 -0.86234170
-0.17870568 0.99419498 -0.38266417
0.17389411 -0.96459627 -0.75595880
0.83655405 0.69719118 0.44058290
-0.30149603 1.03328788 -0.59471291
0.88443136 1.01010573 -0.25170049
-0.76531732 -0.04515247 -0.61433780
-0.98308408 -0.39748001 -0.05536151
0.87451661 1.01145875 0.45173591
0.00057761 -0.99036056 0.46686876
-0.93826544 0.40275985 0.26048604
-0.90891194 0.18770510 -0.38859183
0.63961673 0.08616145 -0.80198693
0.17023703 -1.00106430 -0.52497268
-0.39195505 -0.32883355 1.00332999
-0.94210041 0.11763740 -0.29933256
-0.00183867 1.01765287 -0.02249744
0.63553965 0.68387866 -0.68840075
-0.06225041 0.93891656 1.03050065
0.31174818 0.98931521 -0.89623308
