0.00603587 0.06784950 0.00439036
-0.02863829 0.14553709 -0.01601666
0.04644529 0.09292798 0.01623685
0.07642797 0.07544641 0.01607426
-0.02190861 0.08586460 0.00584101
0.02440589 0.05738762 0.02219349
0.00069613 0.12938994 -0.00223851
-0.04589860 0.11290383 -0.02438421
-0.02335835 0.12098287 -0.02231436
0.04218984 0.06522892 -0.02934350
0.02345805 0.13652728 -0.01083305
-0.02824864 0.07791004 0.01679404
0.02891968 0.12156610 -0.03210045
0.04295973 0.10744574 0.01085374
-0.06499703 0.17122190 0.00565236
-0.02377066 0.16101563 -0.00967071
-0.03781882 0.16119137 -0.04762018
-0.01305761 0.06297016 0.01240936
0.05108624 0.09843563 0.02600904
-0.02186635 0.05366519 -0.02266931
0.00051669 0.10582215 -0.00038061
-0.04356731 0.14257301 -0.03003112
-0.02634533 0.14589432 -0.03010395
-0.07954527 0.06070951 -0.03208681
-0.06118164 0.05253088 0.01173969
0.05289803 0.07533824 -0.02429465
-0.03928330 0.13978592 -0.00428842
0.04181171 0.06054953 -0.03291094
-0.01051486 0.06797230 0.00374704
-0.04612009 0.13796371 -0.03364942
-0.05181726 0.07720256 -0.03105246
-0.08827705 0.17325123 -0.01280686
-0.07748090 0.07484013 -0.01683153
0.02632317 0.05829125 0.01369136
-0.07425218 0.06517480 -0.03270419
-0.04669061 0.16291988 -0.03544364
-0.06505556 0.16452563 0.00244194
0.07451572 0.06922157 0.01816888
0.06384782 0.11828382 -0.00881516
0.04119034 0.10066052 0.02782203
-0.10000984 0.14609297 0.00746959
0.02753243 0.10703240 -0.00081035
0.03712343 0.07709917 0.03025498
0.06043220 0.12873109 -0.01872657
-0.03162649 0.13178580 -0.03123069
0.07103181 0.07510066 0.00282319
-0.07568322 0.18875863 0.00096978
0.07191823 0.09640783 0.00214299
-0.02535964 0.13666953 -0.02083614
0.04764057 0.14729512 -0.02593053
-0.08307695 0.16588330 0.01467728
0.07561269 0.10328262 -0.00359361
-0.07639027 0.17304409 -0.01438449
0.02237797 0.05737644 0.02275738
0.03081845 0.07427347 0.01982063
0.02917610 0.06631853 0.00941368
0.01074993 0.12383882 -0.03108794
-0.00554872 0.13917254 -0.02323713
-0.05047561 0.14746250 -0.00607078
0.02670668 0.12232693 -0.01706507
0.06049326 0.05046456 0.00100112
-0.08343453 0.14018419 -0.00484628
-0.07579114 0.16600496 -0.01138884
0.03650039 0.07294473 0.02138033
-0.07421376 0.13919516 0.01003077
0.04896190 0.13772972 -0.00234326
-0.01280260 0.11085061 -0.02918068
-0.01415160 0.09598411 -0.03813791
0.04887802 0.08063351 -0.00764597
0.03038310 0.05611138 0.00367936
-0.03070865 0.06543061 0.02368102
0.00881814 0.06256026 0.00776202
-0.05042374 0.13391028 -0.01866258
-0.02819176 0.09705993 -0.00582113
0.01302351 0.14261416 -0.00855382
-0.06653722 0.13965493 0.00494459
-0.07056654 0.16066891 -0.02049188
-0.08626045 0.18234411 0.00011124
-0.02027840 0.18089429 -0.02289728
0.03055665 0.11731419 -0.01643764
0.05619686 0.10111244 -0.01882465
-0.07695820 0.15724170 -0.01540181
-0.02955404 0.05495162 -0.02007942
-0.01840543 0.11224904 0.00009949
-0.02170826 0.16721727 -0.00814135
-0.04935458 0.09082982 -0.01723966
0.01404510 0.05683026 0.01534205
0.03303332 0.08265364 0.01586142
0.04944800 0.10911000 -0.03026260
-0.02970454 0.16378596 -0.02376234
-0.05901847 0.09988521 0.00806640
0.09209259 0.13511784 -0.00746117
0.07352058 0.12658918 -0.00549470
-0.00845341 0.10360176 -0.03912681
-0.00617030 0.14373009 -0.01365556
-0.01438582 0.05423363 -0.01325648
-0.00865634 0.16423443 -0.01269374
0.08531363 0.12763663 -0.00726818
0.06326365 0.07025576 0.02489053
-0.02267158 0.19002941 -0.02445219
-0.00251700 0.10766031 -0.03477421
0.01427499 0.12958038 -0.03638000
0.07372668 0.05808339 0.01408218
-0.05411132 0.13785197 -0.02145948
0.03397508 0.13042624 -0.02754915
-0.07164267 0.05078708 0.00190302
0.04140956 0.15074538 -0.00701935
-0.00666799 0.06705100 0.01175429
0.03585863 0.06237066 0.01145083
0.04361875 0.05651689 0.01292828
0.04674732 0.08118266 -0.01178091
-0.06746943 0.18368843 -0.00387908
-0.03174826 0.06065301 0.02638217
-0.01178324 0.18610597 -0.03022401
-0.04892775 0.17137428 0.00235574
0.06370158 0.13047150 -0.01992188
0.02231589 0.05811439 -0.00536244
0.07164731 0.07896651 0.02169161
-0.01255111 0.08371221 0.01023811
0.05033895 0.13459027 -0.00384835
-0.07878681 0.10549022 0.01149221
-0.08822011 0.14309809 0.00285052
0.09721778 0.14660905 -0.00973818
0.03847334 0.07316778 0.02044423
0.01237573 0.06366372 -0.01966736
-0.02384832 0.15120897 -0.00285257
0.01641285 0.07680206 -0.00328142
-0.07947507 0.14471503 0.01452664
0.08419409 0.09461816 0.00122731
-0.01104374 0.12487000 -0.00634612
-0.05125902 0.17312948 0.00221146
-0.09648234 0.14940670 0.01622123
0.03758944 0.07078997 -0.02996329
-0.05234078 0.13164142 0.00122356
0.07460725 0.09178180 0.02312181
-0.07491800 0.17070651 -0.01355340
-0.07084751 0.14625999 -0.00972757
-0.02365448 0.05704814 0.02905285
-0.04119690 0.13918576 -0.00456495
0.04980020 0.07446957 -0.02973542
0.03895067 0.13750006 -0.03457334
0.00643348 0.09584597 -0.02199997
-0.01617506 0.05826461 -0.00253269
0.08045825 0.09586520 0.01286719
-0.09467492 0.16349831 -0.00997957
-0.03781337 0.17145425 -0.01336748
-0.03889873 0.07967690 -0.02756939
-0.04030685 0.08642633 0.01011138
0.03783116 0.05006203 0.00897312
0.04026891 0.06339581 0.00552623
0.01120745 0.11573099 -0.01079695
0.04662714 0.08849667 -0.02167326
0.08405368 0.14037107 -0.00178157
-0.03949455 0.14568786 -0.03472179
0.05727381 0.05621387 0.02133680
0.04562071 0.13962746 -0.02961288
0.05196992 0.05470699 0.01279934
-0.03936105 0.18454136 -0.00038043
-0.02520539 0.14625025 -0.04220726
0.02581645 0.05012541 -0.01294064
-0.04243220 0.05937078 0.00229970
-0.00600160 0.08653583 -0.02989245
-0.03591813 0.17325991 -0.02019455
-0.08003448 0.14119968 0.00661822
0.01761000 0.07610852 -0.00000806
0.05706517 0.12487011 -0.02316396
0.01278945 0.09243362 -0.00773827
0.01534440 0.07395869 -0.00639684
-0.03991868 0.08359097 0.01128103
0.05635387 0.08300625 0.00101216
-0.02115248 0.16435230 -0.00233548
0.02508742 0.13169208 0.00271459
0.05850681 0.10146376 -0.01621690
-0.01828032 0.07688713 0.00869776
-0.03747132 0.15502518 -0.04106610
0.07827732 0.13911234 -0.02181715
-0.05049774 0.06583895 0.02525616
-0.05101882 0.13069400 -0.01155597
-0.09884207 0.13693690 0.00536714
0.03145506 0.15534453 -0.00889109
-0.06346753 0.13326563 -0.01242036
-0.03450457 0.11049292 -0.01579844
-0.02692937 0.16878489 -0.00502220
0.05407118 0.13380164 0.00101979
-0.07183697 0.14820223 -0.01174523
0.09548011 0.14035706 -0.00573205
0.05219780 0.07037567 0.02443316
0.02673710 0.15835337 -0.00772904
0.04031049 0.08532235 -0.00361517
0.03870454 0.06976950 -0.04262827
-0.10342775 0.15164918 -0.00097158
0.01578590 0.08232270 -0.00987468
-0.02931435 0.16279015 -0.03938167
-0.03636383 0.18248032 -0.02617042
-0.07509252 0.11019674 0.00728252
-0.02710149 0.10895044 -0.01492172
0.03585479 0.16314468 -0.01028663
0.00560703 0.14688347 -0.02942434
0.03277890 0.07720950 0.00411835
0.04992265 0.15673760 -0.02568075
-0.02694114 0.05327464 0.01569533
-0.07726005 0.14859076 0.00178871
-0.04858424 0.13533044 -0.00647254
0.03080071 0.07076542 0.00963922
-0.01599470 0.17131379 -0.00963018
0.08465599 0.15228188 -0.01019552
0.03302269 0.07225586 -0.04360349
0.05868451 0.14626226 -0.01968167
-0.01262389 0.07254514 -0.02230024
-0.06248153 0.13211264 -0.00685486
0.06407914 0.13971138 -0.01739436
-0.02925265 0.15527117 -0.02053157
0.01489838 0.07729550 -0.02397211
-0.09548941 0.14772458 0.00031740
0.01116376 0.11801832 -0.03547745
-0.01917211 0.12405951 -0.00841957
-0.07166042 0.14066507 0.00271008
-0.07981502 0.14169298 -0.01132000
0.05305297 0.10611174 -0.02607906
-0.07570717 0.11142692 -0.01493848
-0.09754260 0.14806193 0.01789195
0.04280710 0.08006571 -0.02935357
-0.08790222 0.17284966 -0.00094338
0.06108178 0.13309653 -0.01368343
-0.10106651 0.14237866 0.00311216
0.03378326 0.07994217 0.02970856
0.07128434 0.08802880 0.01850011
-0.04219532 0.12811004 -0.03275422
0.04138882 0.12741965 -0.00355231
-0.01206852 0.12488114 -0.01162785
-0.08116613 0.08967473 -0.00851641
0.04136260 0.05620248 -0.00793338
0.05232521 0.08408219 0.01070714
-0.06495173 0.13536240 0.00315865
0.04034995 0.11307636 0.00209334
0.05256896 0.05930952 -0.01656894
-0.06382550 0.06332531 0.03433898
-0.00126443 0.11825684 -0.04062951
0.08787713 0.13197517 -0.00838390
-0.07202552 0.05749161 0.00766547
0.03632898 0.13962418 -0.03971052
0.06311023 0.12181438 -0.02200545
-0.02375620 0.09399293 0.00785279
-0.07458492 0.07932796 -0.02905512
0.05541512 0.05408676 -0.02354003
-0.05271071 0.16082376 0.00119891
0.03030508 0.15573253 -0.02855761
-0.09339834 0.14367539 -0.00505055
-0.08736843 0.16759528 -0.00917333
0.01904995 0.07136892 0.00810480
-0.02262546 0.12084445 -0.00962747
-0.05215282 0.15932615 -0.00185972
0.03736418 0.09270047 -0.03552517
0.03815214 0.05926054 0.00187902
0.00644464 0.14288957 -0.01329231
0.07285793 0.10213006 0.01716181
0.06703478 0.06215052 -0.00116968
0.03657999 0.11601026 0.01566104
-0.04024266 0.13936929 -0.00279928
-0.00113316 0.13361551 -0.01103196
-0.04149581 0.08269648 0.01669492
-0.07453889 0.15051064 0.00687557
0.02634182 0.06154914 -0.04488489
-0.06176287 0.08411207 0.02233116
-0.01068619 0.07104792 -0.00137707
-0.07545245 0.08199556 -0.01745792
-0.04966834 0.17283078 -0.03403213
-0.06928610 0.12498404 0.00237690
-0.02458741 0.08999547 0.00343717
0.02349939 0.11807892 -0.01930107
-0.05608216 0.15517616 -0.01335272
-0.06233760 0.07782715 0.03270654
-0.04609994 0.13432270 0.00845609
-0.02551744 0.08461148 -0.02862368
0.02923689 0.06152923 0.01293407
-0.08185884 0.10230705 -0.01131011
0.03160324 0.14302529 -0.03742886
-0.03679911 0.09772477 -0.00991189
0.08523120 0.13017236 -0.00388909
-0.00987255 0.06514320 -0.01494020
-0.01482295 0.08366551 0.01380453
0.00971388 0.08568269 -0.01788294
0.04867316 0.05054522 0.01650816
0.06317660 0.07316276 -0.02492231
-0.06472483 0.14242876 -0.00975071
-0.04833840 0.07807887 -0.03093813
-0.07773810 0.06041888 0.00352853
0.05561038 0.06367142 -0.02798484
-0.02681830 0.16772799 -0.03993851
0.00654496 0.13525093 -0.00442400
-0.06630044 0.14058870 -0.01248100
0.01385625 0.11712253 -0.00871109
-0.02083175 0.16605723 -0.02445011
0.04855692 0.07104754 -0.00675305
-0.08836960 0.08080627 -0.00484299
-0.01334117 0.06854077 -0.03181936
-0.08857740 0.08138153 0.00756639
-0.06566836 0.14775909 -0.00442120
-0.08655440 0.06285323 -0.02039663
0.01464037 0.15601921 -0.02484530
-0.04743236 0.17402592 -0.03696526
0.06495021 0.08507268 0.01001200
0.03179497 0.05408922 -0.00098449
0.05215945 0.14569178 -0.02720907
0.06937841 0.12869151 -0.00468157
-0.06646419 0.17926684 0.00319081
-0.06977113 0.14756694 -0.01905628
0.05577241 0.12196841 0.00134399
-0.03624757 0.06678078 -0.03787581
0.01734260 0.09064285 -0.00514428
0.02296821 0.15095949 -0.00216719
0.01736407 0.08506170 0.00455593
0.05286938 0.14702679 -0.02373740
-0.03582770 0.17727450 -0.02479823
0.03036151 0.06965973 -0.03242549
-0.07718689 0.17212908 -0.00370972
-0.07888044 0.14826369 0.01660494
-0.01577085 0.11979330 -0.00933566
-0.08119503 0.14951108 -0.01259116
0.00197430 0.14899543 -0.01481604
-0.01826233 0.09965022 -0.00132437
-0.07373612 0.06987926 -0.02006413
0.03968928 0.10610236 -0.00094895
0.02721064 0.09920893 -0.00746412
-0.03097437 0.16010347 -0.02841563
-0.07418566 0.05327296 -0.00330973
-0.05782564 0.15733469 -0.02778825
-0.05334691 0.09247939 0.01911073
-0.06361943 0.06249713 0.03305271
-0.02715803 0.10600999 -0.01250103
0.03902711 0.09338173 0.01382964
0.00787129 0.05900501 0.01781652
-0.02965803 0.11988423 -0.01218572
-0.02822250 0.17040002 -0.01016318
-0.04022115 0.11032407 -0.01521273
0.05151878 0.09537427 -0.01298083
0.01081917 0.07845519 -0.00439638
-0.07013488 0.17104508 0.00673311
0.01462780 0.06733680 -0.01664736
0.03615716 0.08850724 0.02789925
-0.01619999 0.18433765 -0.02978386
-0.02275236 0.06628332 -0.02728800
0.01935301 0.05996501 -0.01548586
0.06752238 0.05274586 -0.01689856
-0.03437360 0.14762905 -0.03601922
-0.07669124 0.05404949 -0.02710552
-0.08153211 0.10251575 -0.01647085
0.01169923 0.11325833 -0.02293421
-0.06760330 0.17660117 -0.02213842
-0.05869168 0.06815852 -0.03457852
0.03611681 0.08892350 0.00895611
-0.01770403 0.14475772 -0.01909112
0.03601563 0.06672117 -0.04921632
0.05449032 0.06892801 -0.01704668
0.03375650 0.09120414 0.02787028
0.00161713 0.05986596 0.01049196
-0.05902525 0.13089758 -0.00281166
0.00998644 0.16029698 -0.02409517
-0.02984469 0.18673100 -0.02657202
0.06739978 0.08680409 -0.00140153
0.04305747 0.08347040 -0.01909248
0.02952350 0.14216341 -0.00680371
0.04161047 0.14907746 -0.01184039
-0.05406068 0.14203991 -0.01141683
-0.02272303 0.17229323 -0.00364066
0.02066182 0.11956595 -0.02168951
-0.08530662 0.14239724 -0.00554156
-0.07487424 0.06891854 0.01216106
0.03660662 0.10949903 0.00415620
-0.09509294 0.17320788 -0.00311255
-0.07777631 0.16702503 -0.01603255
-0.06346016 0.15979050 -0.01001673
0.04692148 0.14813223 -0.01792769
0.03259674 0.07453494 0.01936774
-0.08156164 0.08096425 0.01051050
-0.01595796 0.16142978 -0.03099659
0.02053443 0.10052320 -0.01341583
-0.05889750 0.14099097 -0.00558059
-0.03649154 0.05858158 -0.00696999
-0.07707404 0.16639134 0.00323337
0.02400170 0.06964000 -0.03613550
-0.01197358 0.12807688 -0.03189996
-0.00627431 0.10732901 0.00021042
0.04391055 0.10596987 -0.03014721
-0.06234591 0.06213351 -0.04151570
-0.06801932 0.08989154 0.01905269
-0.08498184 0.14882930 -0.00431869
0.04848615 0.07575370 0.01379995
-0.04771647 0.15943819 -0.03133591
-0.03151607 0.16713957 -0.04003807
-0.06719260 0.05257857 -0.00559509
0.04963627 0.07891814 -0.00591347
0.06460170 0.05771840 -0.01835666
-0.05097520 0.11673710 0.00685026
0.02205500 0.07770896 0.01817280
0.07356817 0.14121857 -0.01881598
0.04434539 0.06668709 0.02258812
-0.09437096 0.16830362 -0.00309929
0.07463212 0.09148631 0.00330095
-0.01924625 0.07721357 0.01177195
0.04884100 0.09589019 0.02273570
-0.01797528 0.05802535 -0.01663010
-0.01964761 0.11812518 0.00097304
-0.03475779 0.14978316 -0.04133823
-0.04584940 0.09953781 -0.00230520
-0.05948681 0.15372223 -0.00891122
-0.08263449 0.10153808 0.01236054
-0.08571380 0.16728720 0.00191469
-0.00379085 0.12285608 0.00123507
-0.05925318 0.17877257 -0.02370654
-0.03679323 0.17079784 -0.03641114
0.03840347 0.12645651 0.00368483
0.04648807 0.10035792 0.01821251
0.07835569 0.09796203 0.00889480
0.02142848 0.05258356 -0.00827528
-0.02985949 0.18212444 -0.01356753
-0.07937285 0.16526204 -0.01795967
-0.02931068 0.18448158 -0.02850962
-0.03705726 0.17066468 -0.00202942
0.02474191 0.08417894 -0.00224242
-0.10022701 0.15584061 0.01604051
-0.00744149 0.10636903 -0.03475149
0.04942134 0.07634053 -0.01870222
-0.04528051 0.17781009 -0.02350433
-0.01704993 0.06018906 -0.01385962
-0.02950749 0.09066273 0.00427121
0.05878637 0.12237250 -0.01880324
-0.01037645 0.07439465 -0.01999892
0.03627841 0.08188693 0.02021884
-0.07395475 0.14585558 -0.00459063
0.02216032 0.09662092 -0.02955564
-0.07664116 0.07290296 -0.01994941
-0.03655640 0.18497056 -0.01233962
0.04896051 0.07318743 -0.02794130
-0.08030044 0.15511078 -0.01734591
0.07025490 0.08507397 0.01746526
-0.08679587 0.18130696 0.00685918
0.07939509 0.12388851 -0.02237080
-0.00059786 0.07557075 -0.01319059
-0.04067200 0.14342541 -0.03527223
0.03048052 0.05345529 -0.03027606
0.04218282 0.06839518 0.02507311
0.04990889 0.14471729 -0.03308011
0.02347032 0.06360838 0.01310159
-0.00034953 0.08162324 -0.02893231
-0.00609370 0.10098580 0.00575861
0.07676849 0.11078776 -0.00779510
0.00597416 0.15268190 -0.02207614
0.00727568 0.08290315 -0.01489481
0.04328167 0.09901548 -0.03521930
0.04559881 0.11543167 -0.02779794
-0.05453252 0.13933243 -0.01697309
-0.02586001 0.12089473 -0.02414454
0.06429534 0.11370565 -0.01862888
-0.04139047 0.07692138 0.01356652
0.01128984 0.05940765 0.02086254
-0.07222378 0.08631423 -0.03673178
0.09178320 0.14529490 -0.01014339
0.02371084 0.05504276 -0.02280778
0.03125486 0.10678238 0.01016193
0.03935147 0.11689147 0.00017415
0.03745028 0.06033767 -0.02768562
-0.04251320 0.11294927 -0.01755619
-0.03856109 0.17438307 -0.01955618
-0.02565386 0.07902828 0.02600252
-0.07691373 0.06515001 -0.02103294
0.07695222 0.08790337 0.01696875
-0.06287473 0.15698947 -0.01993843
0.04282336 0.05302112 0.00028147
-0.07484086 0.15963571 0.01324576
-0.09159248 0.13854574 0.02002194
0.03123498 0.11819831 0.00795699
-0.03291002 0.15233620 -0.03282826
0.01579077 0.15380825 -0.00643970
-0.00644754 0.11240201 -0.02236890
0.01750473 0.06824467 0.00775902
0.00893230 0.10209042 -0.01012273
-0.04977226 0.15704004 0.00106068
-0.01199729 0.13670798 -0.02058922
-0.04321222 0.07071427 0.02733964
0.06322259 0.06456727 0.02261041
0.01428099 0.12676147 -0.01112673
-0.08481497 0.07018157 -0.00615207
0.01952828 0.07750225 0.00682803
-0.06976009 0.07192524 0.01659901
-0.08968381 0.16942537 0.01711147
0.05675257 0.10466632 -0.02373937
-0.09944754 0.14957467 0.02623915
-0.03244776 0.17330982 -0.02007037
-0.07927595 0.17848256 0.00692320
-0.06966528 0.06445667 0.01026301
-0.04198365 0.18018591 -0.02318723
-0.03315255 0.10102244 -0.01348089
0.01520497 0.09145638 -0.02152430
0.06344063 0.05719820 0.00299423
0.03888416 0.08301517 -0.00227653
0.00806497 0.06097564 0.03080861
-0.05480179 0.17092645 -0.03044287
0.05335383 0.08010115 -0.00223464
0.07007168 0.07976610 0.02082414
0.07547547 0.11999734 -0.00598123
0.06365989 0.08145622 0.00538277
0.02182697 0.10319342 -0.02040933
-0.06864544 0.07618925 -0.03042962
0.04215610 0.10347356 -0.03353310
0.06162285 0.11569729 -0.00847455
0.07548070 0.12535007 -0.00524137
-0.06908298 0.15013613 -0.01220366
-0.03366274 0.16917141 -0.03925868
-0.04679604 0.05676571 -0.04279723
0.01001648 0.14938875 -0.02976802
-0.06536403 0.05971530 0.01472663
0.04949362 0.05821067 -0.02502158
-0.04444788 0.05641012 0.01319941
0.08563821 0.13958505 -0.01832622
0.04305420 0.10749357 0.01455088
-0.05297168 0.11630799 -0.02545377
0.05803478 0.06982339 -0.01874462
0.02270448 0.15260437 -0.00598242
-0.06179332 0.14528109 -0.02475130
-0.03648667 0.15100777 0.00024713
0.00791125 0.06031308 0.02274354
-0.05137019 0.15445252 -0.02541907
0.06271166 0.08626805 0.00831880
-0.07193168 0.14908180 -0.01110074
-0.05330491 0.05682206 0.03533081
0.02884917 0.06080016 -0.03927596
0.01565113 0.08107218 -0.03551001
-0.04718025 0.14157593 0.00063477
-0.05757329 0.14130053 -0.00828161
0.03869222 0.13362451 0.00314107
-0.02630019 0.10428828 -0.02269844
-0.02107931 0.12482968 -0.02138258
0.00280032 0.10367583 -0.03759206
-0.06783217 0.06223568 -0.03530153
-0.03103484 0.15856314 -0.02575932
-0.07105400 0.10454547 0.01228297
0.08765367 0.15239921 -0.00276344
-0.04313745 0.15726399 -0.03308946
-0.06163885 0.17894423 0.00474028
0.05428243 0.15152106 -0.01533126
0.05386650 0.11476379 -0.03326846
-0.03741589 0.14510514 -0.03343811
0.06670675 0.10761693 -0.00901657
0.04731317 0.09173670 -0.03018744
0.06049809 0.14093573 -0.01247715
0.02775731 0.07901947 0.03279067
-0.03294626 0.09534235 -0.02189518
-0.09541398 0.14634201 0.02317580
0.03305383 0.06566414 0.01075107
-0.02702507 0.13295196 -0.01093959
0.07360940 0.13537507 -0.02028034
-0.07971366 0.06765222 -0.02092201
-0.04605520 0.10924336 -0.00057712
-0.07536659 0.05906340 -0.02780358
0.05836505 0.11543857 -0.00911784
0.04835711 0.14487135 -0.03310387
0.06662580 0.13538846 -0.01730417
0.03250091 0.11473108 -0.01736359
0.07885757 0.13342595 -0.00974731
-0.05082644 0.05840924 0.00135575
-0.04511327 0.17629883 -0.02981340
0.03395028 0.08206767 0.01964808
0.06197145 0.08631633 0.02539403
0.00419878 0.11101677 -0.03534070
0.07199488 0.05533056 -0.00289407
-0.02882558 0.18196604 -0.00770657
-0.04507621 0.08915563 -0.01281561
0.02898522 0.05874247 -0.05331945
-0.08086552 0.10973389 -0.00719873
0.07790115 0.10738607 -0.00648330
-0.07766064 0.14495701 0.01669792
-0.03884527 0.07813442 -0.02780854
0.00730181 0.05979887 0.00335835
-0.06195324 0.09899425 -0.01834323
-0.08584749 0.16466096 0.00228681
-0.03290841 0.15232620 0.00182390
0.06238324 0.06013580 -0.01666523
0.00452356 0.11208793 -0.03333473
0.04634338 0.07184694 -0.03394440
0.03401974 0.11580990 0.00543526
0.04539856 0.10536864 0.02153935
-0.02353077 0.14843728 -0.00014581
0.05205685 0.15315130 -0.01865758
0.02084020 0.16033913 -0.00437834
-0.04653676 0.06052053 -0.04332500
0.03823973 0.15039438 -0.00546533
0.01522402 0.07051779 -0.03570074
-0.05623647 0.14464870 0.00718623
-0.01889393 0.16751367 -0.01719223
-0.05985608 0.08979602 0.01725442
-0.08460969 0.08087449 -0.01481748
-0.04996799 0.17702042 -0.00140350
0.00005420 0.09653199 -0.02761484
0.04619757 0.14246507 -0.00398087
-0.09707882 0.17682648 -0.00788281
0.07674116 0.10526319 0.00715480
0.03289440 0.10034268 0.02312563
-0.06795141 0.11586797 0.00074916
0.02576792 0.10838775 -0.02334546
-0.00918440 0.05775432 0.01863059
-0.01861694 0.07206920 -0.02868873
-0.03570933 0.06386703 0.01675183
0.03962114 0.05394880 0.01132165
-0.04041763 0.06276985 0.03319703
-0.07876371 0.14591575 -0.00164128
-0.05805422 0.06620592 0.02017415
0.06711951 0.05886263 -0.00623409
-0.02561514 0.18714017 -0.01118195
0.00496151 0.10154480 -0.02708525
0.04626914 0.06487437 0.02034325
-0.05333994 0.13965404 -0.00924667
0.03849274 0.07437146 0.00769544
-0.02147149 0.18950826 -0.02489866
-0.08746550 0.09848406 0.00090262
-0.07484610 0.17195939 -0.01143136
0.00356613 0.12241487 -0.03533904
0.06589334 0.12608942 -0.01590025
0.03828878 0.06931733 0.01477546
-0.05198833 0.14813343 -0.00872928
-0.07145877 0.16401766 0.01216514
0.02947585 0.11085361 -0.00101886
0.08344161 0.11133686 -0.01471620
0.00437446 0.10577685 -0.02447642
-0.04143646 0.12338580 -0.03026207
0.04004645 0.14802514 -0.00449754
-0.02367769 0.18949950 -0.02352315
0.04217998 0.09853368 0.02143178
0.02851665 0.08455657 0.01178739
-0.08371680 0.07634439 0.01152986
-0.01195697 0.12254540 -0.02647191
0.07554381 0.12027013 -0.02157237
-0.04057128 0.11069403 -0.01229447
-0.05781980 0.05347270 0.00382738
-0.03828095 0.09112008 -0.01822444
-0.08902313 0.15448275 0.01673986
-0.05289994 0.06818679 0.02410327
-0.07572886 0.17062488 0.00065526
-0.06670582 0.15393543 -0.00489522
-0.05052256 0.09182988 0.02055361
0.08183309 0.12147677 -0.01737854
0.08412012 0.09614006 -0.00715567
-0.07270929 0.12114922 -0.01259780
-0.09085897 0.14804743 0.01643905
-0.04694334 0.05784447 0.03311665
-0.06941882 0.06962920 0.03270384
0.03007887 0.12986186 -0.03071808
0.01022400 0.10626582 -0.03390985
0.07064577 0.14363328 -0.01741714
0.04381038 0.06408313 0.01331527
0.04346567 0.15007585 -0.01867590
0.00149094 0.07667525 -0.01764579
0.07873628 0.06860128 0.00693078
-0.06234013 0.14481597 -0.01618271
-0.04617599 0.07574046 0.02956102
-0.03909943 0.05601315 -0.03482714
0.05650938 0.13401131 -0.00271147
-0.04405288 0.17179172 -0.03983641
-0.01428329 0.11328660 0.00001397
0.03994325 0.09382407 -0.03639915
-0.06189924 0.13434879 -0.01186265
-0.03795973 0.05613506 -0.04560609
-0.01127182 0.13604680 -0.01469557
-0.06266679 0.15883672 -0.02650928
0.07529850 0.09675840 0.00762162
-0.02750928 0.11832172 -0.01663223
0.06558453 0.10338358 0.00190323
-0.06070392 0.12821151 -0.01898647
-0.02586258 0.12621872 -0.00635947
-0.10125310 0.16663043 -0.00605307
-0.01518131 0.11658383 -0.00629744
0.02976590 0.11181340 -0.00864591
0.04255320 0.15170816 -0.02744531
-0.05925385 0.16515875 0.01224255
-0.06233858 0.06703123 -0.03417074
0.02482751 0.05376118 -0.00043375
-0.02370778 0.10060270 -0.02738481
-0.01350841 0.10109591 -0.02600399
0.03883707 0.14589132 -0.00286714
-0.02136739 0.15706907 -0.01095246
-0.03387581 0.08895285 0.01285601
0.05781131 0.08121236 0.01836324
-0.05712057 0.08421613 -0.01567604
0.08996844 0.13988145 -0.00545734
-0.05242654 0.17961644 -0.00057053
-0.06463939 0.11832673 -0.02286029
0.04153335 0.05696448 0.01837898
0.07308950 0.13603209 -0.01604500
-0.04069162 0.05352262 0.01640432
-0.04991012 0.09114346 -0.01309510
-0.01605638 0.10740268 -0.02382622
0.00925572 0.07217744 -0.01156197
-0.01096050 0.10928670 0.00405680
-0.08268369 0.17773379 0.00469011
-0.08477115 0.16420099 0.00393743
-0.07749382 0.06303570 -0.02502844
-0.08644114 0.09133539 -0.00553538
0.06957121 0.11299083 -0.00984466
0.02570154 0.07219219 0.02589921
0.06451707 0.11162305 -0.00914183
-0.04309815 0.06942608 0.02781304
0.09325424 0.14845526 -0.01091761
-0.08524102 0.11033423 -0.00544127
0.00546537 0.09521844 -0.01525895
-0.06949794 0.07650717 -0.02017586
-0.04407163 0.16541731 0.00485331
0.06822740 0.12545377 -0.01719038
0.07936663 0.12898596 -0.01105571
0.05992970 0.05520210 -0.02680077
-0.02114617 0.08473089 -0.03112007
0.03449797 0.08851028 0.01191621
0.05624247 0.10387012 -0.02001802
-0.01164208 0.16264446 -0.01647734
-0.09618868 0.13880140 0.00094976
-0.08078843 0.09115402 0.01555882
0.05561088 0.14299248 -0.02916096
0.02715330 0.05739959 0.02427020
0.02508407 0.05942920 0.02766554
-0.07814894 0.14206606 -0.01090304
0.04352184 0.07132462 -0.04253788
0.04341232 0.05881862 -0.00647489
-0.04520439 0.10414261 -0.00282061
-0.04755354 0.12050382 0.00945149
0.06719700 0.11307813 -0.00711617
0.05088374 0.08928375 -0.01257448
0.00945184 0.11407787 -0.02009526
-0.04043314 0.05205545 0.00751039
0.05127474 0.08054540 0.00930742
-0.07298051 0.11380360 -0.00097864
0.01888341 0.06109344 0.02439458
0.03116768 0.07768394 0.01396774
-0.05733676 0.08383069 0.01679902
-0.02727832 0.14376894 -0.02981086
0.03492863 0.13258196 -0.03557365
0.08464821 0.09064636 0.01621502
0.00234305 0.08381777 -0.00568756
-0.03683421 0.16871819 -0.03817648
-0.07819555 0.16137108 0.00423903
0.04846531 0.07695588 -0.00271308
0.01344620 0.12719826 -0.01230653
0.01384594 0.15424342 -0.01248269
0.03536162 0.05789858 0.00009384
0.00521871 0.14737578 -0.02592902
-0.02281354 0.08657010 0.00143411
-0.06305721 0.06824587 0.02623426
-0.07990663 0.07836287 0.01322121
0.08256932 0.08934832 0.01114680
-0.05980446 0.16863276 -0.02845964
0.02537277 0.11090559 -0.01664693
-0.03017120 0.08253101 -0.02102146
0.04349604 0.08508766 0.01626206
-0.06061585 0.14908043 -0.00322989
-0.03117397 0.19070798 -0.01420911
-0.04652094 0.05936901 0.00238611
-0.04963992 0.11784045 0.00748627
0.02955928 0.08569419 -0.03524110
0.01921162 0.08006935 0.00584036
0.02734420 0.07678088 0.01908528
-0.04881153 0.12461676 0.00382918
-0.06126061 0.14800534 -0.01609628
-0.01862349 0.10029085 0.00083775
-0.08960538 0.14968927 0.01916760
-0.07830691 0.10948835 -0.01110408
0.04680666 0.13860501 -0.03847722
0.01965303 0.12145503 -0.01780424
-0.04776019 0.07171783 0.03663763
-0.01567949 0.12394129 -0.02923217
-0.00545088 0.14156693 -0.03222720
0.03545767 0.05589540 0.00622955
-0.02986931 0.04965916 -0.02698039
-0.00692229 0.12905471 -0.03583058
-0.04175627 0.06680177 0.02672451
-0.06198859 0.18308151 -0.01402288
-0.00508035 0.14261372 -0.00547003
-0.03608198 0.08126539 0.02416520
-0.03726650 0.17250624 -0.00503254
0.04859184 0.13838822 -0.00633400
0.08666641 0.09736738 -0.00293076
0.01120938 0.11208559 -0.02937100
-0.04449184 0.15515545 -0.04340056
0.04618455 0.15761907 -0.01971202
0.01675343 0.09243468 -0.02612913
-0.01441822 0.12101106 -0.01978050
0.00040951 0.14879450 -0.03012856
-0.01048108 0.06813032 0.01824533
-0.08198938 0.15903114 0.00793528
-0.06477433 0.16953617 -0.02072027
-0.05904196 0.12069039 -0.02801296
0.02767959 0.15043119 -0.03974563
0.08317243 0.14374882 -0.00755464
-0.04595806 0.12667476 -0.02825351
-0.03183382 0.17878249 -0.02156113
-0.04009231 0.07949191 -0.03348711
-0.02759192 0.16610330 -0.02998511
-0.09206808 0.14688480 -0.00036897
0.04273321 0.11910562 0.01085594
-0.03206892 0.05399834 -0.02688311
0.01487182 0.13652737 0.00250782
0.02505877 0.15396829 -0.03270860
-0.06440959 0.05168241 -0.00321786
-0.05362125 0.16752416 0.00276219
-0.05236123 0.06710374 -0.03049345
-0.02965941 0.07470880 0.01598745
-0.01104653 0.16102859 -0.01217629
-0.00802949 0.06512234 0.00675561
0.01501824 0.06709976 0.00634745
-0.00430616 0.11642168 -0.03489976
-0.05900804 0.11444412 -0.01512150
0.06777790 0.06722955 0.02751937
0.05072100 0.10251510 0.01713574
0.03786740 0.07133152 0.01890509
0.04767007 0.14323953 -0.00373104
0.02221676 0.05809543 -0.00251420
-0.08219788 0.09115462 -0.00838312
-0.06051537 0.12311440 -0.02415021
0.07536139 0.10088909 0.00820884
0.07288287 0.08144766 0.02381198
-0.06424221 0.14703044 0.00093083
0.02726678 0.12678173 -0.03168189
0.04375318 0.04625277 -0.01537163
0.04813496 0.07825199 -0.01507156
-0.00440713 0.10479345 -0.00077331
-0.03270608 0.14978302 -0.03582835
0.00995537 0.14752179 -0.03819325
0.03927796 0.06469898 -0.03748475
0.06833431 0.08062442 0.00499965
0.06739912 0.10571989 -0.00233294
-0.07457788 0.14415342 -0.01319811
0.03029858 0.08862740 0.02300901
0.04359201 0.14439408 -0.00560228
-0.05853807 0.07636262 -0.03717860
-0.04051311 0.06866002 0.02908941
0.05038820 0.11403520 -0.00452320
-0.05644041 0.18204170 -0.00366717
0.06150009 0.09428927 0.00813664
0.04947386 0.10761753 -0.00894810
0.01915783 0.13820469 -0.00385112
0.06076035 0.08478522 0.00218623
0.03824650 0.09022179 0.02738657
0.01960611 0.06859395 -0.02976521
0.01580607 0.08650389 0.00137457
0.07284979 0.06234098 -0.01349920
-0.02837460 0.09087928 -0.02878011
-0.05336343 0.13908824 -0.00376524
0.03663155 0.07889754 -0.03960422
0.07918891 0.11883221 -0.00603153
-0.04731087 0.08135403 0.01720829
-0.04989349 0.08294158 0.01868986
-0.06488901 0.07840692 0.02236654
-0.04656890 0.05641085 -0.03079647
0.03374942 0.12339436 -0.01061478
0.05398685 0.14351499 -0.01647110
-0.07095648 0.14432958 -0.01946804
0.03794903 0.07229952 0.02031331
-0.05757774 0.17636274 -0.02478114
-0.09798852 0.14889489 0.01725016
0.01468974 0.07777196 -0.00358597
-0.04480962 0.05594066 -0.02557103
-0.03269595 0.14906913 -0.03200600
0.05454909 0.07551549 0.02790227
-0.06499304 0.09126038 0.01228292
-0.08274831 0.05838349 -0.03226970
0.08059087 0.07846107 0.01293408
-0.05180977 0.08696078 0.02566785
-0.00418591 0.11844810 -0.02786362
-0.02435399 0.08973836 -0.03128389
-0.00120006 0.07988698 -0.00294831
-0.05682367 0.15621564 -0.00917437
0.04599948 0.05823224 0.00001361
0.01984757 0.07024530 -0.03515387
0.03167773 0.07791705 0.00859952
0.03186944 0.07008092 -0.03496483
-0.04622297 0.10813019 -0.00549139
0.02315594 0.09049248 -0.02166316
-0.07278182 0.17762822 -0.01294081
0.06563599 0.05514025 0.00411672
0.03471267 0.11397658 -0.00303667
0.01156503 0.06919385 0.00646052
0.03387443 0.07678621 0.02861493
-0.07235530 0.10773072 -0.01198709
-0.00224543 0.05421428 0.02374982
-0.06175758 0.16270341 0.00140978
0.01404551 0.06239027 -0.00714774
-0.01890963 0.05231874 0.01830806
-0.00638381 0.06806509 -0.01420659
-0.06557983 0.15987638 0.00304337
-0.05096682 0.05425152 0.03407058
0.00198172 0.08892954 0.00115032
0.04355538 0.13760693 -0.00846993
-0.01145288 0.11956766 -0.00424589
-0.02563866 0.15067236 -0.01918932
0.01313314 0.13215835 -0.00490275
-0.08452800 0.14460818 0.01495561
0.05384513 0.07042885 -0.01276764
-0.02701413 0.08277474 -0.02862686
-0.03605626 0.11984744 -0.01129751
-0.03513772 0.09234300 -0.01508818
0.06861459 0.10777812 -0.01522433
0.03153038 0.09498880 -0.03403743
-0.03523777 0.08927105 0.00524194
-0.03745612 0.05152759 -0.02021146
-0.03839136 0.18842180 -0.02632923
0.01766458 0.05742330 -0.02812533
-0.08505756 0.06368960 -0.02182103
-0.08133245 0.06017338 -0.01947407
-0.05815386 0.05291637 0.01611769
-0.04908631 0.09305769 -0.01350071
-0.05806308 0.06518935 0.04572865
0.02539941 0.08746254 -0.04194403
0.04772360 0.06203152 -0.03191184
0.01760622 0.06101935 0.00525802
0.07024805 0.11346384 -0.00189132
-0.04367384 0.16045314 -0.03275389
0.07866949 0.14461918 -0.02148159
-0.03390919 0.17840761 -0.04430083
-0.09073897 0.09194953 0.00354227
-0.02955279 0.09049933 0.00832866
0.04983800 0.09498997 -0.00988157
-0.09232427 0.17895001 -0.00242579
-0.02394134 0.05000512 -0.00832612
-0.00557259 0.11995354 -0.03459180
0.03962006 0.05562235 0.02874949
-0.09158319 0.17879385 0.01705104
-0.05226919 0.13527986 -0.00019266
0.07239851 0.12391414 -0.01695165
-0.00555670 0.06121437 0.01321992
0.01274184 0.07108593 -0.03224558
-0.03386929 0.07475443 -0.02510336
0.06624065 0.12202273 -0.01724239
0.06205427 0.12048794 -0.02311793
0.03774322 0.09288035 -0.00240408
0.03970646 0.06371234 0.00890119
-0.05867846 0.17208889 -0.02559834
0.07027134 0.08594365 0.02787797
0.04282248 0.08669361 -0.03385034
-0.06573970 0.17735641 -0.00203388
-0.07495718 0.09406892 0.01136808
0.00827458 0.10772599 -0.01719288
0.04057121 0.08544093 -0.02806407
-0.03984962 0.14134181 -0.00004849
0.04251866 0.07592250 0.01866588
0.04543015 0.11832594 -0.03141682
0.07180259 0.09956773 -0.00005299
0.07938360 0.08042348 0.00029990
-0.06846629 0.15057486 -0.02159901
-0.04509407 0.05984797 0.03917645
-0.03913738 0.05660301 0.01037156
-0.09362994 0.14489736 -0.00478500
-0.03553655 0.17753261 -0.00616717
0.02414722 0.07660498 0.00487304
-0.08834532 0.18262267 -0.00063136
0.05985595 0.13754414 -0.01218883
-0.03846821 0.07610408 -0.03890627
0.01941416 0.12722935 -0.03248561
0.03737818 0.06545873 -0.04291896
0.02276600 0.08188849 0.00894657
-0.03560702 0.05252377 0.01200036
-0.01573700 0.15723306 -0.01499356
-0.06441279 0.12269974 -0.00194091
-0.08217404 0.17746592 -0.00186251
-0.01022502 0.13968892 -0.01539891
-0.01968112 0.11477961 -0.00747220
0.01748224 0.08272327 -0.01775368
0.04629134 0.15025416 -0.02613374
-0.00045096 0.15748201 -0.02475045
0.03736376 0.06117620 0.01391372
-0.08462615 0.09503587 0.00038979
-0.03003194 0.06888159 0.01281993
-0.03372106 0.06003851 0.01696474
0.07225788 0.06817077 0.02234313
0.00234311 0.14839861 -0.00976997
0.02836267 0.10241178 -0.00706940
-0.05210384 0.06621014 0.03687100
0.02338903 0.04615157 -0.00579710
0.02680263 0.15618990 -0.02829667
0.05441428 0.12326196 -0.00392312
0.01775420 0.13713047 -0.03566729
-0.02827483 0.10059613 -0.01017278
-0.02889767 0.16668394 -0.02012899
-0.06534312 0.05986496 0.02328537
-0.01144744 0.13465333 -0.02029815
-0.06147167 0.05683226 0.00281096
0.05704435 0.11759631 -0.02448873
0.01347409 0.15854397 -0.00902704
-0.05011711 0.05554575 -0.00231377
-0.02706688 0.14357585 -0.00533181
0.05424490 0.10494735 -0.01920072
0.03040235 0.04929473 0.02322550
-0.00742653 0.18153700 -0.03067826
-0.07202202 0.08631184 -0.03243110
0.04952286 0.14426428 -0.02558909
-0.01024360 0.16097997 -0.00562524
-0.02854932 0.16442895 -0.04518929
0.07144101 0.07152507 0.02505748
-0.04399765 0.10890655 0.00070953
-0.08650393 0.10039051 0.00019562
-0.05033811 0.17342402 0.00231489
-0.00101514 0.15349662 -0.02813891
0.01844837 0.15285556 -0.03028300
-0.03662022 0.11042929 -0.01623476
-0.03582436 0.05460176 -0.04223422
-0.05754441 0.14560004 -0.01586978
0.08471738 0.10958653 0.00032037
0.06368226 0.12151338 -0.00357958
-0.05391072 0.07697846 0.02143804
-0.05464695 0.18225384 -0.01897906
0.03824233 0.13966803 -0.00238112
-0.01427071 0.11584064 -0.00142291
0.04577349 0.09434102 0.01793856
-0.06659350 0.16654316 0.01092238
-0.07870924 0.17443331 -0.00916096
-0.04395103 0.13475606 -0.02964084
-0.05705570 0.05084878 0.00052994
0.06048883 0.11018386 -0.00765790
-0.08172306 0.15013953 0.02097441
0.07121009 0.12612520 -0.00958629
-0.02399998 0.11463644 -0.00519574
0.06414690 0.05209120 -0.01145273
-0.04639283 0.11840725 -0.00123504
0.03297240 0.06203014 -0.03194880
-0.08645560 0.14306875 -0.01443528
0.08680192 0.13694800 -0.01243591
-0.07058371 0.16446723 0.00021284
-0.07473375 0.06578874 -0.03651108
0.01412959 0.05840263 0.01526325
0.03007731 0.04949632 -0.01670666
0.07778507 0.10248835 0.01496548
0.00588027 0.14803010 -0.00628326
-0.05801368 0.05523098 0.03708886
0.02504104 0.07056674 0.01296498
0.04754870 0.05544509 0.01817014
0.03883533 0.09686545 -0.03650587
-0.00333650 0.12786865 -0.03543667
0.04965665 0.05568743 0.01090207
0.06479917 0.07384060 0.02190276
-0.03641112 0.13427766 0.00302702
-0.02620821 0.14992157 -0.01669664
0.03637083 0.06051619 -0.00543549
-0.02342992 0.14534582 -0.02385936
0.01889611 0.05362588 0.01753367
-0.05983949 0.17814845 -0.01924607
-0.08248903 0.18273872 -0.00011805
0.02841847 0.08791080 0.00658333
0.06053888 0.13664070 -0.02165521
-0.02998968 0.07426189 -0.03282843
0.03897803 0.07221711 0.01548563
0.00276068 0.14428307 -0.01384349
0.01106183 0.15095571 -0.01018527
-0.08175500 0.17145073 -0.00271490
-0.01513778 0.13368554 -0.01283210
0.07449002 0.12848885 -0.01449009
-0.05309404 0.17482650 -0.02496754
0.01574477 0.12371114 -0.03142593
-0.06279068 0.18191625 -0.01211830
-0.03663948 0.14905976 0.00027779
-0.07968203 0.17091015 0.00256186
0.03522104 0.10903570 -0.00791759
0.04407354 0.08409013 -0.00545435
-0.08583421 0.15980506 -0.01406225
-0.02791681 0.14273003 -0.00726855
0.07138333 0.05762372 -0.00633799
-0.03898664 0.17166547 -0.00496209
0.05263491 0.12170354 -0.00292208
-0.05509133 0.10430753 -0.02022953
0.01664216 0.06600007 0.01349839
0.07357696 0.06682646 0.01964985
-0.00915158 0.18690971 -0.03235694
-0.07137622 0.07784076 0.01333489
0.01787254 0.08966465 -0.01526407
0.03869832 0.10315627 0.01591816
0.03671539 0.05453265 -0.05133631
0.07126802 0.14897457 -0.01165182
0.02781446 0.12317961 -0.01147650
-0.06098609 0.09569594 0.01285970
0.03408347 0.08565320 -0.03853085
0.01916673 0.07293016 0.01835167
-0.05719896 0.14656687 0.00582900
0.06062958 0.14101999 -0.02278607
-0.01748351 0.12806304 -0.01362525
-0.05302271 0.15276785 -0.01838485
-0.07444061 0.08624043 -0.02735109
0.03768099 0.09687139 -0.00410030
-0.04247381 0.06018750 0.00741246
-0.04557924 0.14600065 -0.00334741
-0.05085835 0.06066185 0.03345062
-0.03366598 0.18662433 -0.02551172
-0.00687634 0.14535896 -0.01681660
0.03517431 0.06005635 -0.00019393
-0.02939563 0.18129654 -0.00477758
0.04131792 0.08237426 -0.00201274
0.00234812 0.08239490 0.00207621
0.02398997 0.08068180 0.00145473
0.00540827 0.09812170 -0.01281638
-0.03494983 0.17329088 -0.00034592
0.06117325 0.12361987 -0.01429309
0.01509948 0.09127941 -0.00636257
0.04488473 0.15165079 -0.00665869
-0.08482343 0.14917740 0.00590925
0.01516795 0.11888801 -0.02442229
0.05664478 0.09963112 -0.02116319
-0.04369627 0.19045416 -0.01466047
0.07519813 0.15284517 -0.01470732
0.00170203 0.05638290 0.01191826
0.05262645 0.13798057 -0.02404326
0.02386223 0.09389363 -0.01934043
0.01681981 0.14672922 -0.01073951
-0.04889061 0.08655941 -0.02642536
0.08364171 0.07746783 0.01179219
-0.03843616 0.16687432 0.00190802
-0.08654051 0.06512943 -0.01906061
-0.01687404 0.14902547 -0.00683665
-0.04680802 0.05766671 -0.03659877
-0.08685377 0.15070915 0.00660271
0.00843363 0.10941230 -0.02904752
0.01812021 0.15670595 -0.01035828
0.04256959 0.06414385 -0.03025954
-0.07823245 0.08815281 0.00232271
0.07149342 0.08405787 0.00083444
-0.06298354 0.11124770 0.00956078
-0.04848993 0.10625353 0.00446692
-0.06395829 0.05742043 0.00524026
-0.03581117 0.05675498 -0.03039994
0.08004309 0.09166642 0.01619138
0.06065470 0.15434369 -0.01585708
-0.05259326 0.09419315 -0.02111587
-0.05603158 0.12805730 0.00501893
0.07528743 0.08186026 0.02614700
-0.03744551 0.06419208 0.02849913
0.05503865 0.10380852 -0.02465465
0.08314811 0.14112273 -0.00355263
-0.01131854 0.08882140 0.00817522
-0.06093694 0.10098656 -0.01999250
-0.06912453 0.09313369 0.01291307
-0.09566543 0.17141485 0.00133133
0.07965828 0.14101630 -0.00930413
0.02105562 0.08057580 -0.03454027
0.05179442 0.10363045 -0.03140232
0.04363405 0.05464716 0.01441697
-0.06321037 0.17836329 -0.01418354
0.02544952 0.06747031 0.01060658
-0.04675317 0.17082499 -0.03132201
-0.09031779 0.08781928 -0.00379963
-0.04379621 0.12595363 0.00587938
0.06042304 0.10595730 -0.01077789
-0.06243868 0.14809506 0.00186068
0.02849987 0.10075735 -0.02434644
-0.01814395 0.06136856 -0.00427363
-0.07446921 0.06692924 -0.00161199
-0.06490499 0.16363071 -0.00575926
-0.04628758 0.09538481 0.00402802
0.00895744 0.06034129 0.02166963
0.04396100 0.07567057 0.00381588
0.06445790 0.13598406 -0.01733914
-0.10312640 0.13782258 -0.00181223
0.03293051 0.09091435 0.01825781
-0.02555458 0.11784538 -0.02321067
-0.01926702 0.11710838 -0.00127723
-0.02287536 0.16488928 -0.04236204
0.03564071 0.07354312 0.02206242
-0.02173548 0.16636346 -0.00673897
0.05689064 0.06972533 -0.01612776
-0.04491925 0.09425431 -0.00100280
0.00806191 0.05817976 0.01291403
-0.04368750 0.06269743 0.04069168
-0.08387732 0.11500453 0.00006210
-0.02370150 0.18145683 -0.01372450
-0.02441638 0.05590003 -0.02288086
-0.04249335 0.11804699 -0.02282393
-0.05857116 0.14730881 0.00112278
0.02111728 0.05796409 -0.01220631
-0.02095911 0.08748275 -0.03855646
0.00414314 0.11956662 -0.00264285
0.06444235 0.11327840 -0.00698039
-0.01006888 0.15372801 -0.01178216
0.08243184 0.09898902 0.01102199
-0.06542388 0.05997369 -0.02481892
0.04488465 0.09174247 -0.00920392
-0.03925452 0.12045401 -0.03363718
-0.03372672 0.17298862 -0.01648601
-0.04655343 0.17957209 -0.01112861
0.01241374 0.08030772 -0.01865188
0.03177452 0.12174626 -0.00561429
0.00166872 0.11033130 -0.00169429
-0.00803112 0.11717345 -0.03354853
0.06827484 0.09735478 0.00049828
0.04564182 0.10179678 -0.00203081
0.05339405 0.08274826 -0.00101523
-0.06249132 0.16770272 0.00604436
0.01189817 0.10347433 -0.01661394
-0.05546423 0.16576207 -0.02215362
-0.07500764 0.07704961 -0.02371745
0.03544298 0.10083412 0.01500270
0.02299677 0.05984765 -0.02368123
-0.08042575 0.10306932 -0.00734493
0.07419062 0.05617677 0.00101584
0.01775932 0.11864700 -0.02013487
0.02633525 0.05687204 0.01984376
0.01906685 0.06262807 -0.00564579
-0.05143824 0.16707353 -0.03007337
0.00158740 0.08843575 -0.02218628
0.05250808 0.08152721 0.02960360
-0.09929428 0.15152560 0.00184532
-0.05599559 0.13726684 -0.02065212
-0.04427932 0.07477114 0.03321514
0.06235026 0.05105979 -0.01134541
-0.01035872 0.05624876 -0.01646276
-0.08293386 0.06419190 -0.01299523
-0.02321948 0.17173108 -0.04466054
-0.03974827 0.09428304 -0.00541197
0.02898155 0.08881855 0.01237416
0.03109422 0.14148474 -0.00203851
-0.08736276 0.05725364 -0.01865274
-0.05343267 0.13631351 -0.02103147
-0.03817642 0.18205713 -0.03851228
0.08005885 0.13479574 -0.02086952
-0.08429739 0.14305508 0.00057365
-0.00104984 0.15341528 -0.02245437
0.06909638 0.07872537 0.00105140
-0.08008109 0.17375635 0.01155456
0.00772041 0.08894359 -0.01267214
-0.04299533 0.14646453 -0.03745848
-0.04591712 0.15465033 0.00174838
-0.06668007 0.09824095 0.01189351
-0.05853062 0.15061706 -0.00965920
-0.06566693 0.11713906 -0.00389976
-0.03905941 0.13381593 -0.03448599
0.04035318 0.11844353 0.00915566
0.05543087 0.12666284 -0.00566479
-0.06277974 0.05500106 0.01355160
-0.03853613 0.09462720 -0.02466704
-0.04252124 0.06835202 -0.03349571
0.03695974 0.10084237 -0.00918932
0.01382429 0.12003908 -0.01153066
-0.06746947 0.09628989 -0.02844809
-0.05581250 0.08077984 0.03039609
0.05423755 0.06029627 0.02286564
-0.06663522 0.14026673 -0.01301097
0.04321000 0.09802634 0.01009270
0.07963186 0.13815932 -0.01493019
0.00987314 0.11858948 -0.01634557
-0.03534837 0.06418586 0.01881216
0.07518231 0.13440216 -0.01693667
-0.03229704 0.13063245 -0.00529839
-0.08393837 0.10332786 -0.00713096
-0.02095684 0.16313577 -0.02041504
0.02841799 0.05910450 0.02048898
0.07527297 0.13622043 -0.01382751
-0.02444807 0.15061218 -0.02567318
-0.04907949 0.10169183 -0.00384251
0.02119127 0.08560096 0.00399830
-0.07136701 0.05975468 0.02562192
0.03594713 0.09088708 0.01648569
0.02594235 0.07815155 0.02528379
-0.03633902 0.07909179 0.02596737
0.01253352 0.08815727 -0.02600317
-0.05825469 0.16015953 -0.02275478
0.06761093 0.05087353 0.00244655
0.07660150 0.10255208 0.01273430
-0.05139853 0.05930966 0.00941135
-0.07302617 0.15996568 -0.01278203
-0.03815798 0.16208442 -0.00519119
0.07357740 0.06174821 0.02111581
0.02763667 0.15131947 -0.00993870
-0.02690594 0.13666952 -0.02945449
0.02358555 0.10373064 -0.01353851
-0.06792194 0.17731057 -0.02342096
0.05407523 0.14573148 -0.02802006
-0.03320190 0.12713061 -0.01793503
0.01343259 0.07639692 -0.01208987
0.02180293 0.06457230 -0.02672711
-0.05093405 0.18060444 -0.00017988
-0.08578819 0.16964160 0.00359491
-0.00797210 0.07471727 0.00029106
-0.09680106 0.13837947 -0.00371495
-0.04084710 0.12923892 0.00167876
-0.03325229 0.12639941 -0.01111994
-0.04664725 0.05391973 -0.03385923
0.00827774 0.14177473 -0.02876144
-0.02348446 0.15678291 -0.01824631
-0.03982321 0.05771158 -0.02534971
0.01657040 0.13620426 -0.03767662
-0.02387863 0.08091809 0.01266720
-0.06343634 0.06090765 -0.02361123
0.03696887 0.06285016 -0.04705544
-0.08598356 0.14099273 -0.00886051
-0.01374389 0.07805140 0.00083652
-0.03654546 0.18444607 -0.02116312
-0.07857730 0.06647712 -0.02545467
-0.04343476 0.09133336 -0.01832945
-0.07944184 0.07419915 0.00708614
0.01017356 0.05688554 0.02147478
0.07777892 0.13098297 -0.01901236
-0.03251062 0.07041537 -0.03276130
-0.01065033 0.06030270 0.01660229
-0.07375327 0.11333488 -0.00787385
-0.04513786 0.17523555 -0.01837300
0.02860723 0.12732208 -0.01623373
-0.00851457 0.07003377 0.00384005
-0.04596084 0.17992900 -0.03244490
0.06839892 0.07086395 -0.00265163
0.04267305 0.05111267 -0.01941417
0.09429284 0.13780625 -0.01417775
-0.05743632 0.06427243 0.02911376
-0.05283204 0.07987306 -0.02856237
0.01003388 0.05910234 0.01848922
0.04166954 0.07979660 0.00075240
0.01705220 0.14737761 -0.00254427
0.03236929 0.05539061 0.02147411
-0.07115889 0.09204130 0.00198503
-0.02311576 0.10821954 -0.00786193
0.07164986 0.09208319 0.01001019
-0.01357782 0.07040786 0.00565115
-0.04258531 0.15731502 0.00079613
-0.04032561 0.13631247 -0.02992903
-0.05433879 0.14510968 -0.01037070
0.08248699 0.15131512 -0.00636685
0.02482647 0.13670728 -0.00338598
-0.02619148 0.07409815 0.01851406
-0.08934657 0.13759726 0.02333980
0.07014570 0.06516950 -0.00631858
-0.04046289 0.12116195 -0.00869289
-0.07195079 0.07832074 0.01501342
-0.02070406 0.14279068 -0.00907261
0.03819400 0.08789457 -0.00068921
0.00579140 0.15276228 -0.02051121
0.05857117 0.07622209 0.00397068
0.08394156 0.09717956 0.01060435
0.02690430 0.15015537 -0.03373132
0.06411874 0.09886377 -0.00703484
0.04216029 0.07767785 0.01268122
0.08425496 0.13440855 -0.00859468
-0.06396869 0.11208479 0.01096903
0.02905004 0.10914141 -0.00890265
0.05090254 0.09436588 0.02268047
-0.01671791 0.06621499 -0.00217399
-0.00709927 0.07436815 -0.01098949
-0.06652020 0.14039944 0.00442586
-0.06805848 0.15710515 0.01468418
0.04552653 0.07906857 -0.03732267
-0.08084455 0.07760912 -0.01065177
-0.02687801 0.15010586 -0.03233744
-0.07673760 0.16323157 -0.01462025
0.05677081 0.12584704 -0.00400611
-0.04026471 0.11286794 -0.02002215
0.06899598 0.06707706 -0.00824113
0.01547751 0.15324897 -0.01792271
0.04492776 0.07838368 -0.03504123
-0.02473005 0.13991190 -0.02661313
0.07261645 0.09421574 0.00936378
-0.00872230 0.07715772 -0.02513020
0.01976696 0.14058428 -0.03363158
0.04097517 0.08359507 0.02588191
-0.02408970 0.11097462 -0.02852632
0.02502762 0.10716242 -0.02221763
0.02771427 0.08223353 0.03019174
0.01337529 0.14823261 -0.02261841
-0.04420250 0.08788078 0.01875115
-0.00519445 0.11181182 -0.00050866
-0.09922956 0.14126460 -0.00850606
0.04720264 0.10315749 -0.00470119
0.03366481 0.15592372 -0.02952857
0.07960215 0.11757848 -0.01208360
0.01339672 0.15633270 -0.01968070
-0.04740420 0.09875763 -0.02043959
0.03064443 0.10441469 -0.00653932
0.07908507 0.10595406 0.01259758
-0.04172866 0.10623955 -0.01235357
-0.00511220 0.09768847 -0.03392882
-0.04525391 0.07814407 0.02547637
-0.07428110 0.06014573 0.01132427
0.03868784 0.07849684 0.01255213
-0.06773870 0.14937632 0.00096921
0.01796169 0.06881544 0.00805539
0.01724071 0.06767415 -0.02975862
-0.08201933 0.14368527 -0.00227281
0.05399634 0.13688993 -0.00044137
0.03953268 0.13047349 -0.00181670
0.02765631 0.13613898 0.00063186
-0.05317520 0.14590417 -0.02542907
-0.05531455 0.12657101 -0.02830521
0.06752446 0.08452434 0.00305084
-0.02574284 0.15956844 -0.00577354
0.04900418 0.06542662 -0.03667285
-0.06482826 0.04788560 0.00110867
-0.02233289 0.13166015 -0.01695906
0.07311801 0.06160091 -0.00566032
-0.04648941 0.06167417 0.02273306
-0.07734159 0.14640921 -0.01539120
-0.06268118 0.14806752 -0.02923195
-0.03496516 0.18787539 0.00109113
-0.04750017 0.05413468 0.00576450
0.01022051 0.09050057 -0.02964403
0.05864585 0.12833652 -0.02534120
-0.01567368 0.05958514 0.02847855
-0.06324045 0.14993644 -0.00303637
-0.08294449 0.09093121 -0.01839753
0.05645933 0.08138832 0.01264186
-0.02996832 0.08101799 0.02283056
-0.03462216 0.06889999 0.03063386
-0.06890325 0.05190825 -0.01286435
-0.06128135 0.14336054 -0.00286647
-0.08812928 0.07861559 0.00524415
0.01988534 0.09008817 -0.00817642
