0.70986015 -0.28015667 39.76648331
1.94161272 0.41438720 38.76834106
-0.14176488 0.29428706 38.61552048
1.86642218 2.24135017 39.43972778
1.40297639 -1.59592021 40.38010406
2.37748504 1.28911126 41.45149994
0.96240026 -2.36447096 39.76385117
2.03810740 0.17557181 39.42757416
0.15962076 -0.18957405 38.98083496
1.90271258 -0.15244678 41.10208511
1.82075870 0.42290092 39.14543915
0.78769749 -2.32185984 40.29687500
0.17006862 -0.32725495 40.72337341
2.50995779 1.56384957 41.52764511
2.89241552 1.78966975 39.38359833
2.29847574 1.65786600 41.70584488
2.57609749 1.46486855 41.48051071
1.74708068 0.49087077 41.55833817
1.08428597 2.15040112 39.75686646
-0.11706913 1.63430965 41.68623734
-0.21492124 1.31721115 40.61447525
2.71004391 2.11396646 39.61128235
1.66277063 -0.28170764 40.83635712
2.44250441 2.00352430 40.79773331
1.09198773 1.80275202 39.29039764
2.44276738 1.58824658 39.23128891
1.70946753 -0.86205983 40.43862152
2.37132978 1.90230000 40.99822998
2.68202639 1.07179952 39.54748917
1.78404808 0.34451756 39.44563293
1.84821248 1.81694305 39.14028168
2.29328203 0.03645509 40.28443527
0.63631618 -2.18409538 40.25562286
1.08211291 2.01781464 41.15510559
-0.10901427 1.80788541 41.57097626
1.18170393 0.27946320 38.83479309
0.36581904 -0.02328166 38.71199799
-0.43740451 0.61857074 40.49174881
0.55489302 -0.03399196 39.61700058
1.92845798 -0.09585349 39.90335464
1.33549142 -1.84523749 40.86360168
0.17118227 -0.36030206 39.05311966
2.35454082 1.19983840 39.19982910
1.55053043 0.96404815 39.24248505
-0.05930746 0.67912507 39.74355316
2.27863860 2.42417574 38.84683609
0.53296137 1.16169834 41.70922852
2.38137627 1.74567735 41.75551605
2.00867295 -0.11150049 38.63582230
2.49065614 0.52442038 39.36903000
1.42223871 1.08233631 39.11986160
2.58428955 1.67088985 39.12487030
0.79998213 -2.09493256 40.88396454
0.81655598 -0.57656133 41.35162735
2.48242664 1.00090110 39.06114960
1.58645904 0.29721129 41.66025925
2.36642027 2.15083981 39.15754700
0.06022418 -0.16870996 40.33432388
1.19971287 -1.59899700 39.58253479
1.92124152 0.86798275 41.88704300
1.46242487 1.95076966 40.64538956
2.57493544 1.00900197 41.09571838
1.56529117 1.21235323 41.66204453
1.30979562 -2.00053024 39.82036591
1.68687236 1.56916773 39.48584747
2.81737328 1.98478281 39.82228851
-0.18230975 1.37795568 41.43211746
2.50740743 0.15642858 39.29632568
0.02438819 2.15258694 40.42012787
1.34232390 1.93621099 39.73618317
0.94526720 -2.17387342 40.61956787
0.13910949 0.21841040 41.13195801
0.59618127 -2.24099159 40.49846649
2.13286757 -0.04935478 40.41446304
2.04585361 0.82108277 42.06419754
0.64633989 -0.09234159 39.41014099
1.88089037 -0.13191691 38.75222397
1.60033035 -1.62102985 40.04975891
1.83915102 0.52736270 41.18427658
1.02441704 1.79830587 41.11391449
2.40009832 0.24236363 40.46042633
0.24286073 0.20974620 39.31259155
0.54995990 1.95618749 40.27731705
2.11781812 1.48231816 41.87932205
1.69187450 -0.79630971 41.11946487
0.22096288 1.46073484 41.65898514
-0.16369939 1.94589436 40.55248642
1.00301194 0.07343626 38.94878387
1.15096593 0.39898181 38.88868332
0.31016576 0.44632575 40.01758575
2.01475549 0.99015534 38.99087906
2.66389179 2.14761400 39.48901367
2.35766912 1.67949343 41.66010284
2.51676941 0.93435711 39.17900467
0.84651411 -0.91908354 41.20926285
0.92016661 0.09892380 38.90963745
2.32721496 0.66906983 39.20459366
0.30545759 0.41664889 41.04940033
1.39503050 1.75459385 38.83663940
2.57354164 1.06082153 41.07550049
2.59728765 1.32168806 39.48447037
2.18057227 -0.08332654 39.28036118
1.71724296 1.67929125 41.73609161
-0.13160753 1.94737804 40.82975769
1.36992812 1.45572746 39.26379013
0.26325339 1.84892344 41.90361404
1.72420335 -1.70991147 40.40192795
2.42371893 1.52672732 40.66224289
2.11343098 0.28130719 41.05641174
1.01906514 2.03738499 39.71591949
0.28087872 -1.14432693 40.85993958
-0.38089228 1.36231887 39.73151016
1.77454305 1.82797062 40.79510117
1.19902015 -0.16734456 38.62461853
2.01458859 -0.12809250 38.79978943
1.17623651 -2.10660744 39.64793777
0.19663674 -0.27428550 39.07946014
1.05778766 -1.41018701 39.70202637
2.54039574 1.98172295 41.67474365
1.51275814 1.69558799 39.22027588
-0.04751563 0.10275501 40.99947357
0.84552348 1.94616902 40.09693909
0.07912195 0.71776152 39.67962646
0.87779546 1.90649760 40.14128876
1.11256790 1.96442568 38.79677200
2.60363770 0.95320296 40.11697006
-0.30374527 0.84038389 41.45084763
1.06035364 -2.10519028 40.01162720
2.72941828 1.88823962 40.85372925
-0.06912243 1.46584213 39.20901489
0.20291579 0.37792903 39.59365082
2.45242786 0.72003818 41.90805817
1.94150257 1.93684340 40.42281342
1.54599047 -2.32672167 40.41602707
0.30533218 -0.79251242 40.89073181
0.84930456 0.32683432 41.51815033
-0.10584974 -0.28819609 40.90926361
0.69947964 0.52676904 39.31640625
1.94528735 -0.62356073 40.15648651
1.44005322 -1.28206396 39.95833588
2.46084857 0.26089793 39.21810532
2.04739475 -0.36231062 38.92842865
2.66278100 1.85414994 41.33237457
1.04118335 -0.52771103 41.52843475
2.55161715 1.42937207 39.52618408
1.97005737 -0.17691216 39.31575775
-0.38098598 1.38407481 39.43014526
-0.07554793 2.10496378 40.40443802
-0.16548789 1.18604898 39.97269440
0.66935581 0.89444280 39.25867462
1.69759786 1.83222389 39.04294586
0.18246686 -0.01388142 40.24620056
1.53537917 -0.70707381 41.21920776
2.33749962 1.76688707 41.69713211
1.99356723 0.39740714 39.93025208
1.23456788 -0.32149103 39.90843201
2.21907401 0.08262554 40.46673584
0.60679990 -0.28061706 38.90488052
1.61988604 -0.45117992 41.03274918
0.01315975 2.08547306 40.99927139
2.69556236 1.84460223 39.31231689
0.00527120 0.24853757 38.57604218
0.61877412 1.22162497 39.20085526
0.48753875 -1.53642786 40.39758301
0.33216119 -1.34528911 40.97126007
1.29556394 -0.03893112 38.80547333
0.98921758 -0.54925406 41.36825562
1.77622414 0.40391281 41.78647995
-0.29025173 1.01268649 41.46803665
1.97592306 1.89903939 39.89881897
0.56441718 -1.51428771 40.14838409
1.90376115 1.14700437 41.88095856
0.48392665 -2.00862408 40.22783661
0.58767605 1.29883468 41.76079559
0.14221311 0.23429322 39.51667786
0.30494791 -0.07567520 38.89398193
1.17770302 -0.49673182 39.84925079
0.21031505 1.82545066 41.35481262
0.69446754 -0.22242138 41.45677185
2.49245691 1.80182254 40.91308975
0.43753958 0.57486284 38.67823410
1.97445297 0.02288220 39.31156158
0.65035820 -0.24758208 39.99491119
2.48809433 1.59998155 40.45380020
2.24320531 1.54411733 40.58736801
0.29457420 -0.09612226 39.26628494
1.40027642 -1.24502170 40.12598419
0.20583302 0.20727018 40.36089325
0.64407074 -1.70643854 40.16212845
2.00321984 0.29911777 41.04152298
0.52896154 1.14267588 41.72444153
2.63008451 0.78574961 39.95873642
0.00977290 -0.07440813 38.71305466
1.50606942 1.88477075 40.49077606
2.04174948 1.87213254 40.27241516
0.31142884 0.09256189 38.78290558
2.07717514 0.29848936 40.92171478
0.08889830 0.56876796 40.01768875
0.73416781 1.80467355 39.07025146
1.21213448 -0.14874968 38.81262207
2.07837105 0.42395294 41.43270874
2.02276945 2.00462198 38.79596710
1.83013725 1.06554794 41.73924637
0.52733022 -0.23729686 39.66742325
0.03440511 0.83327448 38.74445724
1.84893513 0.21280140 39.97062302
1.58557153 -0.27470651 39.09869385
2.64660072 1.15964997 41.59582138
0.74315840 -1.59663498 40.86550140
-0.08687949 1.23217916 39.37451553
0.77497619 -1.55715084 39.78317642
0.76657194 -0.12610486 41.47874832
0.95016092 -1.29809594 41.20477676
1.92177904 2.12366915 39.63553619
2.77807832 2.08159018 39.43204880
2.69421077 1.82927608 40.13356018
0.41906631 0.41938710 39.75182724
2.66689968 1.75726151 40.84648132
1.18356287 -0.48397332 40.03067398
1.09385335 -0.40260288 40.04344177
1.44613338 -1.00906587 41.25590134
2.55025959 0.36613113 40.53820419
0.17206120 2.06008959 39.09497452
0.77254951 0.86238432 41.68574905
0.35023642 -0.83470696 40.80788422
1.27345371 -1.36844742 41.16899109
0.27905250 -0.58040237 39.72848892
0.59482992 -0.29428652 39.59564590
0.78759396 -0.73449945 41.34475327
0.94271672 2.06396008 39.92810059
2.84734726 1.84892666 40.45427704
0.70190907 -1.35547006 40.37078476
0.35220015 0.93206078 41.76737976
1.26281989 1.86286163 40.98069000
2.46590376 2.24128532 40.67936325
0.10726547 1.22625637 39.04400635
1.79090703 0.51156378 38.69530487
-0.27120960 1.07862008 40.50515366
2.43329048 0.00892350 40.75375366
0.84660232 1.93149686 41.21079254
2.18144178 -0.31686631 40.84066010
1.40348840 -1.62469864 40.97643661
2.35219288 1.31686437 41.10258865
0.70388651 1.14938235 39.29160690
1.95805883 -0.38490945 39.52348709
2.44605875 0.14451060 38.93025970
2.06575847 1.88648093 41.14989090
2.53316975 1.78438330 39.78555298
0.32874399 2.00656271 39.38809586
0.02591968 2.00594378 40.10490799
1.40133071 -1.85857332 39.80422211
-0.27148032 1.21954000 41.13534546
1.34619319 1.74116910 41.24557877
0.24526054 0.00139298 41.22085190
-0.25202084 1.13303018 40.72873688
2.10534310 -0.13067082 39.26156998
2.56113529 0.38843769 38.84513092
2.70036602 0.74920321 39.92918396
0.62879235 2.08593130 39.02643204
1.48437691 -1.84136045 40.76828766
1.21971893 1.80355966 41.22254181
1.82066703 0.06806377 39.56164932
0.15891457 -0.14835981 38.61237717
0.89184040 -2.01196575 39.82652283
1.60022295 -0.98344588 41.21844482
2.50236511 0.63300174 40.33188248
-0.21103752 0.92744929 40.55009079
0.89972377 0.09762642 38.68503189
0.41309714 0.42140660 39.65768433
2.74278307 0.67828035 40.33752823
0.57170206 -0.08536416 39.44944382
1.81325555 -1.19953299 40.39373398
-0.08682001 2.05029631 39.21837616
-0.26778722 1.44523013 41.49183273
1.40920973 -0.14812911 41.54916382
0.50874871 -0.42859036 40.79555893
0.15720916 1.29562795 41.85385895
0.37992883 0.19283652 39.91768265
0.57582009 -1.06364679 41.21701431
1.93963552 -0.01245020 41.20532227
1.36135280 -0.31909925 39.02898026
1.38374150 -0.68702400 40.15989685
0.48927861 0.49562657 41.30773544
1.75539327 -0.22690575 41.46199417
0.88878566 -2.17915487 40.16033554
1.41271937 0.37628645 41.59272385
2.37886691 2.16344357 40.09574890
1.04308486 0.01995919 39.66775513
0.00773954 -0.13318431 39.09822464
0.18688482 0.48018575 41.51067734
0.86224484 0.77897269 39.16229248
0.22057480 0.28641084 39.55639267
2.03525472 0.37136030 40.98030472
0.03253865 1.59542847 39.15613174
0.67090786 1.71393597 41.08517838
1.38669980 -1.20323074 39.76770782
0.56986135 1.77258372 40.95525360
1.36822343 -0.79111022 41.12421417
0.84228194 0.29327652 39.05564880
-0.04283965 0.49188173 39.37095261
0.55939937 0.37065122 38.89191437
-0.33765733 1.96932614 40.27976227
0.70959067 -1.50305247 39.92722702
0.96708721 0.16707222 38.97111130
2.10599065 0.59974778 41.97028351
0.95000273 0.81989557 39.23042679
-0.20341587 1.49915564 39.57303619
1.29408443 -0.41020024 41.37914658
0.59801978 0.23042649 38.98035812
1.96524739 2.14392424 39.19319916
2.01194191 -0.67037499 40.37553787
1.96456933 -0.29407582 39.99679184
1.98707461 0.77246159 38.82294083
2.80767965 1.75608945 41.64343262
2.18729734 2.27516985 39.23397446
0.67644525 1.69001150 41.10737610
2.29858565 -0.15073892 39.40295410
1.30763638 2.08902550 39.93670273
-0.01445508 1.96779335 40.62915802
1.75298786 2.29150581 39.19009018
0.44455522 0.21048020 39.22926712
-0.21107316 1.77852035 41.35718918
-0.19524038 1.53500950 39.96801758
2.25185728 1.21216214 38.94960785
1.93639064 0.16860488 38.76692581
0.55820721 -0.35942546 38.83417130
0.36132532 -1.80297577 40.20830536
2.52290940 1.42844391 41.65590286
0.85965812 0.24335545 38.72774124
-0.08028996 1.47298884 39.06016541
-0.01089680 1.57029617 40.71494675
2.47522116 0.61206496 40.89373016
1.60300505 1.93866634 40.01798630
-0.26289999 1.46689534 39.67245865
1.29307437 -2.20861864 40.26672363
0.94968361 0.00340987 39.98111343
2.55736113 1.38939488 41.52167511
2.67721248 2.22014809 39.34903336
2.43569136 2.18677568 39.95458221
1.77231050 -1.49586236 40.87565613
1.00134301 1.73210835 41.90550232
0.74616468 -0.82906961 40.10695648
1.16471088 2.00652027 40.87247467
1.52125895 0.61155587 41.60730743
2.44213486 2.22266388 39.68318939
0.86344838 1.91848195 40.30400848
2.08028007 0.74254006 38.99682617
0.58651012 0.18431839 41.58385086
1.34699595 1.89027750 38.96433258
2.55729866 0.47887123 40.56959152
0.84125042 0.88639700 41.70828247
0.41433519 0.53537512 38.65200806
0.91629326 1.29484248 39.19792557
0.02861357 0.12022334 40.28684998
1.97435570 -0.63104260 40.45816803
2.48307776 0.62329841 41.90116501
-0.24600017 1.32173419 41.24513626
0.96052217 -0.11586436 38.88382721
1.28548861 0.17401780 38.99162292
2.72118855 0.97911584 39.87836456
1.07228625 -2.37487221 39.92009735
-0.01322508 1.65546465 40.16191483
1.88275123 0.25922734 39.47378922
2.60713196 0.84426683 41.80917358
1.77439439 0.98633754 39.31338120
2.27420759 0.92765874 39.07666016
0.73432523 0.75929642 39.23639297
0.69949949 0.44443044 39.35084915
1.00352371 -2.19217539 39.83549500
-0.08014119 1.45840442 41.85863113
1.03594637 1.08291614 39.16772461
1.75987649 1.98903978 40.57843399
-0.29170465 1.46522355 39.88103867
-0.20004487 1.50337374 41.69395828
0.45115542 2.10865211 39.33436203
-0.00767159 2.09284019 40.41404724
1.88353825 0.54463100 39.93291473
2.71946859 1.58734369 39.78538132
-0.32352638 1.72152030 40.00159454
1.03769314 2.07129431 38.82759857
-0.34149516 0.80728066 40.11326981
0.60662705 1.31280470 39.14671707
2.52151966 0.80368990 40.71232605
2.40936232 0.56835270 39.09872437
2.44419432 1.32551312 40.73844910
0.88216782 2.14858484 39.65687180
0.75633538 2.22803068 39.22566986
1.03236723 -2.13516474 40.90599060
-0.18669546 0.90870553 39.12805939
-0.57082140 0.98449111 41.50872040
1.39275408 1.44954407 41.74844742
1.86118817 0.47461838 38.78187180
2.40225697 1.85760438 39.27882767
1.83498466 0.49306297 41.72315979
2.46564245 2.18243504 40.25593948
0.41419816 -0.11627859 41.39719391
0.25451112 -0.23398040 38.85563278
1.53982377 -1.80020726 40.90229416
0.37352705 0.98004520 41.88832092
2.29425240 0.40976909 39.59204483
1.06036723 -0.70309108 40.12304688
1.03677106 -1.35871661 39.72604370
-0.01082397 1.94950247 39.16819382
-0.35803556 1.85117733 39.72966385
1.39812565 -1.35590816 40.28285980
1.33466911 -1.86511815 39.64630127
0.50476229 -0.04978820 41.41595840
2.01784563 1.88305831 38.97394562
1.36707723 1.67329097 41.65063858
2.50876284 0.72043169 40.52149963
1.49144328 -0.13327187 41.80012512
2.40183592 1.67200458 40.92298126
0.40996885 -0.06785672 41.41125488
2.13095689 1.82477999 40.87572098
2.49883461 1.57825601 39.49443436
0.73365217 1.96985090 40.95357513
1.91954923 -1.14321041 41.08222198
0.10939276 0.25589612 40.96986389
1.99905455 -1.04860985 40.30545044
2.60612202 1.55774343 41.19392014
2.65086603 1.39508426 39.79508209
0.50344634 -1.97663474 40.44226456
0.08384144 0.60998291 40.83499146
0.68336421 -1.80574536 40.72642136
-0.23534346 0.25139129 40.96831512
0.26019943 -0.52229655 40.56950760
1.69476104 -0.48940095 40.20581055
0.46986353 1.50005066 39.26934052
2.57336807 0.39422399 40.50239563
-0.04287529 0.97466731 38.77194595
0.66323626 0.78595412 39.10814667
0.36667442 -0.82462460 40.15722275
2.39981174 0.53627270 38.96273041
0.77620178 1.54297256 39.16317368
1.07289553 1.05514979 39.13578033
1.31933308 0.44147822 41.54914856
0.73849362 -1.67415380 40.85872650
1.71342182 2.51856184 39.16827774
0.56611937 0.13402477 39.21002960
0.69622988 0.27097219 38.79610825
0.07213557 1.48121428 38.99876785
0.59539950 0.92267352 41.64251328
-0.06333017 0.46328580 41.24031830
1.14497733 0.69947976 41.61358261
1.36302805 -0.37710315 41.53553772
2.73858213 1.24597192 40.19047165
0.51985294 -1.92645824 40.80094528
2.31941414 0.34149164 38.60198975
2.40647078 1.41197753 40.58059311
0.75805068 1.32235754 41.80525208
2.07221270 0.99667001 41.85096359
2.50708103 1.60579205 40.96626282
1.70922947 -0.50323546 40.05882645
2.52483225 0.49524057 39.53033829
0.65503937 -1.41065001 40.02256775
2.56528378 1.76625705 39.13186264
1.06724751 -0.28299338 40.21268845
2.61223507 0.51618052 41.53440094
2.33916426 0.24411729 39.31660461
2.44277287 1.11092603 39.20480728
1.65395892 0.15920392 38.71207428
0.80296969 -2.19394398 40.46676254
2.08207774 0.61436224 41.84582520
0.41380048 -1.81899750 40.39895248
0.65710735 -0.09057203 39.81567001
1.28417337 -1.46047819 39.72889328
0.59719074 -2.39989185 39.97710800
0.97907257 -2.03700018 39.66919708
0.84648871 -2.02821016 39.92363358
-0.15287983 1.09304142 39.06678391
-0.31778872 0.61379021 41.45938492
2.27242279 0.33904630 40.03600311
0.69818771 -0.34525052 39.85297394
1.15650821 -0.11104391 38.97072983
0.97221750 -1.21813691 41.30768204
-0.14750159 1.79061782 40.16508484
-0.37631869 1.16224945 41.06066513
1.69779003 1.91458023 40.58105469
0.76729238 2.07372808 40.26143265
2.40650272 0.56851822 41.15225983
-0.07122409 2.02182722 39.50126266
0.68835771 -1.94516909 40.85570145
1.85019481 0.39451596 39.73105240
1.94607139 -1.31429875 40.61250687
1.00910878 -0.98759991 40.16497421
1.06008017 1.31769657 39.06200027
1.00878263 -0.97058272 41.45299530
1.79475200 0.14885750 39.23981476
0.64344263 1.65666330 39.18380356
1.51174557 -2.05084705 40.26004028
-0.37060761 0.70724446 39.89496231
0.01695168 0.27653721 40.41157150
2.40021229 2.07638168 40.63917923
2.64448786 2.20194101 40.43191910
1.99217641 0.15939951 41.00714493
0.95413095 -1.85201824 40.70341873
0.36544102 -0.09699534 41.51477051
-0.00369000 1.93929541 41.07959747
1.40174568 0.41609031 39.25317383
0.00251257 0.79326600 39.05089951
-0.15407455 -0.13775563 40.95888519
0.84043598 -1.97481537 40.48842621
0.47705078 0.17374928 39.53017426
1.11054003 0.95406741 41.71670532
2.75994635 1.95354474 40.22021484
-0.02776337 -0.33394164 38.62112808
0.74195731 -1.33065844 40.17261887
0.72310919 -2.13709021 39.68884277
1.67346668 -0.45908067 40.29082489
0.20592493 -0.29119390 40.40397644
2.73135376 2.20859241 39.79012299
2.36054468 1.28536177 41.36431122
0.60700655 1.83202505 39.25952911
0.05020118 1.10413778 39.08296204
2.55958700 0.36492506 39.91702271
-0.26690519 1.46647477 40.87374496
2.91448498 1.92676520 40.19525909
1.92599630 1.35114574 39.20723343
1.18867254 -2.38258743 39.86068726
0.60994291 -1.17182875 40.05143738
1.19595826 0.08572844 39.00829697
2.23712826 0.44387081 40.84064865
0.70637375 -1.63969696 39.73692703
1.36037505 1.91400480 40.31182480
0.32425576 2.28227091 39.49099350
-0.37279987 0.37855980 40.71465302
2.43186283 0.76243919 41.25098419
2.27948332 0.15519187 39.24634933
0.64261603 2.09996700 39.51005173
0.27523959 1.99864161 40.92972183
-0.22313452 2.13734245 39.99403763
1.46723962 2.32970285 39.09187698
1.11590266 2.00881529 38.90197754
1.56621647 1.51114380 41.80326843
2.12807369 1.31757784 41.83139801
1.04001164 2.08905506 38.83745956
1.37652707 0.74054569 41.68865967
2.82921505 1.96500385 39.20865631
0.19840628 1.86419368 39.20549393
1.44937587 -0.35692176 38.83807373
-0.18077457 2.03487301 40.65677643
1.16966236 -2.28875589 40.67200851
0.52852386 0.64753127 38.85041428
0.61844701 -1.79596412 39.98926926
-0.26328874 1.32343078 41.21439362
2.76119995 2.06718206 40.01014709
2.30860782 0.64893609 41.75697708
1.14525092 0.49612755 41.79908752
1.71343589 2.02296543 40.32478333
2.20438433 -0.37266785 40.97388077
2.44413829 2.24223709 39.34422684
0.55655336 0.45148802 41.64440155
1.44814694 -1.06881356 39.96115112
0.50937039 -0.61019689 40.18090057
1.61894488 1.94848263 40.26783371
0.82191300 -1.80940318 40.87705994
1.15632868 1.96892202 39.23065948
0.57215279 0.23351145 38.90605545
1.34603965 1.54838943 39.20356369
0.03223360 1.07453585 41.84474564
2.32555723 2.07305145 39.97821808
-0.31846356 1.74537480 40.19449615
1.42133939 2.34677649 39.11764145
0.40031737 -0.31005141 41.29879761
2.08325934 -0.34700111 38.76426315
2.72697234 1.15376163 41.21556091
0.91080165 -1.13268471 41.05149460
2.20375896 0.87789387 39.08439255
0.69307816 -0.19417951 38.67272186
1.06768930 2.29734802 39.10631943
1.85282743 0.15048857 40.27376556
0.94533134 -0.43668079 41.45563889
-0.13208306 1.43387330 39.49648285
2.31858015 -0.18756351 40.65987396
1.47446394 -2.09046173 40.73977661
-0.45080125 0.81496722 40.03411102
0.75827014 1.82318795 40.90921402
0.25275570 -1.40866351 40.64606476
2.46291351 0.99662280 39.45573807
0.70007086 -2.34337854 40.20022202
-0.18912244 1.51843560 40.05893326
1.98935103 2.12356901 39.93533707
1.17252827 2.27378607 39.54858780
2.75272465 0.27320269 40.56982422
1.59023094 -0.50283241 39.00119400
2.12212205 0.41557768 38.64305878
2.36738443 2.07176971 39.58962631
2.50833893 0.50612539 41.71392059
2.39261222 1.64982998 39.34603882
1.54859746 1.56926560 41.94058990
2.23219252 1.93784153 40.27601242
0.34173858 1.42622805 41.83782196
2.30081201 0.56993413 41.69750977
-0.47078454 1.20846963 41.23435593
-0.46278143 1.82747424 40.99163818
0.13021672 -0.53304249 40.31231689
-0.20228183 1.29633105 40.73109818
1.95360684 -0.48714787 39.41326141
-0.28082848 1.27278078 40.58727264
0.94782174 -2.32434177 40.50130844
1.14567256 1.78401816 41.48793030
2.10878849 1.78351736 41.02649689
0.94418281 0.28476158 41.66981888
0.27139693 0.35089603 41.47445297
0.57008082 0.94343132 41.81112671
1.78455234 1.05598891 41.77148819
0.54364681 0.33985701 38.90274429
2.81704998 1.83894563 41.28970337
0.31945342 -0.06303937 39.35105515
1.61110497 0.29628077 39.07477188
-0.30032086 1.12592959 39.91612244
1.38302016 1.66160583 39.09129333
0.56758189 1.78840280 40.70735550
1.62763989 0.07673698 41.52135468
1.13580751 -2.46785593 40.50554657
1.88108385 -0.03110905 41.43256378
0.66133970 -1.41033220 40.95665741
0.65980554 -1.88412726 40.95545959
1.65980828 -0.58540183 41.07995987
0.18712604 -0.20109051 39.32674408
1.72742176 1.33778679 41.62262726
1.10844266 -0.26537377 38.74252319
0.46957541 0.47865343 39.77045441
0.41665965 -0.42623177 40.02420044
0.56740707 1.10500991 39.16479111
0.00015092 1.86225867 41.49205017
0.44894660 2.15049219 39.51867294
2.45974684 0.42720041 40.95825195
0.87690651 0.33488780 39.16627502
2.37966156 0.54084581 41.23831940
2.57581758 2.22924566 39.09621811
1.70583797 0.84484369 41.72380066
1.72804546 -1.14299321 41.10632706
1.67381978 -0.13715613 41.49580765
1.42635167 1.14786398 39.14690781
2.39318657 0.37891391 41.13010025
2.05945754 1.79495656 41.72401428
0.66463017 2.03566885 39.84230804
0.26189780 0.07758287 38.53392792
2.16211271 1.74392366 41.22843170
1.53515589 -0.34603176 39.09474564
0.48443246 2.01712370 40.75825500
1.03747106 -2.09558010 40.73020172
1.54728663 2.02692509 39.60501862
1.01567018 -1.97115684 40.85481644
1.81552732 -0.71240437 40.39187622
-0.28662622 1.40987968 41.65723801
0.66886604 -1.76353467 39.85919952
1.76929176 0.40891233 39.54215240
2.13561368 1.99784672 39.73961639
0.32507271 0.60644883 39.61182022
0.02067900 0.45111135 39.38544083
2.13687325 0.40484148 39.58298492
-0.26821649 0.59605169 40.30899048
0.38142967 -0.59284014 40.94007111
0.55524772 -0.43871459 40.16999054
1.76489365 0.65331417 39.42340469
1.98709762 -0.36903733 39.07594299
1.79663515 0.36537457 38.90502548
1.57141399 1.35005796 41.93828583
2.07405949 -0.37743059 39.19483948
1.78606701 -0.32756272 41.40183258
1.43056226 0.09582524 38.81668854
0.39593899 -0.11529077 39.66559982
0.72925079 -2.43860102 40.22304153
1.88749337 0.02097423 39.84239960
2.75711179 1.98201096 39.34829712
0.13694620 -0.18094558 40.30524445
1.03085971 -2.39699078 40.79790878
0.35070878 -0.00172684 41.08514404
2.24878311 0.09069239 39.37688446
1.61176300 -0.23313253 41.45281982
2.47581577 1.31108439 39.19397354
1.86803305 1.08046412 41.97096252
0.15181255 0.88879162 38.74880600
2.39631796 0.26363441 40.65534210
1.58031869 0.27734673 39.23228836
2.06301260 0.50824219 39.73652649
1.76465058 0.23260418 41.28619003
-0.43414867 1.50243938 40.06910324
-0.21137822 1.82323933 40.22952652
1.89624667 0.59594905 39.49234009
0.11178744 -0.10891588 40.65628433
2.53226089 0.75492108 41.39332962
2.71135592 1.62873483 40.58789062
1.76340699 -0.30161241 39.19596100
0.85251760 1.26941526 39.17816162
1.76660252 -0.56096619 39.88853073
1.43395674 -0.42710876 40.01182938
1.74560308 0.27882111 39.50110626
1.18789756 -2.41277552 40.24944305
0.31400722 1.34922457 41.80677414
2.68772435 2.01518154 40.54832077
-0.18235874 -0.09253873 40.55841064
0.74749881 -0.23590924 39.80634308
0.43331522 0.23772076 38.82625198
1.10210776 1.66614354 39.23349762
1.56358206 1.82833910 41.69175720
0.22505218 -0.19731164 38.52853775
0.41342050 -0.39157537 39.91748047
1.81640577 -0.96491772 40.37848282
0.98784655 1.60095859 41.83905029
0.46553952 0.56847119 41.67380524
1.21125424 -1.71498954 39.75270462
2.13300133 -0.33731344 39.33013535
2.52276230 1.44278038 41.16734314
2.63828802 1.74693978 41.90275574
2.54200530 1.33678722 39.34405899
2.38571429 0.19746207 39.13819504
0.69845557 -0.63924313 41.31146622
1.89690590 -1.09766507 40.79695129
0.52190077 0.19755572 39.38500595
0.80812877 -1.38973331 41.21998215
2.13186598 -0.15940413 40.06208801
0.19449264 -0.60268998 40.76782227
0.59737498 0.94985020 41.78075409
0.19985235 -1.10545790 40.70254135
0.31223094 -0.40114769 40.81431198
0.20599806 -0.77181917 40.48018646
-0.33516657 0.77448112 40.55384064
2.61982155 1.87752664 41.33374405
2.11813331 1.96120691 40.31198883
0.41367131 0.41809148 38.94259262
1.88534665 0.45146042 41.76586533
0.78819358 1.96298873 40.69298935
1.39085972 -0.29177421 41.47957611
-0.19331014 1.21720755 41.80421066
2.81399155 1.88787627 41.03604889
2.17935038 2.28116465 39.41874313
-0.03802454 0.54742712 40.11954117
0.33006418 0.60587209 40.06071854
1.75843191 -0.40155366 39.09147263
2.85516596 1.92230749 39.97699356
2.62162852 0.14024363 40.46719360
0.64105821 1.30476308 41.81332397
2.82009339 0.98701274 39.67486954
0.74151629 -0.11762843 39.84220123
2.41024160 1.62374651 41.67482376
1.33419311 -0.24259520 41.47411346
0.97177565 -1.29083109 39.91672516
0.16410959 0.02516846 41.03388596
2.23260188 0.49463689 41.10912323
-0.23534584 1.24067986 40.36394119
0.85627472 1.76687181 41.50646973
0.62483191 -2.23796463 40.68141937
2.50299549 0.53553683 40.02088547
0.26344270 0.13028982 40.22109985
-0.08386552 1.41822350 41.74547577
2.41919637 0.49269861 41.76869583
2.46074128 1.52180743 39.23189926
2.45081186 1.26323998 41.79186249
-0.32869756 1.68864036 41.47831726
2.32214451 1.66285336 41.21731186
1.36002672 1.10270822 39.06687164
1.14959502 -1.44021273 39.48025513
1.49291587 -1.47909176 39.81086731
2.64346123 1.71536386 41.12974548
0.57381094 -0.51162165 41.26603317
0.19827437 -0.86831516 40.68754578
-0.39624417 1.27342510 40.41598129
0.68982643 0.08460777 41.74677277
0.44782495 -0.28624550 39.43460083
0.65610832 1.99181163 40.72475815
1.51099825 1.19170201 39.08911133
2.68025970 2.19019222 40.24402618
0.00050271 0.64767605 39.42590332
2.31379175 2.15245104 39.24910736
0.90538627 0.08824606 39.23754883
1.74545765 0.09176409 39.36552811
1.27628243 -2.16509199 39.61369324
-0.10202742 0.69127154 39.43937302
1.67844427 -1.04996359 40.34148026
1.42644370 2.25916004 39.20354843
0.16496539 1.83691561 40.25676346
0.66831136 -2.04696417 39.89655304
1.35621917 1.90067160 40.95822525
0.60656607 -1.55860722 40.06370163
2.43568277 2.26015043 38.99428177
-0.05598843 1.02026451 38.94478226
-0.41602540 0.93862808 40.32562256
0.71417880 -1.38947153 40.27569580
-0.05095506 0.00462362 40.81599426
1.93913317 -0.35181865 40.21635437
0.49832833 0.22380260 39.62680054
2.43255949 0.01267031 40.50975037
2.72399950 1.88810790 40.20939636
1.03066969 -2.02764511 39.83589554
2.15937376 2.20332098 39.21562958
0.07583869 1.60564411 39.04207230
1.78099680 2.09717989 38.94952011
1.35585439 1.66081512 41.89569092
0.54025811 -1.27817702 40.45244980
1.71145177 1.80311024 41.32416153
1.34292722 -2.10815525 39.85614014
-0.11055779 1.42380524 41.27504730
0.36037087 0.47111648 40.92273331
0.50302744 -0.28247494 38.98618317
2.85991168 2.05984592 39.23711777
0.73116314 -1.54160690 40.90037918
0.43372172 1.82203567 40.87254333
0.41275281 2.03271770 40.51692581
1.50024354 1.62756741 39.12648392
2.53395414 2.01482105 40.99221802
1.56496823 2.09035254 39.09264755
0.58100587 -2.28151941 40.52351761
0.24070913 -0.14194676 41.39268494
0.53485906 -1.71851444 41.02371216
2.25706100 -0.16394843 41.34054947
0.38108951 0.48788762 39.81406784
2.46350193 1.97413480 41.08508301
1.06505060 2.25818110 39.15329742
2.16168714 -0.18650052 38.67248917
2.52265358 0.26470762 40.34389877
0.24632585 -0.11973114 39.13720703
1.23037755 1.48853469 41.70288467
2.24518776 2.10021973 39.08600998
1.87799478 -1.12565863 40.71973419
2.17447233 -0.77607632 40.92745209
1.66185522 -0.00344079 38.80627441
2.01881957 1.69172621 38.97029877
2.19995260 0.76237947 38.73196793
0.81158179 -1.34896266 39.84487152
0.33699167 0.65495467 38.80544662
1.81132865 1.04227340 39.16576767
0.48594093 0.81531972 41.69049072
-0.37272334 1.44739187 40.22024536
2.74931049 1.26524115 40.57004547
0.40079176 0.18829583 41.20700073
-0.05132473 2.31171322 39.51944351
0.53843063 -0.45748776 38.76322174
2.54531860 1.11769903 41.18111420
0.90367591 -0.22159424 41.54793930
1.47487557 -1.79847741 40.94538116
0.83668816 -1.23810220 40.09913254
1.31989646 0.57177675 39.32071304
-0.08903313 0.48450774 39.96598816
0.98369920 -2.13176250 40.04830551
-0.48173809 1.10854888 41.59786606
0.52548081 -0.02120577 39.36318588
2.48251247 0.03970618 41.03163528
1.06421340 -1.17458594 40.03613281
0.81800598 -0.02765025 38.91511154
1.55171251 2.06631374 39.36533356
1.92153585 -0.33703658 40.85107040
2.12304878 -0.35031536 41.10865021
1.48807395 1.89752758 39.83922577
-0.35404611 1.36669815 40.21963120
2.14102268 -0.67387927 40.57373810
-0.14576960 0.10607433 40.76279449
2.48992777 1.13552701 40.72647095
1.86534166 -0.99519527 40.34328461
1.82134986 -0.53044343 40.88073730
2.00016117 -0.35298461 40.15961838
1.95650625 -0.19024459 40.05070877
2.61404228 1.31033289 40.19931030
1.99749136 0.25928858 41.02352142
0.46148008 0.43130806 39.54027176
-0.21006346 1.47638726 41.07679367
0.92777455 2.03649187 39.83703995
1.73455358 1.81720436 39.19187927
1.40911937 1.48310721 41.82550812
1.26876664 -2.41367579 40.53810883
0.17558599 -1.23636854 40.79604721
1.96588635 -0.17429939 39.47758102
0.45207286 -0.74550474 40.32351303
1.52622437 0.06020066 39.36337662
0.24657106 0.40521359 39.63257217
2.69766188 0.68614417 40.11100388
1.86632037 -0.39355302 40.77278900
0.36741602 0.52063817 41.06624603
2.50002480 1.07078719 39.26461792
0.72602278 2.12689161 39.80225754
2.18451834 -0.30242023 40.88793945
0.40542936 0.44441754 38.79956436
1.94564104 0.08304048 39.92735672
-0.21649575 0.62492603 41.55753708
0.18509746 -0.48461160 38.57802582
2.62628126 1.72048461 39.89402771
2.35199690 0.75641036 41.14521027
0.33981568 0.49963939 39.64803696
1.38173199 -0.74339652 39.91164780
1.86989737 -0.25017452 40.98588562
1.23093104 1.26381886 39.02174377
0.04497027 0.56023675 39.68370819
2.06860161 0.24848050 40.12131500
-0.00577462 1.06437564 38.76331329
0.02578950 1.54183722 40.49168396
2.47223425 0.52042878 39.30040741
2.59428144 1.51641357 39.19525909
-0.14717758 1.06989467 40.89828873
0.00526977 1.94390869 40.00386429
2.04780388 -0.81392503 40.94489288
0.55982381 -0.57706654 39.98338699
1.21753955 0.97939801 41.72447968
1.83594537 0.44365555 41.35502243
-0.18372989 1.41915989 41.35894012
2.27710962 0.66450346 41.55296326
0.61035085 -1.46116197 39.89330673
-0.18165410 1.74184418 39.52551270
2.08849740 -1.09539211 40.78079224
2.19069624 -0.17813812 41.12565994
1.00445020 -1.24559104 41.07912827
2.82691479 1.91779602 39.30838394
0.37278527 -1.36748481 40.74770355
2.39007568 0.54330271 40.89512253
1.22166622 -0.03314123 39.70658493
-0.13278198 1.66833746 40.69511032
2.55093431 1.34885275 41.71685028
1.00767481 -0.14270675 38.60907745
0.37521660 -0.57763267 40.84259796
2.29541302 1.51718092 39.19996262
1.24947000 -2.29725456 40.26751709
0.81657243 -0.98327869 41.18832397
1.20429552 1.04080379 41.66871643
2.31758451 0.52312487 41.47681046
1.56315053 1.68124783 41.77689743
2.02773738 0.57137126 41.68777847
2.62455606 1.01181698 39.18724442
2.13013124 0.23252657 41.03465271
1.88454127 -1.49649417 40.75400925
0.49822772 -0.30738217 40.99540329
0.03131711 1.02882409 41.77802277
1.14953947 0.11725451 39.35026169
1.30208623 -1.18414783 41.16121292
-0.16166735 0.78853464 39.92356873
2.33052158 0.37315840 38.84371567
1.26492119 -1.95511150 39.79506683
1.86080670 0.11948383 39.10190964
2.08336353 0.03757196 39.63602829
1.49840569 -1.63595116 40.90246964
1.44100308 1.80456948 41.28778839
0.84844971 -2.34188843 40.03951263
1.97025180 1.42930114 41.83444977
2.09733415 -0.54017341 40.56604004
0.26235878 0.59420621 41.13734436
1.96320081 -0.48432848 38.96734238
1.02006400 0.11569589 41.54370499
1.57171094 -0.93840098 39.94638824
2.23010492 -0.34160402 41.07966995
2.53456211 2.19507742 39.47378159
-0.03356838 -0.21579781 39.21074295
0.30264026 -0.99451673 41.07856750
-0.23211884 1.68573165 41.43384933
0.71949154 2.09140301 39.56874084
2.07998681 0.56455791 41.75102997
1.98973536 1.57368851 41.82764435
2.64547014 1.07262433 40.62955093
1.33133459 0.16006638 41.69678879
0.84166414 -0.66980654 40.06847382
2.19146442 0.34004042 39.74277878
2.34020185 0.01753665 38.88643265
0.41551822 -0.20432819 39.07513428
1.99704695 0.38796517 39.94060898
2.03216600 1.75100386 41.39463043
2.50897050 0.37355167 40.75614548
1.69617033 0.69733745 39.39729309
1.01973784 2.01783276 39.98438644
2.03074622 1.48573470 39.14677048
0.04514718 -0.29208678 40.93547058
-0.20436537 1.33418691 40.05762863
2.30019355 1.23908305 41.07606888
2.34402847 -0.18000942 38.56946564
1.06946278 -0.50870740 41.38940048
1.74011147 -0.01780410 41.31333160
1.82275355 1.89365673 40.86125565
2.11936569 -0.29712018 40.30059814
-0.36922801 1.05460846 41.12392044
0.91680557 2.16373014 39.60747528
1.17025733 -2.26157713 40.50829697
1.70303512 -0.29957888 40.88471222
1.09968042 1.88821685 40.32052231
1.01783383 -0.00532427 38.97046280
1.51510036 0.92527413 41.86029434
2.52847242 0.95090294 39.07043839
0.44015396 1.88866782 40.04392242
1.55286086 2.01814175 40.84619141
-0.10839283 0.85738724 38.88835526
2.07861018 -0.28012198 40.11130142
2.36744785 2.24228859 39.62592697
1.31014585 -2.09290075 40.83773804
-0.19909513 1.85858810 40.93857574
1.07048976 -2.07590675 40.03326035
0.84911764 -0.00174764 41.55912781
-0.22023880 1.25795281 41.16621399
1.75677133 0.07238954 41.48334503
2.28254557 0.54197562 39.45631027
2.08764625 1.84092796 38.84725571
0.46045226 -0.27155575 39.41843033
1.27271187 2.11349869 39.45288849
1.66517019 1.44703996 41.87946320
1.95564139 1.91920280 40.47378159
2.74697185 1.45736063 41.56258011
0.27617812 1.43586898 41.90711212
0.59775198 -0.28919998 41.32320023
-0.23718393 1.88272727 39.36018372
0.12194836 1.95473909 41.27563477
0.55898893 -0.54986709 41.10583878
0.97896034 1.87290037 40.38319016
-0.26925302 1.61142492 39.39693832
0.20602596 1.73562348 39.12994385
-0.19758487 1.62788975 39.77821732
0.39527017 0.93879795 41.76828384
2.76477861 0.89493966 41.17154694
0.13885915 0.02653562 38.95379639
-0.17576873 0.62987310 39.25065231
2.33431292 1.95449388 39.60956955
1.23200047 -0.56999826 39.98128891
1.73116899 -0.43269596 41.54325104
-0.28353631 1.20651221 39.89594269
1.67278075 2.04743862 39.05971527
0.21176481 0.49506480 38.78866959
2.00334358 -0.15888040 39.32411957
2.84122348 1.94969153 40.76426315
-0.04092503 0.25273100 39.02241898
1.48804617 -0.25534570 39.79096603
2.01446867 0.22565633 40.14636993
-0.37172735 2.05166435 40.00892258
1.42921317 -1.52105689 40.23798752
-0.01210880 0.45837539 39.97929001
-0.32480514 0.61799955 40.79427719
1.41843820 -1.48424733 40.49012375
2.78048825 1.82242680 39.78290176
1.70241058 -0.76049823 41.02474213
1.93107414 0.19184874 40.23902512
0.60745472 -0.90767747 41.11069107
0.42481869 -0.45682225 39.53758240
1.27587795 1.16977620 41.83952332
1.51374066 -1.46218610 41.11375427
2.65240407 2.04880238 41.11996078
1.83590746 1.87935817 41.27821350
2.23899794 0.38328633 41.32724762
0.38051224 0.59501249 39.38837814
0.02113068 0.92801934 41.73069000
1.95490801 1.93456209 40.03137970
0.93146050 -2.02468824 40.82023621
1.45283437 1.84461951 41.06225204
2.14839530 0.28877097 39.78210831
-0.05577111 1.50679219 41.82794189
-0.13420475 0.08461829 40.56304932
1.15514219 2.19127703 39.84245682
1.87449718 0.55767244 39.09875488
2.08823586 1.54046822 41.80589676
2.20208430 -0.45394003 41.02494049
0.04530883 0.78259939 41.74614334
-0.09252906 0.92992157 39.05583572
2.67867661 1.09644914 40.26652145
1.35924590 -1.33721650 40.19431305
0.25779420 0.64163464 41.31015396
1.22524750 2.02759886 39.59450912
-0.09438312 1.59554374 40.70145035
0.37528211 0.27782330 39.43984222
-0.31601083 0.18020122 40.69885254
0.83249509 -2.13831425 40.44127274
0.59907472 -1.69400179 40.62385559
0.64937127 1.74087942 39.24248505
0.80039901 -0.59438711 41.41745377
1.26702189 -1.21243775 41.17693329
1.51186490 1.97232807 40.57019424
1.79726708 -1.03453159 40.39159775
1.97271514 0.28299323 40.97448730
2.06778860 -0.33858865 38.56932068
0.07287753 0.57542580 40.68732071
-0.21470952 0.87550479 40.11402893
1.46385694 -0.30616060 39.95628738
2.39568138 0.34624588 40.22834396
1.53954875 -0.33210608 38.81940079
2.31176925 0.50071424 41.00920868
1.86526704 -0.07908905 41.07807541
2.16303062 0.54643732 38.62319946
0.07526326 0.37599993 40.21026230
0.01472533 1.94190383 41.30306625
-0.28507602 0.79789507 40.41456985
1.26986182 2.17159176 38.86962509
1.76422632 -0.04075531 38.84283066
1.20772457 1.64812195 41.69376373
0.56385797 2.00667048 38.89855576
0.16459739 -0.98886681 40.53016281
1.75114036 -0.54958189 40.20335770
2.31896925 0.06961834 40.96074295
0.86659586 -0.88402349 41.19382477
1.02666891 -1.20654595 40.00904846
2.18161464 1.89778960 40.78640747
1.82205009 0.04160425 41.35555267
-0.34786940 1.64240265 41.08300781
1.89271355 -0.56095940 39.44300079
1.80676055 -1.35893023 41.18010712
1.97980571 1.90674210 41.02928925
0.29971743 1.47692573 38.93812561
2.67195582 1.05690885 40.45971298
0.32542628 -1.33911717 40.90795517
2.55264974 1.59649670 39.36210632
1.84050155 0.54250801 41.44766235
2.69558787 2.30245924 39.40599442
2.69057822 1.56687748 39.30783844
0.71815932 -0.45193547 41.24341965
1.50194693 2.41218519 39.07537460
-0.01277006 0.47332811 40.84268951
1.52254128 2.26844883 38.92566681
1.67711544 1.33588290 38.94506073
1.59322524 0.37137449 38.88428116
2.38616228 0.74031115 40.60585403
0.54102510 -0.59429359 40.13809204
0.11593103 -0.39195335 40.67488098
2.46190596 -0.02403609 40.81549835
0.32859308 0.45056987 40.86504745
2.06946230 2.04530382 38.76887512
1.90362620 -0.49253866 39.17279434
1.97395182 1.41397738 41.94516754
1.07960439 -1.36597002 39.97713470
1.58534563 1.52516246 39.03467941
1.82527733 -1.22516894 40.37320709
0.61651754 -1.17814851 40.19564438
2.58573318 0.90436339 40.18593979
2.34047699 0.76183778 38.92361069
1.25538158 -2.13761044 40.73021317
1.05860233 -0.13728356 40.00436020
1.59405613 1.34596348 39.08618164
2.23593283 2.27118063 39.51517487
2.56640506 2.17708731 40.52179718
1.23601067 -1.87378168 39.56954193
0.70691657 2.15441990 39.30228806
1.37007558 -1.21739829 39.79249954
-0.25674570 1.08057010 41.66911697
0.79609305 0.66529512 41.77078629
1.94680858 -0.28790843 39.45703125
1.83692038 0.35841921 39.41167831
2.01624346 0.36166793 39.48369980
1.41595984 -0.60309291 41.50307083
2.07339144 -1.07460451 40.64514160
1.98225808 1.79912901 41.56151962
2.36514759 -0.06124689 38.89825439
-0.02728903 0.35110620 40.82168961
1.75776911 -0.55580366 41.03856659
0.41902989 -0.43221909 39.51925659
1.60017824 -0.34421942 38.82046127
1.75613427 -1.10934198 40.51964569
1.37996316 0.06635065 39.85525513
0.00583446 -0.01208000 38.67801285
0.42497897 -0.02854773 38.71237183
2.01380253 0.06026957 40.09978104
1.16698301 1.82618237 41.59423065
1.67962646 1.23945034 41.72393036
-0.06935227 2.10421991 39.41019058
0.19453228 2.02019501 40.18912506
2.07973623 -0.24174017 39.74171066
0.17041624 -0.33430219 40.04447556
0.31304663 1.86797619 39.57373810
0.38690269 0.91437799 38.98761749
0.95597696 1.93583322 40.93303299
-0.32086098 1.39226985 41.85969543
0.46869844 0.36707938 38.96155548
0.95298517 -2.40106869 40.42308044
1.26815486 1.44449723 39.31015778
0.78330851 0.26936224 38.74576187
1.04631484 2.06193829 39.31558609
-0.35233915 1.07777095 41.00612640
0.45455539 -1.21423554 40.78270721
2.16017938 -0.43483481 39.13216782
1.80592406 -0.30537748 39.03263474
2.48925495 0.75233459 40.48596191
0.36580670 -1.14902616 40.95507812
1.60601103 1.29730308 41.61238098
1.34567809 -2.42936897 40.08066559
-0.24422193 0.58708751 41.08035660
2.11848950 0.45083919 39.55113602
1.56246758 0.54976845 41.73382568
2.43807268 1.62283242 39.44838715
0.18977988 1.96018374 40.58330536
0.47045779 -1.35462880 40.97177124
0.22759783 -0.80839759 40.82903671
0.08787298 0.49823010 39.72556305
-0.39556432 1.18766272 41.70518112
2.53247070 1.54475033 39.64009476
0.94082242 -2.32068110 40.33436966
2.36917496 1.76778901 41.96638870
2.47491074 1.46582270 39.45148087
2.64770150 1.99146259 40.48250580
0.39981264 -1.92451739 40.68561935
1.09623384 1.78500044 38.92098236
1.66013908 0.33229628 39.19234467
-0.23086381 1.54609442 39.27891159
0.57059926 1.57964158 39.18904877
2.54670477 0.63686723 41.05892944
1.54393101 0.29717383 41.62726593
2.28925943 0.06866112 41.12155533
-0.07059562 0.37597167 39.34532928
1.47016370 -1.54549849 39.83668137
0.65382552 0.01491429 41.58525848
0.61808723 2.25018501 39.18084717
2.31228042 0.34291881 41.05480576
0.69195420 1.92799890 39.81019211
2.35850668 0.17385878 40.61205292
-0.19641030 2.25158834 39.88350296
0.28521115 -0.63466549 41.13341141
1.81573665 -1.32507861 40.82132339
1.81480873 -0.19688702 39.50887680
2.85826349 1.82235038 39.91790390
1.85064125 -1.09382665 40.27497864
1.26305866 1.94928849 39.94743729
-0.52916133 1.06484878 40.07174301
0.44187796 0.44388643 41.04175949
0.72361809 -2.23155880 40.10574341
-0.10560894 -0.04039074 40.81012726
2.58736181 0.83154798 40.43665314
2.79185247 1.76144826 40.44089890
-0.18174040 0.98483729 39.65105438
1.04954147 -0.31854001 41.33749390
0.22422355 -0.32751262 40.74583054
1.06685042 2.37468863 39.01266479
0.81409943 -2.24638605 40.17249680
-0.38436782 0.98474932 40.77632904
1.93161869 -0.28508192 40.86047363
0.06609678 0.43201408 40.24703217
0.36272115 -0.26359034 39.45930481
1.22717309 1.52299178 39.25121689
0.44266385 0.32872963 39.93796921
2.30386114 1.97271645 39.88921738
0.00754881 0.54375654 38.95589066
1.59480762 -1.15920484 40.23369217
1.21242154 0.72447294 41.52574158
1.68715239 -1.96017468 40.20473480
1.69594979 -1.57401621 40.61276245
1.75319624 1.92643142 39.00238800
0.76740086 -0.14979273 41.45352936
1.73644125 0.55799955 39.08214188
-0.05671704 -0.42003292 40.86215591
1.25679266 -2.01498008 40.87429047
-0.12552273 1.69522667 40.23824692
1.03988123 -2.14747143 39.93480682
2.22913551 -0.04570856 38.83872223
2.51108027 1.55575442 39.45803070
2.57976341 1.36849380 41.52511215
1.80146623 1.23436677 39.28562546
2.62136531 1.14901400 39.66661835
1.80390310 -0.58623350 40.97787476
0.56193411 2.13280821 40.48584747
0.57265186 0.57035065 39.32244873
1.31956244 1.74188745 39.30430603
2.08900070 2.22330856 39.34733582
1.20329690 -0.69089860 41.40785599
2.47276235 0.95556939 41.93080521
1.28547442 2.17325783 39.32531357
1.53855550 -2.03754473 40.26895523
1.75484002 0.91728204 41.84099579
-0.10063016 1.91371226 40.97651672
1.38702345 -0.97445434 41.25185394
1.14228177 -2.28527021 39.98558807
-0.18953919 0.28574830 39.13674164
0.05550969 0.67165494 41.58617783
2.34710264 1.56589532 41.99964905
2.63683558 1.79757738 39.44420242
1.74368513 1.44840324 39.17953873
0.76919973 0.02413343 38.85827255
0.98634493 0.20912370 39.28138733
-0.07971621 0.54657525 39.35572815
1.27725601 -1.95099866 40.75330353
1.74898362 -0.71702433 40.64923096
0.45632184 1.87636507 41.28598785
-0.36966705 0.54471344 40.70512009
1.98003364 -0.50046504 41.12124252
-0.15771520 0.80873024 39.15237427
1.71461344 0.24860868 39.33737564
-0.21327221 0.11868471 39.10690689
2.59235191 1.68918419 40.34262085
1.36577988 0.08180897 41.81006241
0.38373774 -0.26874745 41.09819031
1.32036638 1.35581362 41.92211151
0.66350222 -0.19261663 41.42398453
-0.24137139 0.94407910 40.61857605
0.02131069 1.94057596 40.64593887
2.42135572 0.64698726 39.75634384
0.51714540 -1.62384009 40.42655563
1.46016121 -1.40307188 40.21171188
0.20412397 -0.93374836 40.75796127
1.15242898 -0.26974091 38.88027573
2.60480833 1.41667211 40.17952728
0.30448443 -0.54181343 40.27875900
0.55821157 -0.60075527 41.02844238
2.20309258 -0.07159416 40.28715897
1.24598312 1.77930224 39.18458939
-0.23499107 0.80627978 40.14451981
2.31378078 0.39635709 39.74319077
0.77137530 1.50840497 41.68094635
0.57179552 1.25392103 39.12950897
1.05468106 -1.18061912 41.34713364
2.39588404 0.40105110 39.27689743
0.30772573 -0.34968492 40.00084686
1.93305159 -0.21584362 40.93665314
1.84879732 -0.51196718 39.63228989
0.33294529 -0.90026283 41.02161407
2.52819443 0.63515383 41.04773712
1.81614053 2.06079292 39.55218124
2.01005912 1.61268592 39.27336884
2.54218173 1.64220273 40.76609802
2.50743723 1.13239753 41.28871918
2.26522541 2.09048367 39.67753220
0.58606899 0.52149433 41.59653091
2.07445526 1.11391580 41.87907791
-0.02244759 0.49214262 41.16086960
1.09726715 -2.04406118 40.03759003
2.19022083 -0.34714201 40.78406143
2.10731745 -0.36838087 38.99364090
0.63762450 -0.81628346 41.15332794
0.71795774 1.36157155 41.83691406
2.71628952 1.07758498 39.84860992
-0.21040356 2.20515156 39.89525986
2.42857575 0.57350504 41.28285980
2.46575737 2.11925793 38.89097595
0.51141149 -1.25086403 41.09875107
0.72719872 -2.18367004 40.37317276
1.51803231 1.53000987 39.20037460
2.02060890 -0.84397370 40.69534302
0.11669815 -0.25405997 40.92481613
0.72799313 -0.13016880 39.38383102
0.05302799 0.18350378 39.97503662
-0.18575847 1.37859643 40.65582275
0.89092159 2.13606501 39.09625626
0.19825071 0.24003407 40.19595718
1.66501474 -1.83703542 40.62282562
2.29118299 0.14726417 39.49114609
1.48821688 1.57035673 39.18296051
0.43992603 1.68946350 39.14521027
1.65971291 -0.93332422 41.29132462
0.26406139 1.08967435 38.88494873
0.37891132 0.22212502 40.02090836
1.47852969 -0.38423055 40.30901337
1.08171141 -0.18690762 38.48453140
2.15525270 -0.33539763 40.43675232
2.42394590 1.09303916 40.61600113
2.32854319 0.67521369 41.50985718
0.74237871 2.13294411 39.36111069
0.13279021 -0.14328955 39.86125565
-0.10421264 1.46858871 41.05889511
1.77602673 -1.09633172 40.36803818
1.58267903 -1.60475278 40.37576675
2.08737278 0.04578679 40.51256561
1.96817076 1.28978503 41.88232803
2.10699105 1.77938628 41.71494293
0.53535706 0.30286127 38.82514191
0.38629353 0.55439979 38.93124008
2.39022756 1.92056060 40.65094757
1.65529513 0.18354549 38.78723526
1.59935904 1.59413218 41.44615936
1.99098897 -0.21780278 40.87364578
-0.27121472 2.03442860 40.43839264
0.49793017 1.04344261 41.75576401
0.25511283 -0.13280270 38.96095657
-0.02000308 0.64683974 40.98120499
1.52760637 -0.86093473 39.98590851
1.86832309 0.31124082 39.37574768
1.30628693 2.27113056 38.89338684
1.73686099 2.31935072 39.02365875
1.16621387 -1.99914551 40.63550949
2.02702999 -0.10321010 40.67153168
1.79560959 -1.30865204 40.27257919
1.27266240 0.03866446 39.12266159
1.49095583 0.85773927 41.69239044
0.93325639 -0.49655849 41.37100601
2.36364841 0.65958679 42.02426529
0.40253288 -0.23830530 38.67154694
0.86538160 0.74808848 41.74571228
2.13214326 0.58984095 41.86626816
0.83340192 1.91472352 41.01875687
-0.25045037 0.08299457 41.05091476
0.41182500 1.07338166 39.26662827
0.60172039 -0.63572097 41.15052795
1.91357505 1.90447116 41.26704788
1.55659819 0.89866716 39.19329834
2.58108854 0.65598744 40.51079941
0.59852827 0.25679502 41.34437180
2.06226110 -0.04518670 39.96293259
1.22667122 -2.16834211 40.13530731
1.50558758 -1.83547914 40.21457672
-0.41087365 0.96015221 40.64565277
1.58692789 -1.58808756 40.46804047
0.35003012 -0.47915325 39.84896851
-0.29891849 1.47339380 39.88530731
1.48766947 -1.64358640 40.42464447
1.91783476 0.36623874 39.75082016
1.21416175 1.79694641 40.68318176
2.16158485 -0.05330941 41.10421371
1.54654646 -1.76319087 40.11479568
0.30015498 1.34325290 41.90933228
2.04027534 0.09211273 38.59722519
0.13192439 0.43603870 38.75126648
2.59180212 2.19365358 40.55726242
1.66171336 2.03756857 39.49757385
0.13116944 0.01629927 39.37238693
1.45423412 -2.01984787 40.75726318
1.13647223 -2.50309801 40.51873398
2.68349504 2.07037592 40.18986511
1.42420805 -0.29096523 39.85272980
-0.24939477 0.75430739 41.47794342
