0.02889985 0.17354503 -0.00733609
0.02194663 0.22458559 -0.01416050
0.01430631 0.11829266 -0.03553396
-0.02795146 0.20482898 -0.02522559
0.01346942 0.14303753 -0.03258087
-0.03743146 0.10687248 -0.01649065
0.02282929 0.21499413 -0.01548308
0.01238632 0.23421130 -0.01050154
-0.00507288 0.09507933 0.00267451
0.00578941 0.21556960 -0.02460365
-0.01319448 0.05753197 -0.00558934
-0.00265320 0.07645615 -0.02750679
0.01195632 0.24257797 -0.01405723
-0.02094532 0.08453812 0.01347301
-0.00956804 0.07942106 -0.01759785
0.02494312 0.05730460 -0.02713963
-0.02868111 0.06587465 0.01786500
0.01538697 0.08454563 0.01872316
-0.02290699 0.13060935 -0.01768683
0.03134823 0.18860242 -0.01177966
-0.00990468 0.24578136 -0.01693851
0.02464440 0.05861149 0.01693054
0.01777566 0.06245528 0.02528240
0.00561695 0.12456649 0.01468108
-0.01774235 0.16320005 -0.01964624
0.01625410 0.05760425 0.02137407
-0.00129588 0.11158888 -0.03602830
-0.00381439 0.08620670 -0.03361571
-0.03850177 0.09529952 -0.00738611
-0.01979000 0.06391770 -0.04451235
0.02581534 0.06271031 -0.01755411
0.01664986 0.11914398 -0.03073229
-0.00724945 0.12444659 -0.03177654
-0.02467021 0.05338049 -0.02527805
-0.02366249 0.20073502 -0.01184753
-0.00445458 0.06057747 -0.01510573
0.00615413 0.08396523 -0.01090389
-0.01373826 0.12563215 -0.03024150
0.01536930 0.10595003 -0.02943853
-0.01242095 0.21363586 -0.02093728
-0.02058858 0.08951890 -0.02163994
-0.02459777 0.16167673 -0.00627097
0.00550598 0.22199774 -0.00988708
-0.02234259 0.08716027 -0.01250160
0.00262750 0.23145165 -0.01298654
-0.01500861 0.05806883 -0.00479295
0.03073861 0.17669083 -0.01479385
0.01497269 0.08284913 -0.01956654
0.02646688 0.17721121 -0.01738365
-0.03261670 0.12532707 -0.01411952
0.03528494 0.15215860 -0.02713522
-0.03592923 0.08945344 -0.00861731
-0.02587396 0.14682686 -0.00693564
-0.02659284 0.05225335 0.01395377
-0.01281315 0.12326734 0.01765348
0.02707732 0.15585408 0.00111497
0.03141695 0.19660175 -0.03045180
-0.01090634 0.24462503 -0.01153925
-0.02728385 0.15387617 -0.03228254
-0.00998658 0.15482453 -0.02502010
0.02145776 0.16045980 0.01922487
-0.00565894 0.12790915 0.00912569
-0.02230777 0.15499832 -0.00832884
-0.00057155 0.21926278 -0.01638222
0.03122480 0.20165233 -0.03577571
0.03319100 0.07339163 0.01869180
0.01441412 0.10027157 -0.02910746
-0.03361680 0.14537707 -0.00987246
0.00281008 0.17822373 -0.03777764
-0.01983404 0.22494748 -0.01211837
-0.00973530 0.08124176 -0.01281244
-0.01646350 0.15813898 -0.01799090
-0.01183017 0.20388570 0.00342463
-0.00739506 0.18702580 -0.03102927
-0.01294968 0.09222063 -0.00217576
-0.00187389 0.17172715 0.00824650
-0.00214369 0.12803456 -0.03741991
0.02744489 0.15227927 -0.02146393
-0.02398005 0.16733338 -0.02259531
0.01072403 0.20570756 -0.01996497
0.01512509 0.05905019 0.01384724
-0.02000770 0.15616482 -0.00136286
-0.02445619 0.17563234 -0.02503327
0.01524078 0.06056187 -0.00625686
0.00512436 0.10893076 -0.03304383
0.03666134 0.18971898 -0.02237114
0.03465114 0.06170780 0.00007497
-0.02859973 0.08103418 -0.00034498
-0.03008642 0.06991543 -0.04075436
-0.02180496 0.22906825 -0.02075309
0.02188325 0.07353374 -0.03163873
-0.02379658 0.08088847 -0.00800462
0.03661066 0.16525435 -0.00475335
0.01523825 0.05935570 -0.01869189
-0.00410281 0.05889863 -0.02171182
0.00545225 0.09067802 -0.00603778
0.02685959 0.07781223 -0.00296640
0.00656896 0.08287084 -0.00324597
0.01398383 0.20388079 0.00305794
-0.02517171 0.20083800 -0.03012667
-0.00685280 0.21046190 0.01108024
-0.03333959 0.13504547 -0.01610555
-0.02739104 0.24027695 -0.02797324
-0.00476078 0.07534046 -0.02334728
-0.01296832 0.08073417 0.00007603
0.01859918 0.18573353 -0.03408279
0.00046346 0.07835387 0.03094278
0.00099512 0.06207274 -0.03471143
0.02660984 0.14550309 -0.01856438
0.03239474 0.18534589 -0.01648360
0.03543392 0.22512096 -0.01424714
0.02958142 0.05365524 -0.01663482
-0.03548437 0.12151140 -0.02777122
0.01966741 0.18777779 -0.00676501
-0.02141668 0.07818319 0.02622106
0.01316706 0.08299136 0.01685073
-0.01732662 0.08791324 -0.00585023
-0.01238636 0.11974419 -0.02891458
0.02684888 0.19927007 -0.03140590
0.02577138 0.09978935 -0.01096736
0.02661718 0.21003717 -0.03182969
0.00556763 0.23956193 -0.01502135
0.01123872 0.24337921 -0.02555562
0.01090945 0.14192927 0.01153881
-0.02942342 0.22727770 -0.03099879
0.01374587 0.16236611 0.00873244
0.03526896 0.23606852 -0.02229791
-0.02726468 0.13683085 -0.01386560
0.00720741 0.23594055 -0.00811915
0.00941676 0.09446038 -0.03339123
-0.02593500 0.17737658 -0.02219693
0.01120004 0.07914077 -0.03930057
-0.01305371 0.15101531 -0.02896742
0.01080425 0.05887622 -0.02888081
-0.00218813 0.18464626 -0.00688850
-0.01838780 0.09263016 -0.02490743
0.03422836 0.08315044 0.00174113
0.02222241 0.23873359 -0.01883456
0.00980781 0.08903888 0.00096733
0.00475785 0.05917255 0.01795590
0.00023403 0.10776575 -0.00018025
-0.00333100 0.05664712 -0.03960966
0.01817276 0.12261246 -0.00250601
-0.00726979 0.19215187 -0.03004952
-0.02598557 0.09862062 -0.02641729
-0.02506425 0.06816257 0.02412444
-0.01874496 0.16152416 -0.02078083
-0.01465321 0.16475277 0.01656492
0.02848703 0.13182646 -0.02069013
-0.01972825 0.20644875 -0.03436305
-0.03350849 0.07716715 0.00656945
0.00699203 0.07839766 -0.01373008
0.02118343 0.05624412 0.00774560
0.03315553 0.05609398 0.00144645
0.01712134 0.20281017 -0.00112245
0.01404652 0.16970114 -0.02620167
-0.03100364 0.05881283 0.01542456
-0.01547534 0.07416456 0.02852151
0.01803256 0.17322539 0.00631383
-0.00313738 0.20804398 0.00682475
-0.00291052 0.10276175 0.00223158
-0.02116789 0.04597262 0.01428068
-0.01664304 0.12631045 -0.02444941
0.02615845 0.12302111 -0.01266178
-0.02888299 0.10424114 -0.00653817
-0.03845843 0.08020140 0.01118730
-0.03242630 0.07924160 0.00322550
-0.02404105 0.07761968 0.02821542
0.01002568 0.13822982 0.01372025
0.00614599 0.17074506 0.01809367
-0.03758741 0.13796669 -0.00070746
-0.03666548 0.07719400 -0.01801305
0.02156572 0.07425369 0.01217221
-0.00084096 0.07996133 -0.03749161
-0.01348423 0.18433188 0.00536935
-0.03365500 0.14253107 -0.00647854
0.00275060 0.21908541 0.00182451
0.00163716 0.12831718 0.00774359
-0.03208405 0.18958449 -0.01710631
-0.03690755 0.07270046 -0.01445978
-0.01616807 0.16072363 0.01662228
0.03006331 0.07247794 0.00568236
0.02771605 0.07376690 -0.01563984
0.00957014 0.23790868 -0.01318204
-0.02907950 0.08519062 -0.01471333
0.01586923 0.06640179 0.00333501
-0.02299574 0.08264840 -0.00865919
-0.04336888 0.05696845 -0.02458430
-0.02900379 0.11159866 -0.00836540
0.02473341 0.20848693 -0.00744487
-0.02789095 0.05220323 0.01626024
-0.00439144 0.07837106 0.02046807
-0.03704704 0.15858488 -0.01845545
-0.00721837 0.06442068 0.02357877
0.02754142 0.15563299 -0.01355985
-0.01776986 0.08610318 -0.01503021
-0.00839610 0.13282420 0.00999060
0.00738870 0.09106226 -0.02309888
-0.02119105 0.15564373 -0.02520505
0.01339133 0.20380822 -0.00013798
-0.01125508 0.16821045 0.01365760
0.02238572 0.15784290 -0.02591996
-0.02449419 0.13524182 -0.01889605
0.02567530 0.06522346 0.02449334
0.00377904 0.17480572 0.01405197
-0.00881419 0.06401131 -0.01576745
-0.02504049 0.06169438 0.02728945
-0.02287279 0.21969011 -0.01284116
0.01348072 0.07170821 0.00268160
0.02272730 0.11296627 -0.01158902
0.01821117 0.20815223 0.00748151
0.00749386 0.14315964 0.01575240
0.01071380 0.08137567 0.01217337
0.00784543 0.11126675 -0.00130766
0.02375243 0.12612146 -0.00972342
0.03024671 0.16613680 -0.02244825
-0.01995711 0.21202949 -0.00410371
-0.02562860 0.20348968 -0.01504330
-0.02797897 0.05579259 0.01753748
-0.01313518 0.10000208 0.00597181
-0.03222527 0.05383108 0.02325527
-0.01532391 0.05823070 -0.00606919
-0.02479655 0.13075529 -0.02070970
-0.02673398 0.14704098 -0.01868293
-0.01660785 0.05952559 -0.02255471
-0.01220689 0.11998585 0.00626105
0.01925362 0.10067189 -0.01409280
0.02323879 0.21700993 -0.02843604
-0.02164151 0.06025771 -0.04668228
-0.03951754 0.13721889 -0.01111661
-0.02001528 0.13024898 0.00651378
-0.02199947 0.16863142 -0.00049363
0.00991872 0.19892085 -0.02552450
0.02167784 0.18579462 -0.02684635
0.01923670 0.06072441 -0.01720621
-0.01254658 0.13835351 -0.02605361
-0.01142234 0.04927113 -0.03811206
-0.00724769 0.09432472 -0.03677245
0.00657018 0.21800154 0.01179063
0.00410090 0.16243120 0.01863165
0.03544527 0.14440668 -0.01194485
0.00324993 0.08451246 -0.01145376
-0.03320462 0.14304104 -0.01579171
-0.00459398 0.06343178 -0.02791992
-0.00047655 0.21016532 0.01145645
-0.01926794 0.08409718 -0.02606609
-0.01250607 0.09841445 0.00595049
0.01685386 0.24460599 -0.02581384
0.03407126 0.18393296 -0.00342658
0.00520068 0.06262505 0.01629386
0.03539219 0.20987162 -0.00986731
0.02854687 0.19369286 -0.00593181
-0.00623827 0.21477436 -0.02615742
0.00552518 0.13502415 -0.03249620
-0.00401851 0.05401593 0.03210431
0.02718154 0.16084366 -0.02200009
0.00030146 0.20799650 0.00508656
-0.00175131 0.08054690 -0.02586388
0.03043750 0.04551637 0.00066555
0.03634942 0.21029946 -0.02397349
-0.01803291 0.16108398 -0.02492674
-0.02067517 0.22864591 -0.01268433
0.00225254 0.06354256 0.03128834
0.02758291 0.14030507 -0.00301939
-0.03219470 0.08774322 -0.02326984
-0.00477276 0.09051733 0.00563859
0.03312353 0.18385902 -0.00453664
0.00626049 0.07936957 0.01876669
0.02506177 0.16664031 -0.02569538
-0.01408437 0.17826757 -0.02996366
0.02771745 0.10584592 -0.01860006
0.03335916 0.21442345 -0.01729326
0.01824624 0.06050797 -0.02667758
-0.04149980 0.08120248 -0.00586437
-0.02276324 0.23443833 -0.01690995
0.01552976 0.17782061 -0.02401222
-0.00281339 0.09251498 -0.03557616
0.00032420 0.16694623 -0.03046821
0.02175319 0.18691732 -0.00192756
-0.03014879 0.13557252 0.00079595
0.00932410 0.22105908 -0.00447358
0.02837676 0.16360660 -0.02219288
0.00936282 0.09626530 -0.02813172
0.00563113 0.07561485 -0.04228982
-0.01228920 0.15097040 -0.03231628
0.00277496 0.19148721 0.00847418
-0.02907462 0.05986519 -0.03862771
0.00579917 0.20919549 -0.02543991
0.01998020 0.24668878 -0.02237918
0.01474641 0.20606297 -0.03147675
-0.03727165 0.07602869 -0.02626769
0.01053654 0.07907075 0.02625315
-0.01753556 0.16247115 0.00230894
0.02868204 0.23639941 -0.01782599
0.01170809 0.20139575 0.00900387
-0.04252832 0.07790735 -0.01676317
-0.02930423 0.16561618 -0.02327406
-0.04104830 0.05520486 -0.00410328
0.00275481 0.09937352 0.00252203
0.01899646 0.21786255 -0.02194290
-0.00897919 0.11626562 -0.03582005
0.03312852 0.23842600 -0.01739548
-0.02478455 0.22411621 -0.02879198
-0.03437711 0.15124840 -0.01603941
0.01996912 0.13694645 -0.01849918
0.03177086 0.20445710 -0.02868849
-0.02429690 0.09225269 -0.00790149
0.03170945 0.18295507 -0.02477599
0.02739676 0.06596258 -0.03701112
0.00975051 0.08153969 -0.01334643
-0.02617532 0.20610166 -0.01286733
0.01982095 0.06460377 0.02490323
0.01810319 0.06783169 0.02578797
0.00456483 0.07703080 0.01761350
-0.03224677 0.09964636 -0.00104799
0.01072054 0.13518772 0.01362841
0.03881644 0.05850045 -0.00912550
-0.01159894 0.11980221 -0.03544760
-0.00112044 0.09022928 -0.03428304
0.02179941 0.12238342 -0.00921488
0.00719528 0.12023716 -0.02790533
-0.03365760 0.12070566 -0.01393793
0.01128036 0.07952751 -0.00411328
-0.01754387 0.20562980 -0.00996775
0.03514816 0.19559854 -0.00449325
-0.01337250 0.09830147 -0.03906737
0.00820281 0.09698465 -0.00398868
0.00938388 0.22158515 0.00690252
0.00994557 0.05885839 -0.03032497
0.00762371 0.20229538 -0.00007609
0.01508776 0.09502500 -0.02694976
-0.03118866 0.07949684 -0.01456669
0.00484867 0.24392930 -0.02924753
-0.01270410 0.10872221 -0.03885090
-0.02140304 0.16874155 -0.00151397
0.00878296 0.09858704 -0.00898674
-0.00013632 0.06082365 -0.03033306
0.02852295 0.16842583 -0.00783836
0.01338024 0.07758991 -0.03731457
0.00968306 0.15195492 -0.03254061
0.02872025 0.23820363 -0.02160204
-0.01382982 0.14398980 0.01435076
-0.03341014 0.11333056 -0.00762144
-0.00916340 0.19619259 -0.00293609
0.01478655 0.05197106 0.02304992
0.00733215 0.12209759 0.01134234
0.03235535 0.22815220 -0.02075291
-0.02550966 0.22387129 -0.01404760
-0.02384299 0.11191241 -0.02497490
0.00882439 0.06646158 0.00016611
-0.02964041 0.06797948 -0.03458729
0.02169118 0.21486425 -0.03233525
0.01701797 0.12853716 -0.01761854
0.01053721 0.21840316 -0.00770413
-0.00135960 0.18657140 -0.03077999
0.00604311 0.11805338 0.00896656
-0.01888270 0.19722287 -0.03502394
-0.00396588 0.21385562 0.00572726
-0.04018621 0.06341480 0.01343798
0.01781797 0.23960674 -0.03143452
-0.00118315 0.21846089 0.01297344
-0.03583976 0.12323374 -0.01293762
-0.01020135 0.19160008 -0.03239446
0.02733754 0.16483010 -0.00535904
-0.01266964 0.13529791 0.01503918
-0.02758930 0.19608399 -0.02162350
0.02020234 0.15545955 0.01540181
-0.03160661 0.23916835 -0.02818215
0.03181106 0.23559573 -0.01427517
-0.00292683 0.07667979 -0.00407122
-0.02343898 0.07385249 0.02947031
0.01908725 0.20522857 -0.03024011
0.02036730 0.21919990 -0.02629378
-0.02472532 0.14173934 0.00775863
0.02399517 0.08447454 0.00310355
-0.00463384 0.17599092 0.01327236
0.02536447 0.13857158 0.00641292
-0.05367266 0.06185749 -0.00755568
-0.01152488 0.17149724 -0.01692517
0.02257443 0.15109096 -0.03095627
-0.02075540 0.09715220 0.00355945
-0.02835422 0.13031389 -0.00789476
0.02944177 0.10425551 -0.00791818
0.00706038 0.24044818 -0.01231642
-0.02951789 0.12057050 -0.00101556
-0.01308938 0.19741246 -0.00609038
-0.03223935 0.13963433 0.00232714
0.02947678 0.10627002 -0.02025726
0.01054469 0.10381591 -0.03087496
0.01392458 0.20695789 0.00342245
0.01998815 0.07608880 0.01421281
-0.03945170 0.06449055 0.01396260
0.03205920 0.20027524 -0.03612805
0.02819628 0.18690166 -0.02511161
-0.01044204 0.05963757 -0.04263567
-0.02647859 0.17089085 -0.02514795
0.03185747 0.18941402 -0.00981056
-0.00514532 0.07453094 -0.04347134
0.02679600 0.10863294 -0.01058381
-0.02444665 0.05703336 0.00050943
-0.03917152 0.11307892 0.00187960
0.02192372 0.21539557 -0.03290410
-0.00870677 0.16500136 0.02376971
0.02952764 0.12283605 -0.02142322
-0.01045839 0.05792244 0.03160155
-0.02481607 0.08214394 -0.03673951
-0.00743449 0.06218000 -0.04874843
-0.01656044 0.06357645 0.01539308
0.00484780 0.20470637 -0.02951800
-0.02854844 0.07136434 -0.03129811
-0.03186575 0.06717958 0.02426296
-0.01730748 0.12820069 -0.02925327
0.01711312 0.06427065 -0.02401079
0.00309490 0.22521296 -0.00779734
0.02501238 0.05213185 -0.00615728
-0.00280935 0.05958287 -0.00093721
-0.01183107 0.21108073 0.00081278
0.01939989 0.05409356 -0.00954488
-0.02662864 0.12289261 -0.01756500
-0.03108294 0.07294033 0.01206449
-0.00790895 0.09883848 0.00326840
0.01032604 0.24014588 -0.02638958
-0.01045248 0.17255513 -0.02948208
0.01747962 0.11526878 -0.02999818
0.01136378 0.12694034 0.00400872
-0.01740326 0.13934819 -0.02424821
-0.01345980 0.13075922 -0.03158583
-0.01746673 0.23740537 -0.01903351
0.03167732 0.18263373 -0.01409154
-0.03819681 0.07822466 0.00444495
-0.03923137 0.10611041 -0.01270133
-0.02794680 0.10274556 -0.01464348
-0.02083978 0.13077903 -0.00265118
-0.02991154 0.09118406 -0.03218449
-0.03127482 0.16155681 -0.02909518
0.01496669 0.06709070 -0.04596210
-0.00802407 0.21156007 0.00640747
0.01293301 0.06118011 0.02903179
-0.02749857 0.21740653 -0.01821686
-0.03265280 0.07667062 -0.00630563
-0.01113464 0.08505924 -0.03091992
-0.03304084 0.06109309 -0.01030030
-0.00077104 0.08006763 -0.04470108
0.01654109 0.11896428 0.00086892
0.02821930 0.15312526 -0.03005132
-0.00333020 0.11170627 0.00601516
-0.03646922 0.15238972 -0.01653282
0.03922803 0.18981019 -0.01178636
0.02371176 0.13613406 -0.00254483
-0.00180191 0.08313400 0.02592166
0.00530916 0.05815455 -0.01079133
0.00525615 0.15754549 -0.03149593
-0.02375457 0.11337484 -0.00129589
-0.01692132 0.04767047 -0.04027308
-0.03360501 0.07352785 0.02632848
-0.02623859 0.24189575 -0.01871981
0.01293187 0.19782531 -0.02977865
0.01161255 0.06003008 0.00554844
0.01411793 0.13848707 -0.02627870
-0.02352387 0.14986598 -0.00938564
-0.02017752 0.23799142 -0.01883701
-0.00675171 0.08177478 -0.02678035
-0.00569445 0.12556162 0.00658020
-0.02793584 0.05984179 -0.00464423
0.00218379 0.08080257 -0.04260869
-0.00615773 0.12103689 0.00627923
0.00033078 0.21664169 0.00459345
0.03417092 0.19066137 -0.00540373
0.00635657 0.24287607 -0.02063883
0.00848129 0.24049923 -0.02471809
0.01680438 0.19651805 -0.02971610
-0.03040572 0.23838142 -0.02034862
-0.03260601 0.09855611 -0.00904344
-0.00484647 0.17657128 0.01821715
-0.00360504 0.15055449 -0.03359457
-0.03472879 0.05577004 0.01681948
0.01944200 0.21279162 -0.00177902
0.01292250 0.24149311 -0.02745651
-0.01966368 0.24314290 -0.01906395
0.00051233 0.16142020 0.02096526
0.01003066 0.14956015 -0.03224299
0.03177400 0.21062887 -0.01244323
-0.02447480 0.14542556 0.00439341
0.03338589 0.16546892 -0.02085042
-0.04437855 0.07365038 0.00277074
0.00854596 0.16490886 0.01202801
-0.02817578 0.23203063 -0.03086432
-0.02953946 0.23365477 -0.03043384
0.03118828 0.18402572 -0.00605022
-0.01522562 0.19105008 -0.02897503
-0.02871845 0.16177954 -0.02212500
-0.02778644 0.15736234 -0.02495489
0.00751704 0.16047567 0.02070375
-0.00720081 0.07152344 0.02676105
-0.00515425 0.21292531 -0.00848713
-0.00079114 0.07261324 0.03178939
-0.01494806 0.16901341 0.00534892
-0.03055988 0.12946284 -0.01858020
-0.02686423 0.12290499 -0.01241128
-0.01672129 0.19743380 -0.02498069
-0.02788056 0.08592792 -0.01480172
0.01930058 0.10705811 -0.02764171
-0.00477621 0.06543801 0.00162845
-0.02364465 0.22720383 -0.01803445
-0.02923618 0.15238273 0.00440693
0.01232418 0.05493966 -0.02884975
-0.01245509 0.04931606 -0.03736397
-0.00770324 0.17767574 -0.03200490
0.03044894 0.23053484 -0.00839502
0.03202932 0.17041171 -0.01664093
-0.02718295 0.15628678 -0.00238014
0.00119596 0.06441925 -0.04908429
0.00542337 0.14038913 0.01222315
-0.02872100 0.08092302 -0.01082934
-0.01023481 0.13453497 -0.03074387
-0.01146564 0.17789727 0.00888975
0.03196201 0.07869378 -0.00336881
-0.01117712 0.17285287 -0.02242966
0.00944095 0.10295705 -0.02659135
0.02230356 0.16381852 0.00110324
-0.03190119 0.14769377 -0.01462050
-0.00235211 0.09405732 0.00239625
0.00666374 0.12530507 -0.03563092
-0.01738707 0.07322203 -0.04043208
-0.02902369 0.24428537 -0.02114349
0.00342963 0.07523621 0.02877876
0.02711826 0.12469883 -0.00739007
0.00712148 0.06364617 0.01710478
0.03050879 0.22484699 -0.02633564
0.01139430 0.07250307 0.02643354
-0.03273152 0.11243308 -0.01839961
0.01320390 0.10923088 -0.03427511
-0.01888931 0.22297525 -0.02681858
-0.00356896 0.08890954 -0.00383873
-0.02364982 0.12363027 -0.01899569
-0.01156819 0.12881966 0.00314200
-0.02724473 0.08379000 0.00352286
-0.01896454 0.22664765 -0.02194113
0.01650489 0.18118490 -0.03006492
-0.00500323 0.19204637 -0.00148420
0.00307573 0.16302246 -0.03122757
0.02548405 0.08658861 -0.00295898
-0.03287309 0.07895537 -0.02829943
0.01701213 0.08674882 -0.00411841
0.00321636 0.15740013 -0.03432184
-0.01094548 0.21403620 -0.02380272
-0.01402897 0.06500122 -0.04608850
0.01975479 0.21429624 -0.00920714
-0.01075272 0.19447169 0.00079969
-0.02525529 0.14493078 -0.00760173
0.01412070 0.11412996 -0.00218262
0.02096358 0.05504542 -0.00885613
-0.02649953 0.06513976 0.03033745
0.03279510 0.19866511 -0.01433397
0.02675091 0.07391556 0.00807208
0.03185364 0.16196711 -0.02604023
-0.02548496 0.06236371 0.01954167
0.02499512 0.23064485 -0.02223697
0.03309011 0.07359221 -0.01698843
-0.01026957 0.20358589 -0.03364593
0.03081153 0.14790426 -0.02202224
0.02311303 0.17629246 -0.01901035
0.00398154 0.20076275 0.01265530
0.03342943 0.14524549 -0.02521727
0.02709834 0.15702507 0.00182012
0.01023833 0.11983903 0.00001621
0.01414506 0.06418186 -0.02644224
0.00363844 0.22334507 -0.00662943
-0.03941588 0.05681320 0.00263128
-0.02929914 0.16420953 -0.00086765
-0.03276315 0.06572973 0.02067583
0.02870652 0.14899795 -0.00211911
0.02117594 0.19937018 -0.03217678
-0.01320331 0.21328458 -0.01915128
-0.00145363 0.19767478 0.00767110
-0.03357061 0.10328014 -0.01213649
0.01220760 0.09313238 -0.01369971
0.02444025 0.15256824 0.00516307
-0.02733335 0.10602209 0.00152350
-0.01568839 0.10655646 0.00206714
-0.02806900 0.12060874 -0.00158942
-0.03865419 0.07545356 0.01640480
0.00815213 0.05527780 -0.03250487
0.02045743 0.24708948 -0.02474732
0.00233460 0.08815447 -0.01773647
-0.03858283 0.05909566 0.01007192
-0.02880556 0.15122238 0.00272606
-0.02238550 0.14134705 -0.01716665
-0.00901719 0.06214188 0.02950588
-0.02592446 0.12214041 0.00074566
0.02828798 0.18525919 -0.02553775
-0.00213277 0.14137220 -0.03715520
0.00983073 0.17306131 0.00714511
0.02395028 0.11528631 -0.01152971
-0.02559975 0.10250832 -0.00424155
0.00199994 0.09577417 -0.00246178
0.00881982 0.16535303 -0.03117200
0.02588817 0.12916829 -0.02351998
0.02915098 0.09092294 0.00138474
-0.01142873 0.07965903 0.02379630
0.02193275 0.04891594 0.00827960
-0.00297853 0.08035288 -0.01134311
0.00626271 0.07284617 0.03224576
0.00023819 0.05605876 0.02465411
-0.01964264 0.07414737 -0.04077327
-0.03005250 0.08964281 -0.02868201
0.00242296 0.17903505 0.00386151
-0.04809395 0.05875327 0.01241372
-0.03899741 0.07546753 -0.00235444
-0.03239925 0.07696466 -0.02687160
0.03219205 0.16751809 -0.01110349
-0.02032556 0.16599059 0.00177488
-0.02999760 0.08207405 0.02148444
0.02148165 0.18503694 -0.02666701
-0.03813723 0.13405727 -0.01342358
-0.00385382 0.09427279 0.00059168
0.03206935 0.06453561 -0.02303030
-0.00599708 0.09169252 -0.03671874
-0.02895749 0.17526576 -0.02614821
0.00338842 0.14105606 -0.03535464
0.00451040 0.19545776 0.00898807
-0.02541131 0.18903892 -0.00403329
-0.03141472 0.08420502 -0.02974647
0.00254448 0.07967663 0.00910705
-0.04137328 0.07776250 0.00377026
0.03385826 0.22709484 -0.01118150
0.01930724 0.11029695 -0.00528124
0.01792891 0.09594042 -0.02734708
-0.02401578 0.12158556 -0.01094326
0.01351817 0.07678470 -0.01557948
-0.01561886 0.13998346 -0.02870248
-0.00772182 0.08895543 -0.03288015
0.03069996 0.18434964 -0.01960271
-0.00436852 0.05141507 -0.03490160
-0.00677623 0.14078264 -0.03717183
0.01946324 0.07700059 0.02531185
-0.03071193 0.12854771 -0.02121164
0.01297492 0.12328421 -0.03072065
-0.03895850 0.07545058 -0.02220385
0.00372829 0.10072328 -0.00228301
-0.01146177 0.17334469 -0.02536645
0.01656137 0.20609903 -0.02967730
-0.01838960 0.14758539 0.00507735
0.01958136 0.05463034 -0.02682630
-0.01481656 0.17313482 -0.00743232
0.02198089 0.08235005 0.00148748
0.01095317 0.09666419 -0.00475034
-0.02782166 0.10959718 -0.03014645
0.01797135 0.08508786 -0.01372731
0.01950907 0.13113098 -0.00678408
0.00990697 0.21488047 -0.02507712
0.01377125 0.21766889 -0.02177637
-0.04433265 0.06304882 -0.02811895
0.01413357 0.20315932 0.00124435
-0.00986271 0.07642678 -0.02049912
0.02801396 0.16125542 -0.01737942
-0.01527693 0.19898809 -0.00067336
-0.00045655 0.05706426 -0.04665920
0.00294032 0.20009419 -0.02715068
-0.00302095 0.09816740 -0.00752870
-0.02681285 0.11365185 -0.00549497
0.02385593 0.18121289 -0.02709275
0.03223250 0.07220902 0.00278564
-0.00686691 0.07678377 0.02699258
-0.02567785 0.14424479 -0.00855246
-0.02147220 0.17029709 0.00609033
0.01515101 0.21770960 0.00217435
-0.01763158 0.12021697 -0.02813425
-0.02294203 0.11041895 -0.01851162
-0.01837334 0.21844508 -0.01892368
-0.00319438 0.18484230 0.00439810
0.00440530 0.12053530 -0.03605346
0.01416070 0.06174262 0.01337365
-0.04191866 0.06731851 0.01180303
-0.01332469 0.07705864 0.00626983
0.01455763 0.13785923 -0.03308004
0.02429019 0.10580596 -0.00897306
0.02582738 0.18726389 -0.00485006
0.01291904 0.09796633 -0.02800431
-0.02428577 0.15305476 0.00392539
-0.01261790 0.09107536 -0.01173761
-0.01200183 0.20959674 -0.03177528
0.03403556 0.18285954 -0.01026553
0.02870918 0.16061050 -0.01567675
-0.00764999 0.12652709 0.00180780
-0.03742038 0.05684885 -0.00349903
-0.04507571 0.06194002 -0.01993172
0.02016466 0.07134874 -0.04162461
0.00698853 0.06748469 -0.00551709
-0.03797101 0.06455448 0.01926854
-0.01453368 0.19199286 -0.02939359
0.00020439 0.05185466 -0.04315628
-0.02105474 0.16041444 0.00386158
-0.02351400 0.14255887 0.00007275
0.03546771 0.06599680 0.01051296
0.03791057 0.16211373 -0.01159734
-0.00346440 0.07133169 0.00513294
-0.01732836 0.12614778 0.01774926
-0.02572558 0.16057307 -0.02303250
-0.00711936 0.08793956 0.00563303
0.01409248 0.08009344 -0.01519446
0.00665487 0.07715552 -0.02474117
-0.01312886 0.22079211 -0.01438371
0.00501477 0.15450805 -0.03363160
-0.02080674 0.17937501 -0.03161722
0.01607992 0.05697561 -0.01577228
-0.00067655 0.23158650 -0.00850775
-0.03046155 0.18447323 -0.02220149
-0.01629214 0.17260443 -0.01019615
0.01282313 0.17979829 0.00178787
-0.02416595 0.18048945 -0.01214811
0.02472972 0.08129867 -0.01996296
0.01859840 0.06365717 -0.01502163
-0.02084057 0.06010699 -0.02859662
-0.02588714 0.15231101 -0.00254085
0.03010867 0.07407428 0.00174860
-0.01678662 0.05255716 -0.04409292
0.02901565 0.14766340 -0.02468601
0.00297910 0.07337132 -0.04410207
0.03132677 0.20225693 -0.02666695
-0.03381310 0.08374221 0.00701337
0.00334381 0.08293793 -0.03891132
-0.02381698 0.06443021 0.01571330
-0.02846711 0.15015388 -0.00035112
-0.00021805 0.18081054 -0.02913929
0.00484979 0.08217768 -0.01843460
0.01594972 0.17834653 -0.03107988
-0.03368188 0.08990008 -0.02850953
-0.00616082 0.05834267 -0.03788793
0.01783974 0.16092724 0.00816742
-0.03685942 0.06367970 0.01234877
-0.02696037 0.07516146 0.02585334
0.01499019 0.07027081 -0.03979745
0.00062500 0.21573088 -0.01918391
-0.03994502 0.09098174 0.00008302
0.02990704 0.05040371 0.01326680
-0.02655597 0.13802923 -0.02722600
0.00504521 0.20698299 0.00900212
-0.01431679 0.17688936 0.00028354
-0.01143602 0.06196440 -0.04504531
0.01536460 0.05684417 -0.00187577
-0.01193814 0.12526530 0.00295545
0.00091208 0.07916931 -0.02652292
0.02234733 0.11130123 -0.02200114
-0.01496787 0.17182347 -0.01708525
0.00767957 0.22873995 -0.01213140
0.02795580 0.21769989 -0.01793518
0.03537406 0.21510351 -0.01165683
0.01413303 0.19901982 -0.00151006
-0.02230675 0.12122993 -0.01631551
-0.02844964 0.12109285 0.00355798
-0.01693192 0.17613152 -0.02854829
-0.01151969 0.23961776 -0.01508395
0.01524403 0.13410705 -0.03574721
-0.01782265 0.11710420 -0.02723860
-0.03180205 0.11973929 -0.01862405
0.01653746 0.14360993 0.01046420
0.02264486 0.19326094 -0.00701533
-0.00284475 0.07112095 -0.04465636
-0.01759041 0.12149458 -0.01871968
0.03018020 0.13780634 -0.00803997
0.02948680 0.24057226 -0.01758359
0.01153473 0.13746032 0.01251098
0.00124375 0.18477401 -0.03094723
-0.03128193 0.05895110 0.00118856
-0.01838379 0.16424230 -0.01972553
-0.02233022 0.18485826 -0.02309070
-0.03329520 0.04853500 0.00911343
-0.00666674 0.19722423 0.01194775
0.02590224 0.13946062 -0.02596824
0.00610638 0.09215186 -0.00456131
-0.03123893 0.17070410 -0.02463033
-0.02453045 0.10194225 -0.00152530
0.03743874 0.16190714 -0.00978933
0.03134508 0.16779220 -0.02635666
-0.02387960 0.14152597 0.00274955
0.02203073 0.20052251 -0.00685168
0.02800386 0.24299137 -0.01118782
-0.00804261 0.14648895 -0.02941523
0.02483116 0.09602650 -0.03099658
0.00799051 0.19264998 -0.03138379
-0.02712204 0.06421649 0.00910798
0.01136538 0.18872780 0.00020012
0.02294127 0.18614112 -0.00545008
0.02669084 0.06374125 -0.02728384
-0.02887833 0.18834449 -0.01340637
-0.03081866 0.10222606 -0.03107995
-0.01349937 0.20410298 0.01077250
0.01898176 0.06718059 0.03038781
-0.00629661 0.07702126 0.01163959
0.02314063 0.17178304 -0.02104518
-0.02968669 0.05711224 -0.03206295
0.00756393 0.09739140 -0.01489903
-0.01623424 0.08893602 -0.02973281
-0.03142095 0.10659975 -0.01384831
-0.02838087 0.07434477 -0.00769921
-0.03141094 0.14625941 -0.01183741
0.03543716 0.14972453 -0.00902488
-0.01147893 0.15588731 0.02247292
-0.01740742 0.14337853 0.00212047
-0.01552980 0.13172670 0.01111593
-0.00967444 0.16493382 0.01896570
0.00344070 0.12103328 0.00828774
0.02325199 0.12930420 -0.02171229
-0.02546910 0.14784759 0.00475130
0.02045705 0.16979477 -0.00985084
0.03411503 0.19997060 -0.00889011
-0.02849090 0.07489236 0.02861743
-0.01811584 0.24830940 -0.00875016
-0.02853756 0.09541938 -0.02554939
-0.00588889 0.20121615 -0.03022255
0.00383781 0.05605638 0.00481113
0.03980196 0.23825419 -0.01734028
-0.03335626 0.08984610 -0.01596977
-0.02545352 0.12352553 0.00528130
-0.02288342 0.07527088 -0.03211033
-0.03589023 0.05575295 -0.01507705
-0.01338254 0.08286763 -0.01727941
0.00159941 0.06441378 0.01281912
-0.02041887 0.08066222 -0.00351585
-0.00669988 0.10901500 -0.03879697
0.03700655 0.15145785 -0.01033186
0.03074102 0.15906820 -0.00074039
0.03066661 0.07250395 -0.01796719
-0.00615661 0.14669383 -0.03507075
0.02724470 0.12021623 -0.00836810
0.00815891 0.22258320 -0.00926750
-0.01645735 0.07859199 -0.01887341
-0.01954890 0.19866079 -0.02879062
0.02479385 0.20905913 -0.01228613
0.01675014 0.12378314 -0.02992507
-0.00004151 0.22649114 0.00409915
-0.02863181 0.12244152 -0.00832566
0.02309158 0.04682907 -0.00846085
-0.00861082 0.21980588 -0.00906896
-0.00113832 0.16552630 0.02020585
0.02568045 0.07615434 -0.01265052
-0.02590061 0.20580187 -0.03230543
-0.00633676 0.23897570 -0.01425657
0.00150972 0.12676452 -0.00187843
0.00770113 0.12221970 0.00825398
0.01281439 0.09505579 0.00226464
0.00940867 0.19764373 0.00477878
0.00101913 0.06029921 0.00376629
-0.00260509 0.07556684 -0.00694415
0.02514208 0.07370098 -0.00785413
-0.01416421 0.06224171 0.02268866
-0.01895128 0.05406278 0.02175592
0.00070123 0.19300288 -0.03673270
-0.01146039 0.13691953 0.01422158
-0.01288611 0.18697500 -0.00315048
0.00376443 0.16994451 0.02398577
-0.00030623 0.10157110 -0.00539820
0.02570352 0.07725760 -0.01562393
-0.01177393 0.17581087 0.00059706
0.02743570 0.13755496 0.00353485
0.02675760 0.17382069 -0.00308061
0.00704787 0.05781777 -0.03165750
-0.01993879 0.22039619 -0.00804108
-0.03739030 0.11750662 -0.02332799
-0.00218457 0.08165096 -0.02362680
0.00792204 0.06238107 -0.00691799
-0.04284577 0.07545168 -0.01493546
-0.03176663 0.11283293 -0.01255044
-0.00120105 0.15192017 0.02402578
0.00013678 0.09447096 -0.03036227
0.02094521 0.13290668 -0.00338200
-0.02056078 0.24168271 -0.01527617
-0.02243927 0.11818188 -0.02237348
0.01170932 0.21868470 -0.01565260
0.03278559 0.07522987 -0.02474238
0.01198262 0.06148306 -0.00342794
0.02030439 0.08918670 -0.01469734
0.03687844 0.23374876 -0.01714108
-0.03189003 0.18867970 -0.02375548
0.03448545 0.19314945 -0.02652482
-0.02286893 0.07628470 -0.03191336
0.02752453 0.18242981 -0.00850897
-0.02119592 0.18165305 -0.01053178
0.00320198 0.16997260 0.00784367
-0.00360550 0.11445367 -0.03534458
-0.02500192 0.16474776 -0.01498391
-0.02598432 0.21050498 -0.02267958
0.00044913 0.12129997 0.00635166
0.00120541 0.05912182 -0.02234837
0.01065580 0.05300691 0.03320298
-0.02235797 0.12460119 -0.01305634
-0.00908037 0.19026959 0.00053428
0.01974073 0.09172098 -0.02646667
-0.00879194 0.16243969 -0.03000659
-0.03087509 0.07693651 -0.00575024
0.02737414 0.20585108 -0.03258903
-0.02386741 0.14759123 0.00580988
0.00533271 0.07839015 -0.02491713
0.01691133 0.15456115 -0.01961892
0.01328399 0.10567536 -0.00311299
-0.02440927 0.17122447 -0.01552962
0.02030454 0.17318884 -0.02159990
-0.02952096 0.05630837 -0.02512215
-0.00201359 0.06276009 -0.01327603
0.02681583 0.16781387 -0.02891968
0.01249387 0.24530379 -0.02451162
-0.00354395 0.14033592 -0.03385735
0.02278885 0.13240103 0.00099531
0.02152422 0.11976638 0.00162490
0.00387362 0.06247555 0.01256856
-0.00716362 0.17405692 0.01313028
-0.01697624 0.08059109 0.00316951
-0.02422447 0.13031721 0.00331598
0.00011848 0.24795434 -0.01255532
-0.03330199 0.14147970 -0.00575461
0.00437807 0.22399466 -0.00423607
0.00975781 0.20108210 0.00352723
-0.01157756 0.21208332 -0.00037991
-0.03184708 0.08552290 -0.01654195
0.02172784 0.24967876 -0.01805391
-0.00739125 0.21766227 -0.00996780
-0.00193636 0.07013424 -0.03163474
0.02676872 0.14263226 -0.02946171
0.01579403 0.21280360 -0.01407289
0.02236913 0.13196138 -0.00120628
0.01315315 0.05741192 0.03427353
-0.02812800 0.12796934 -0.00587156
0.00606559 0.23084217 -0.01907886
-0.02137736 0.23747019 -0.02253484
-0.02589979 0.15257774 -0.00420292
-0.01479363 0.17167093 0.00904724
0.03289963 0.06844287 -0.00189583
-0.01579574 0.16723427 -0.01394337
-0.01228730 0.07584687 0.01331650
0.01685498 0.24532363 -0.01859769
0.03465915 0.06572102 0.01391112
-0.03717266 0.08186371 0.01085456
-0.02109090 0.18441477 -0.02378032
-0.01341669 0.06067989 -0.01006431
0.01916648 0.08197502 -0.03674074
-0.02296229 0.23493353 -0.01887856
0.03120637 0.13569875 -0.00746165
-0.00614088 0.06301034 0.01822551
-0.01611321 0.24654633 -0.01653878
0.02328885 0.08231343 -0.01398092
0.00616431 0.12815112 0.00319028
0.02594620 0.23412940 -0.02247967
-0.01946489 0.11536525 -0.02998407
-0.02858133 0.08111528 -0.02717083
-0.02701472 0.08500788 -0.03128703
-0.00648008 0.20897087 -0.03152723
0.02241527 0.13237461 -0.02930906
-0.02706118 0.20088860 -0.03373882
-0.03415072 0.14340791 -0.01137014
-0.00936490 0.14325252 0.01635627
0.01040867 0.09098771 -0.01997423
-0.00947677 0.06451698 0.00252277
-0.02868591 0.07522362 -0.00433534
0.01252306 0.23983273 -0.02484178
0.00526192 0.14469402 0.01459794
-0.02608353 0.20614910 -0.01323448
0.02982145 0.14812249 -0.01023636
-0.03556207 0.09614344 -0.00131237
0.01822294 0.13175482 -0.00475421
-0.01470439 0.09345117 -0.00772991
-0.03280339 0.05923349 -0.03041857
0.01182306 0.12618616 0.00338652
-0.01520914 0.10226123 0.00378143
-0.02300435 0.22521907 -0.01535227
-0.00859082 0.12661703 0.00778078
0.02140149 0.16501710 0.00094133
0.00169470 0.06477023 0.00159585
-0.01214114 0.07830185 -0.00972804
0.02048213 0.18841273 -0.02971262
-0.03236695 0.17688327 -0.02035511
-0.02177272 0.08230723 -0.03165936
-0.02168098 0.13582163 0.00906413
0.01166643 0.21642168 -0.03019198
-0.02901869 0.17847654 -0.02308150
0.03181456 0.24659415 -0.01457106
0.01272563 0.07512037 0.02567615
-0.00856782 0.07810768 -0.01514939
-0.02176288 0.16347206 -0.02632899
0.00889907 0.09631802 -0.01426384
0.01281141 0.07906669 0.01808516
0.03386597 0.18279219 -0.00526263
-0.00794157 0.15075670 0.02166842
0.01243963 0.11380485 -0.00116652
-0.00987450 0.07805876 -0.02920506
0.01867174 0.06041515 0.00360832
-0.00289164 0.08392994 -0.03620229
-0.00820647 0.21326157 -0.00209557
0.02382984 0.05679093 0.00316260
-0.00829188 0.20229793 -0.03050682
-0.00600487 0.14206727 0.01525402
-0.01659487 0.08637486 -0.01280354
0.01443280 0.17686890 -0.03027737
0.02327452 0.07464543 -0.02848776
-0.00517566 0.06118801 -0.01546743
-0.03074911 0.05615643 0.01852732
-0.04066359 0.08564921 -0.00943480
0.02130881 0.16794224 0.00651687
0.00951782 0.16437811 0.00869036
0.02318694 0.05354262 -0.00663995
-0.01025074 0.14408357 -0.03493433
0.02583920 0.09807564 -0.02785249
-0.00858916 0.17678882 0.01250080
-0.01297589 0.18590792 0.00519404
0.00355736 0.11442380 0.00208261
-0.01615281 0.08031788 0.00918600
-0.02499673 0.06928769 -0.04111027
0.01533822 0.08184221 -0.00252141
0.00179227 0.16005297 -0.02754567
0.02937848 0.06045662 -0.02658209
0.03637090 0.07112318 0.00076439
0.00360337 0.09529053 -0.00683983
-0.02166338 0.16651985 -0.01652411
0.00479358 0.13322800 -0.03360210
-0.01420720 0.11888221 0.00206427
-0.01241364 0.20227271 -0.00478191
-0.01244745 0.08058747 0.03040584
-0.00700863 0.14078249 -0.03083750
0.02284269 0.10597016 -0.02456562
0.01379329 0.05727798 0.01399314
0.03003805 0.17543833 -0.02164828
0.02156142 0.24135333 -0.02287123
0.00377539 0.13261402 -0.03316041
0.00278698 0.20698939 -0.02311737
-0.03219970 0.06244936 0.00055228
-0.00937224 0.11964567 -0.03283174
0.03399973 0.23389947 -0.03193696
-0.01110921 0.09540054 -0.01411484
-0.02466918 0.20544796 -0.02198266
-0.00535040 0.11994497 0.00788665
-0.03141539 0.08065286 -0.02408863
-0.01666529 0.14053717 0.00745755
0.02258527 0.10314646 -0.02696050
0.02638342 0.19653358 -0.00517223
-0.00915655 0.20551860 -0.03299312
0.00502022 0.13427016 0.00557850
-0.01345094 0.07462195 0.02614693
-0.01736304 0.06600261 -0.04795658
-0.01996125 0.14845179 0.00515472
-0.01716147 0.11050287 0.00541479
-0.03996011 0.09056126 -0.01740200
0.00484912 0.12854624 0.00775130
0.02698052 0.17299645 -0.01537040
-0.00205282 0.17248340 0.01543022
0.01004667 0.19307522 -0.00227836
-0.00178977 0.05788799 0.03426377
0.03134008 0.14544815 -0.01816079
0.02516698 0.14465596 -0.00921842
-0.01854103 0.05846756 0.02362472
-0.02253951 0.12906447 -0.02360313
0.02749956 0.17134602 -0.02528615
0.02801396 0.16471887 -0.01885631
-0.04458672 0.06864600 -0.00665057
-0.00120376 0.08777007 -0.01124010
-0.02135134 0.11380261 0.00245385
0.01094521 0.05705614 0.00355432
-0.02920923 0.13667826 0.00648682
-0.00270681 0.05982139 -0.00266854
-0.02702894 0.06647237 -0.03881010
-0.02269735 0.18173768 -0.00476630
-0.01013883 0.10796209 0.00666915
-0.01151258 0.06757164 0.01043316
0.03303983 0.20028003 -0.00836021
-0.04464509 0.06755874 0.00346060
-0.04047301 0.11842979 -0.01272918
0.02740419 0.14469098 0.00831111
-0.02651994 0.08491633 -0.01056517
0.01376852 0.16036770 0.02326171
0.02520450 0.12429274 -0.01602639
-0.01616576 0.08752541 -0.00380700
-0.00008004 0.08320100 -0.01458306
0.01762319 0.20223014 -0.00108633
-0.01258227 0.07111826 0.03700069
-0.03746987 0.13708684 -0.01864007
-0.02993801 0.24085221 -0.01972570
-0.03170568 0.13006732 -0.02193488
-0.02758107 0.18470141 -0.02077343
-0.00932084 0.24307579 -0.01774188
0.01543085 0.20930946 -0.02570849
0.01075261 0.08140741 0.00709831
-0.00230763 0.12279399 -0.03759594
-0.03228921 0.11974688 -0.02847933
0.00430378 0.12408799 0.00874674
0.00115134 0.10460916 -0.00119725
-0.01213432 0.21510914 -0.03299209
-0.01538722 0.21763457 -0.03350618
-0.01916551 0.11028118 -0.03399709
0.01590252 0.12841359 0.00938896
0.02386124 0.08496246 0.01478157
-0.02635065 0.18648638 -0.02516127
-0.00163889 0.17291836 0.02608461
-0.03488854 0.13696051 -0.00531271
-0.02768418 0.13704142 -0.02123813
-0.02935543 0.06909764 0.02043465
-0.02088071 0.12615642 -0.00070224
-0.00472421 0.06491496 -0.00183708
0.01424724 0.17933822 -0.02520280
-0.00915403 0.09016482 -0.01065971
0.03465756 0.05827450 -0.00258818
0.00670889 0.16718537 0.01155123
0.00490031 0.16023785 0.02253139
0.02517429 0.10976935 -0.01592036
0.01931643 0.20059317 -0.00715789
-0.03288696 0.11216690 -0.01053949
0.00687225 0.10399356 0.00359259
-0.03149700 0.10983348 -0.03186759
0.00349660 0.11293532 0.00901173
-0.00504954 0.14021720 0.01229390
-0.00332087 0.09461485 -0.02482178
-0.02641744 0.12419426 -0.00353902
0.03074204 0.22362036 -0.01453657
-0.03568330 0.11077767 -0.01277437
-0.02120885 0.06767905 0.03727765
-0.01805198 0.14595367 0.00158725
0.01439130 0.09665503 -0.02596567
0.02295855 0.17334537 -0.00909036
0.00068104 0.12748832 0.00727005
-0.04203513 0.04963470 0.01928954
-0.00272700 0.05940104 -0.02378792
-0.01394651 0.06261326 -0.00439588
-0.02352476 0.06231738 -0.00814088
-0.01745930 0.12294216 0.01374037
-0.01337081 0.23889193 -0.00873434
-0.01469087 0.05746267 -0.00105928
0.02426136 0.13394691 -0.00627086
0.01002743 0.11332691 0.00693806
0.00591303 0.19403735 -0.03564373
0.01174156 0.11373452 -0.02957238
0.01294421 0.09537546 -0.01885470
0.00014758 0.20742798 0.01203275
-0.01357368 0.11744437 -0.02464881
0.02582775 0.18069056 -0.02516865
0.02615109 0.24238750 -0.02769275
-0.01269394 0.10482641 -0.00110573
-0.00249035 0.24114126 -0.01246784
0.01833135 0.06374920 -0.03884140
0.03005626 0.19443431 -0.02933832
0.02530261 0.15611297 -0.01937078
-0.01626959 0.09580657 -0.00070969
0.02614711 0.16668756 -0.02771717
-0.01371762 0.20799758 -0.00608577
-0.00282262 0.19189446 -0.02756612
-0.01768349 0.15397790 -0.02553643
-0.02010086 0.16142905 -0.01972578
0.00401312 0.22182800 0.00071726
0.03213160 0.16170479 -0.00266082
-0.00370146 0.04807963 -0.03297815
-0.03032596 0.21269123 -0.01858581
0.03283534 0.05665956 0.01072815
0.03234926 0.05552806 0.01333021
-0.02872216 0.07723021 0.01606770
0.01394962 0.07756751 0.02794384
-0.00909598 0.06222100 0.01957119
0.02935344 0.14124258 0.00837404
0.01322929 0.05959079 0.02487368
0.01789888 0.11576218 -0.02309639
-0.01430270 0.20434076 -0.03055665
-0.00035151 0.21987085 -0.01929213
-0.01024249 0.12787817 -0.03328521
-0.02465640 0.06586041 -0.04047265
0.02729147 0.13384379 -0.01365757
-0.02680088 0.15586200 -0.00714902
-0.01492468 0.18151218 -0.01965625
0.01903065 0.05946146 -0.03937125
-0.00216566 0.09535994 -0.00384039
-0.02537483 0.18191528 -0.02123171
0.00683737 0.11404534 0.00644454
-0.02765084 0.16802877 -0.02532414
0.00641723 0.10210330 -0.00072343
-0.03388274 0.07672954 0.00613052
-0.02470421 0.14563605 0.00060878
-0.00854622 0.22384164 -0.02779907
-0.02363277 0.18039206 -0.03113664
0.03710562 0.19431187 -0.01195976
-0.01898695 0.20914826 -0.01922842
-0.01588601 0.06771117 -0.03698383
0.02326576 0.05570564 -0.02508811
-0.02931860 0.08272729 -0.03069551
-0.00399960 0.07586192 -0.00858232
0.01747078 0.09585775 -0.00644406
0.00322916 0.06639169 -0.01414925
-0.01582953 0.11704032 -0.00522867
0.03368139 0.17210370 0.00245300
-0.02129961 0.23802337 -0.01426014
-0.02492226 0.05936078 -0.04068438
-0.03152061 0.12903410 -0.02383218
0.02795691 0.07252093 -0.02766802
-0.00081077 0.17534985 -0.02669078
0.01113820 0.20868039 0.00651421
0.02363536 0.07173457 0.02475399
-0.02784305 0.10194689 -0.01553859
-0.03049943 0.05917834 0.00838789
-0.00513653 0.07830136 -0.04380263
0.03064437 0.19123483 -0.01195679
0.01869493 0.09178323 -0.02920762
0.01182057 0.16931598 0.01713151
0.00696235 0.21854571 -0.02135457
0.02696807 0.07078291 0.01891908
0.01044692 0.05995005 0.02960896
0.02869379 0.23341753 -0.02857542
0.02889873 0.05395125 -0.00582337
0.01930923 0.24116315 -0.01622824
-0.01184228 0.09896682 -0.00674725
0.01425261 0.08329408 0.01714640
0.03613278 0.18112212 -0.02806830
-0.01061658 0.07983597 0.00931305
0.01664518 0.09583581 -0.02460804
0.01169083 0.22117051 0.00718712
0.02867785 0.24521497 -0.02259378
0.02139945 0.07827967 0.00644051
0.02486282 0.17641257 -0.01127081
0.00019024 0.08031645 -0.02797774
-0.01854724 0.09239532 -0.03269952
-0.01668730 0.05166475 -0.03608037
-0.00934724 0.19656232 0.01003104
0.03672305 0.20151919 -0.02898275
0.00686689 0.05305187 0.01165382
0.03080851 0.06502155 0.00913892
0.00600033 0.11685220 -0.03811733
-0.00516344 0.06739045 -0.04686581
0.00291014 0.17946537 -0.03100576
0.01314632 0.17700681 -0.02820502
0.01103074 0.07411270 -0.01742615
-0.01896407 0.15049505 0.01875846
-0.03477825 0.08230088 -0.00973492
-0.01347289 0.09548275 0.00152543
0.03526799 0.04751892 -0.00199124
-0.03409125 0.10481518 -0.00336797
-0.02927764 0.07562178 0.02214635
0.00289178 0.07582111 0.00464009
-0.01634399 0.18528602 -0.00350937
0.00517964 0.21473923 0.00813745
0.03444196 0.21734315 -0.01651435
-0.02861988 0.16618830 -0.02590104
0.00327950 0.12440913 0.01316769
0.00327072 0.08011896 0.01719842
-0.01902205 0.08057797 -0.03032377
-0.00327737 0.06078939 0.03254064
-0.02100731 0.05827684 -0.04345605
-0.01629492 0.09917515 -0.03331345
0.02899056 0.12685786 -0.00793381
-0.03400076 0.09692930 -0.01860301
0.00400290 0.05697004 -0.02170493
-0.00444491 0.13424523 0.01968039
0.01831584 0.13366465 0.00434745
0.01801556 0.24384695 -0.02149802
0.03378879 0.17115086 -0.01599184
-0.00602899 0.05958524 0.04368357
-0.01415635 0.21348923 -0.02651897
-0.01973367 0.22381106 -0.03253086
0.02294183 0.07271295 -0.02781497
0.02659473 0.08116196 0.01512727
0.03714378 0.21843307 -0.02630278
0.02754099 0.06618408 0.02005595
-0.00267705 0.08846498 -0.02623638
-0.02413423 0.06211727 -0.03474287
-0.03106921 0.08127256 0.02113719
0.01150276 0.10147285 -0.01410399
0.02657647 0.06930344 -0.03036126
0.02638051 0.18234442 -0.02980340
0.02349834 0.07370711 -0.01808509
0.01857697 0.05738379 -0.03711139
0.00993398 0.06139128 0.00998136
0.03081108 0.17743507 -0.01361593
-0.04496600 0.04903615 0.01051211
0.00519277 0.17675364 -0.03229128
-0.01465457 0.18198875 0.00338009
-0.01693282 0.06364039 -0.04382706
-0.02435870 0.06368124 0.02156738
-0.03215924 0.13548639 -0.02313983
0.00627819 0.17484316 -0.02852564
-0.02116661 0.19117121 -0.03615149
0.01756932 0.10725172 -0.00491772
-0.04499308 0.06356651 -0.00029050
-0.02688101 0.11104676 -0.00481430
0.00466248 0.05091760 0.02619480
-0.03824943 0.06122701 -0.01033600
0.02594953 0.19303942 -0.00829142
0.03258999 0.16964175 -0.00951288
-0.02000865 0.07558871 0.02919626
-0.01712139 0.07203861 -0.04760928
0.02922897 0.19486812 -0.00905322
-0.03169946 0.23082390 -0.02831222
-0.02154634 0.05578391 0.02745300
0.02431429 0.09545340 -0.02181574
-0.05039567 0.07206156 -0.01321977
0.01781061 0.10351346 -0.02735639
-0.00355703 0.09326811 -0.02806462
-0.02607431 0.15561754 0.01066768
-0.03250671 0.07890179 0.01010465
-0.02866925 0.22789583 -0.03371035
0.02807359 0.18508205 -0.00879615
-0.00550369 0.09657961 0.00541224
-0.01274981 0.06273034 0.02967086
-0.03390670 0.07752450 -0.00159521
-0.01968459 0.08798950 -0.00167742
-0.03133878 0.07847448 -0.02535649
-0.02611581 0.14083445 -0.02606450
0.00538522 0.12688169 0.00755924
-0.00522526 0.11820313 -0.03094904
-0.03574243 0.05414388 -0.01429450
0.01019699 0.13673732 -0.03731363
-0.01083138 0.24265385 -0.02069352
0.00914002 0.10811982 -0.02956859
0.03699914 0.06868806 -0.00618833
0.03089790 0.18191278 -0.02138546
0.00043369 0.07842708 0.00162088
-0.02393939 0.05819517 -0.03941111
0.00259390 0.17093286 0.01922330
0.02370697 0.20203860 -0.00655853
-0.00837947 0.16211776 0.01997603
-0.00619308 0.21338725 -0.01403393
-0.03732952 0.15437537 -0.02046136
0.01620276 0.05410064 -0.03352869
0.00782838 0.15226589 -0.03731617
0.02270929 0.24153510 -0.02094456
0.02352808 0.08235989 0.01527636
-0.03327851 0.08772129 -0.01188553
0.02897287 0.18472108 -0.00595292
-0.03566568 0.05221628 0.01713468
-0.01482440 0.15964027 -0.00678866
0.01334475 0.16157041 0.01639838
0.02781079 0.07920434 -0.00684948
0.02653763 0.19384837 -0.00825447
0.02205612 0.23985600 -0.02129240
-0.03930440 0.07798602 -0.01010552
0.00355058 0.12030247 -0.03356203
-0.01027838 0.24935153 -0.01627836
-0.02218399 0.21852261 -0.01386621
-0.01283368 0.14658429 0.02168963
0.02794231 0.13625798 0.00657635
0.01175327 0.10753889 -0.03068668
0.01013998 0.13282433 0.01148021
-0.02884297 0.14370537 -0.01663525
0.02368162 0.09287620 -0.02309100
0.01809070 0.17630318 0.00724152
0.03270379 0.06412149 -0.00700059
-0.01610865 0.06229395 0.02729377
-0.03259507 0.13715550 -0.01025641
0.01967944 0.17236079 0.00681204
-0.04001153 0.09043695 -0.00496599
-0.01204995 0.09881928 -0.00098119
-0.00062853 0.11085440 -0.03061791
0.01103779 0.10031644 -0.00071480
0.01101860 0.10679469 -0.00184458
-0.02947826 0.13232283 -0.01978153
-0.01505279 0.17295036 0.00541890
0.01104056 0.09645227 -0.02995920
0.02723477 0.17249185 -0.02720956
-0.03601750 0.06220900 -0.00852328
-0.03341550 0.19404140 -0.02653867
-0.03240785 0.12354621 -0.01735848
-0.00658846 0.13503475 -0.03460512
0.01146421 0.11514403 -0.00444265
-0.01533951 0.05774668 -0.04630563
0.01097487 0.15118733 0.01449244
-0.01578318 0.14297628 -0.03038143
0.02401172 0.18241456 -0.00436230
0.01390165 0.11738674 -0.00830600
-0.00755105 0.13342190 0.00774273
-0.01210805 0.24696928 -0.01908427
0.03190161 0.18073347 -0.02376401
0.00149051 0.21050042 -0.02232229
0.00153805 0.05898647 0.01770719
0.00306857 0.18450880 0.01007876
-0.03666179 0.14261173 -0.02369365
0.02733699 0.04998994 -0.00046102
-0.02640666 0.08900150 -0.00887020
-0.01617850 0.05796261 0.00019542
0.00600121 0.06200047 -0.00761501
0.01253571 0.21965083 0.00631836
-0.02987132 0.12661006 -0.02329554
-0.01274261 0.06109913 -0.02107011
-0.00528021 0.06130259 -0.00742923
0.02179763 0.12966068 0.00530050
0.01637227 0.07570552 -0.03622204
-0.02009794 0.14893535 -0.00241753
0.00537372 0.14710851 -0.03409473
-0.02561348 0.07678125 -0.03254806
-0.03544316 0.08429587 0.01144102
-0.00151965 0.05964880 -0.00619165
-0.01286315 0.08708459 -0.01102473
0.00850924 0.15939800 -0.03328577
0.03051541 0.18663813 -0.00992805
0.02307622 0.11632705 -0.00681122
-0.00672937 0.20301001 0.01011642
-0.02705468 0.16164219 -0.01046105
-0.01824690 0.09121391 -0.00897619
0.00921354 0.19731873 -0.03413969
0.01135404 0.07787642 0.02466485
0.01849291 0.14893930 -0.02676036
0.00660908 0.20488745 -0.02293996
-0.02422167 0.09845115 -0.00687213
-0.00465596 0.06314377 0.00991034
0.03546955 0.19043829 -0.00917914
0.01790825 0.06781545 0.00280318
-0.03813958 0.07589965 0.01134619
-0.02871438 0.05961783 -0.02858042
0.01373730 0.21969634 -0.00522671
-0.01796618 0.07872463 0.02790227
-0.03278942 0.07735265 -0.01498203
0.00124668 0.05824783 -0.00484212
