0.61528158 -0.03704457 -0.79100847
-0.22827582 0.71576679 -0.32898694
-0.21375975 -0.70617092 0.34709430
0.11545211 0.78636813 -0.45706761
0.78938138 0.45555508 -0.04126652
-0.46186933 -0.36988351 0.51386988
-0.69689393 0.19208880 0.46772456
0.48133796 -0.36311337 -0.53874326
-0.49964911 -0.35627958 -0.47193348
0.68892038 -0.22514883 0.38648608
-0.79495692 -0.10363683 -0.11939725
0.22072180 0.61758339 -0.61966538
-0.51933110 -0.61686504 -0.17545253
0.65261209 0.13224302 0.49068058
-0.50854504 0.66171694 0.17255907
0.81401002 0.40421078 -0.12798314
0.36356294 0.45528725 -0.60806131
-0.34818622 -0.05766508 -0.81044006
-0.26036301 0.77324140 0.32540435
-0.76138711 0.19193636 0.13470894
0.63258362 0.49755245 -0.30112222
0.29322240 0.51870263 -0.51164031
0.23405589 -0.20423228 -0.76304853
-0.13398206 -0.72395670 -0.52585840
-0.33207563 0.34455314 0.70628452
-0.78477144 0.21482584 -0.14429480
0.45667109 -0.62450826 0.30345318
-0.31343082 0.16814815 -0.81905603
0.58100927 -0.44239432 -0.37861055
-0.28171742 -0.42622957 0.62066531
0.06332316 -0.84187639 0.57116950
-0.49457452 0.66368341 -0.25109974
-0.22537228 0.78413188 0.34564653
-0.71088254 0.40202257 -0.20220730
0.11622101 0.02672317 0.83398306
0.05512059 0.75518811 0.32366875
0.33633038 0.73303640 -0.30886731
0.59798825 0.16145261 0.65602362
-0.80167878 0.46849328 -0.00117984
0.58196402 0.08444340 0.68721318
0.20472568 -0.09828502 -0.83623564
-0.03133876 0.21218438 0.78580832
-0.34771839 0.39547628 0.54977989
-0.30018467 -0.66429949 -0.39833564
-0.60964584 0.31091979 0.34665626
0.25547680 -0.39401555 -0.70886660
0.11901640 0.21427433 -0.81577611
-0.82397735 0.37399182 -0.08461928
0.45135626 -0.67309749 0.21741796
-0.20251538 -0.77591825 -0.38316625
0.08214949 -0.33268860 -0.70525575
0.29322344 0.64539909 -0.43306571
0.19549409 -0.75352335 0.23532580
-0.17152067 0.75419176 0.44945270
-0.36933595 -0.69182587 0.16305445
-0.30655515 0.56076443 -0.45276597
0.44294456 0.15843874 -0.80507648
0.71864295 0.62400007 -0.06946202
-0.50424623 -0.17920674 -0.67928457
-0.44455868 0.11834261 0.80164897
-0.33233735 0.69863689 0.37239754
-0.14199908 -0.69163370 0.65766907
-0.52074039 -0.40383434 -0.54138708
0.56141615 -0.12480947 0.69573712
0.74933815 0.46795160 0.16546880
-0.16333459 -0.80648565 -0.51166975
-0.10931671 0.65592587 -0.59806633
-0.42183581 -0.15256920 -0.82566977
0.64408457 -0.03770985 -0.54768860
-0.08745620 0.47399336 -0.72888851
0.12874030 -0.11224146 0.80195785
-0.48448357 0.44391909 -0.40198830
0.11114626 0.29699373 -0.77544856
0.72861135 0.29433963 0.33998904
-0.05506775 -0.66564834 0.62424839
0.29524148 -0.42902675 0.67709422
-0.15872470 -0.03445808 -0.84596956
-0.03895112 0.29881462 0.70358539
0.22614290 0.36684376 -0.69449592
-0.76034534 0.44390842 0.18160711
0.46351042 -0.69478989 0.14020556
0.22116672 0.56193376 -0.62261248
0.19204463 0.69832635 -0.02573850
-0.82166922 0.36520869 -0.11815061
-0.14100632 0.65959299 -0.60859692
0.31980041 0.71291339 -0.24970207
-0.18648767 -0.32176122 -0.72951722
-0.24991882 0.69016314 -0.46352792
-0.29791811 0.37535444 -0.69646370
0.20699172 -0.50206983 -0.64140081
0.51311946 -0.55977559 0.22694837
-0.48239323 0.37095469 0.46951234
0.35209575 -0.71496010 0.34768033
-0.76803231 0.21408270 -0.22763713
0.05379556 0.54236066 0.61512649
-0.81963789 0.31640571 0.09061443
-0.56437838 0.37082401 0.50220191
0.82345879 -0.25552425 0.04744943
0.23388304 0.73144150 0.09453931
-0.08806724 -0.51614797 0.68305194
0.16672052 0.81030941 -0.42248753
0.13173556 -0.73103511 0.49829745
-0.03599218 -0.35833266 0.72839868
-0.12226310 -0.59522891 -0.63862514
0.66406429 -0.60147047 0.04158089
-0.22655645 0.00096620 -0.81329525
0.18331631 0.62741292 0.66193020
-0.06008879 -0.33691040 -0.68888021
-0.10647222 -0.02162704 0.82137752
-0.34655586 -0.58845711 -0.41594017
0.31696630 0.60659790 0.42539173
0.24128231 0.32866001 -0.78316963
-0.62497008 0.12356855 0.51285124
0.62799537 -0.43234289 -0.31556785
0.38245010 0.64830589 -0.39832661
-0.44386432 0.07481741 0.78158140
-0.81235075 -0.34577349 0.06439098
-0.29838568 -0.73677278 -0.08583435
0.45055813 -0.29495224 -0.71348667
0.38575125 -0.50648284 -0.45587578
0.00428332 -0.86714256 0.22711226
-0.71353567 0.57307410 -0.00592879
0.00127283 0.45319772 -0.71334171
-0.60679901 -0.26240781 0.60382223
-0.12897357 0.40859148 -0.72538579
0.76848531 -0.48957530 0.07744717
-0.71177745 -0.05262396 -0.30259037
-0.29569626 0.60773468 -0.48166007
0.10462125 0.73723757 -0.51371682
-0.60598230 -0.09108721 0.64480460
0.77838016 0.38389814 -0.17083108
-0.10356499 0.80236387 -0.18228048
-0.64980841 -0.44271594 -0.25523147
0.11766993 0.79132819 0.05169995
0.62286377 -0.33489394 -0.39124021
-0.65786922 -0.54782665 -0.19493595
-0.25820920 0.51770806 -0.63949919
0.49656707 -0.67161703 0.11077112
-0.05440784 0.85589230 -0.03597390
0.24664845 -0.40181133 -0.66468120
0.13190182 -0.80171275 0.07029097
0.60122669 -0.01593729 0.60974061
-0.86018395 0.46777943 0.02250873
-0.51114762 0.34843859 -0.57618046
-0.44515711 -0.05870653 -0.81264901
-0.02651002 0.12581617 0.75743937
-0.06735713 0.07797406 0.83870101
-0.56376338 0.56377017 -0.32642013
-0.37196904 0.34063283 0.64546859
-0.27852806 0.74755836 -0.36473352
-0.13344282 0.80641544 -0.08211284
0.53764999 -0.43318793 0.37074754
-0.57507062 0.12871775 -0.78296733
0.26016745 0.05426170 -0.75888240
0.73277009 -0.28104588 -0.25336498
-0.05742656 0.85296822 -0.12075207
0.58724511 0.64338803 -0.02090156
-0.02298418 0.82265115 -0.52027524
-0.62134612 0.12117012 -0.51725936
0.35156983 -0.36772925 0.59605396
-0.40496612 -0.38880590 -0.59147561
0.07541522 -0.72712338 -0.39005727
0.77436972 -0.19871768 0.33757696
0.49976745 -0.42444623 -0.53813291
0.67047596 -0.02356560 -0.44349128
0.14584994 0.04331247 0.84225118
-0.59855747 0.05292222 0.51308203
-0.71612728 0.01273094 0.43841076
-0.43710271 -0.54024386 -0.48095855
-0.58004236 0.38695982 -0.36576772
0.68927360 0.28860244 -0.40437746
-0.00633220 0.06982972 -0.82958877
-0.41111788 -0.67047405 0.06655314
0.48103926 0.33017913 -0.52130890
0.75984871 0.54025590 0.13444737
-0.05521232 0.48260993 -0.66297305
0.76388419 -0.39566913 -0.04841771
0.48885578 -0.10111129 0.78238320
0.15164335 -0.81726778 0.22364080
0.76890492 0.33028087 0.30051854
0.04267564 0.87757814 0.34533978
0.25343737 0.10525844 0.79448307
-0.52806330 0.53901160 -0.21242620
-0.59544957 -0.34982789 0.50751197
-0.57641792 0.20968899 0.59106255
-0.86276865 0.09361999 0.08594805
-0.51832855 0.52166867 -0.39966992
0.45565486 0.35327098 -0.58577478
0.74869025 -0.25832638 -0.25345615
0.50145674 0.05610222 0.73050082
-0.43088394 -0.27929121 0.60604239
-0.73577654 0.29197824 -0.28546613
0.20307943 0.14989336 0.81820107
0.61681950 -0.51505101 -0.32539228
-0.15960427 -0.20590231 0.78472769
-0.40672916 -0.62338316 0.29675192
0.27919719 -0.77465534 -0.12841935
-0.62057936 -0.63957405 0.01617802
-0.53324246 0.11708125 -0.78068161
-0.36020860 -0.21883377 -0.78429449
0.70456254 -0.10277881 -0.29689354
0.50512779 0.63314533 -0.23316462
0.13525501 0.67251992 0.54598784
-0.02229966 -0.43785548 0.70024681
0.65221167 0.49108732 0.20358063
-0.58927274 0.01993956 0.54557431
-0.12828463 -0.07090353 -0.83764541
0.38139790 0.73441160 0.20266779
0.37549266 0.53223658 0.53394043
0.53513360 -0.61626303 -0.06962331
0.80312490 0.44870850 0.09706999
0.00388125 -0.23529612 0.70195305
0.78765786 -0.51098549 -0.10306191
0.30716172 -0.71577287 0.24274960
-0.47300681 0.15678765 0.80299735
-0.23085272 -0.46139628 -0.65376914
0.47528312 0.32632196 0.60189223
-0.28368208 0.21281204 -0.79523361
0.15684316 0.80530870 0.05658692
-0.43102166 -0.37548462 0.57515323
0.42364624 -0.68048048 0.15928487
-0.41503498 0.19684872 0.73912394
0.25591660 0.69930661 0.38396737
-0.31775069 0.55317569 0.47099176
0.60653591 -0.52257431 -0.28495270
-0.12571488 0.68350446 -0.49239704
-0.74704599 0.19178903 0.37489071
0.30109143 -0.39630598 0.65705526
0.80914640 -0.00576706 -0.00471193
0.48727316 -0.68776405 -0.18645917
-0.29120362 0.70470512 0.27983195
-0.07669435 0.17448276 -0.74731529
-0.21070488 -0.79203737 -0.39830449
0.59131718 -0.26953968 -0.54644477
-0.15706411 -0.82233143 -0.20427419
0.04698812 0.52269399 -0.67127740
-0.71733963 0.12761545 -0.45924771
0.34281182 -0.67873192 0.16290262
-0.04042016 0.25139838 0.74944496
0.13064447 0.81816339 0.43827030
0.44559151 -0.60956347 -0.26739970
-0.49885681 -0.66230071 0.13408227
-0.84276390 -0.25486341 0.01420077
0.70560741 0.10927903 0.44959056
0.36019579 -0.65475404 -0.40083599
-0.12482808 0.27085999 -0.80445325
-0.15495484 -0.77816224 -0.02395180
0.38530678 0.16821405 -0.75880992
-0.01021546 0.05271206 0.82915580
-0.18827207 0.82435763 -0.00804658
-0.15925208 0.54797041 0.66054118
-0.33710337 -0.72004950 -0.05360783
0.39502653 0.69290686 0.07038730
-0.28688839 -0.74471557 0.17678100
0.28283450 -0.70976555 0.32978383
-0.21662350 0.68042731 0.44604594
0.00838175 -0.72786939 0.57948482
0.37267303 0.65296578 -0.36847794
-0.22102645 -0.08629692 0.81653762
0.58759165 -0.36080858 -0.40789738
-0.71452844 -0.23453555 -0.44506693
-0.57427752 -0.36169702 0.35348308
0.12283130 -0.67339277 0.63076925
0.51580882 -0.37639222 0.38839924
-0.44893596 0.59087098 0.35472053
0.01919370 0.36106256 0.67843211
0.59995115 -0.63957405 -0.12925200
-0.62124264 0.19368005 0.60089695
-0.44923922 0.69161570 0.33128214
-0.45884842 0.69154990 0.00674456
0.07866742 0.08257254 0.79277933
-0.28778008 -0.79108834 0.14014658
0.82678354 0.13181961 0.09053387
0.75147235 -0.41218880 -0.23041403
0.04055214 0.80366588 0.19825688
0.66141498 -0.06475013 0.43577546
0.73579967 -0.50962269 0.13538849
0.43469366 0.55228090 0.45059094
0.70861208 0.54461086 0.08348774
-0.41123611 0.37024313 0.51263916
0.32146034 0.48749256 0.54308951
-0.07908419 -0.52960300 -0.63865960
-0.79106581 0.27808964 0.27208555
-0.04444406 0.87181306 0.29933110
0.83943999 -0.23259504 -0.01821524
0.71026349 -0.34542102 -0.32897186
0.16793266 -0.09306628 -0.79126310
-0.27480784 0.57454216 -0.49590272
-0.45884901 -0.10322116 -0.74285793
0.74118555 0.40928441 -0.30534765
0.14544654 0.16887030 -0.82927299
0.15393038 -0.59334469 0.60911310
-0.27392110 -0.66879773 -0.50196528
-0.58819139 0.26809373 -0.53204358
-0.41879374 -0.33445358 0.64412999
-0.67284882 0.09339320 -0.54691541
0.73244810 -0.54533899 -0.06173457
-0.77737081 -0.24848567 -0.11736682
-0.17130725 0.19314909 -0.84777403
0.23016314 -0.06134925 -0.86918497
-0.42831057 -0.71868515 0.22315781
0.02488021 0.83289838 0.52765238
-0.61159372 -0.55212617 -0.19876936
-0.28180751 0.75072670 -0.32625979
0.80147076 -0.36280736 -0.01030193
-0.57445788 -0.48312509 -0.29896459
0.10333144 0.03746142 0.79488504
-0.08623777 -0.85282338 0.34615159
-0.18607448 -0.28791162 0.69778705
0.20990917 0.75886846 0.29088676
0.63825512 -0.50791848 0.21927795
-0.77554524 -0.33078614 -0.14719906
0.02892417 0.30733636 -0.71505940
0.82699025 -0.19265671 0.01287203
-0.42570609 0.08846626 0.76032019
0.22529230 -0.34442747 0.73294449
-0.18888180 0.39478815 -0.74414194
0.38731396 0.70130992 0.21578386
-0.06524660 0.84000409 0.47486654
-0.36706832 -0.73205316 -0.33114696
-0.71056485 0.00412958 -0.33963147
-0.66507185 0.18843836 -0.43779522
-0.39241007 -0.67183518 -0.26477027
-0.02066331 -0.41457251 0.66481256
0.84628654 0.51979530 0.04681396
-0.41693240 0.68119526 0.17793311
0.81685472 -0.28824306 0.10153474
0.34244722 -0.27954343 -0.76000881
-0.27704808 0.47386289 0.60686111
0.80712426 0.45403937 0.07062775
0.51030636 -0.07870808 -0.71829057
0.25944760 0.00295093 0.87498367
-0.39694554 -0.56737125 0.42006263
-0.09412010 0.26242486 0.75808382
-0.08701468 -0.76022494 -0.22161998
0.15671131 -0.14337020 0.82112527
-0.79130757 -0.44357455 0.16094494
-0.75415981 -0.04416221 0.24129517
0.75991976 -0.39976266 0.05974502
-0.57662058 0.36350921 -0.51562738
0.31332791 -0.70882249 -0.14712599
0.23039785 -0.67422712 0.55031478
-0.71591020 -0.56056476 0.08410901
0.45659488 -0.01607706 0.80572569
0.41636354 0.33046904 -0.60073507
0.51080346 -0.25049445 -0.69358683
0.33750680 0.53452742 -0.62259161
0.02838075 0.86759591 -0.42342424
-0.72895527 -0.27292269 -0.40993142
0.80936229 -0.15950806 0.11048314
0.26720828 -0.64478970 -0.53785563
0.39578855 0.72138906 0.08926009
0.58137691 0.41537043 -0.26888087
0.11252066 0.82803822 0.46297333
0.14265941 -0.31529996 -0.74630332
-0.33059424 -0.46964207 -0.54960322
0.25235057 0.77756190 -0.43784085
-0.34079599 0.16606469 0.78223789
0.53153896 -0.45370072 -0.42219862
-0.43453076 -0.60743260 0.31955683
0.04240936 0.64754593 -0.62547171
0.44381723 0.61672771 -0.11393058
0.12468679 0.83123147 -0.41273499
-0.05196378 0.86286724 -0.27361804
-0.46081248 0.67150605 0.09459773
0.41087317 0.08962552 0.81469834
-0.66969144 -0.24476923 0.39184886
0.13939124 0.18352690 -0.76761389
0.54797828 0.00711106 -0.70186591
0.80729175 0.46429753 0.05748423
0.63957405 -0.35762623 0.42270365
-0.17480913 0.18723619 0.83720958
-0.34038600 0.52835894 -0.43050680
0.72804677 0.33926556 0.15250596
0.75620306 -0.32176468 0.28911546
-0.05131675 -0.84566164 -0.56165707
0.22918618 -0.77364123 0.18267156
-0.17184204 0.00131785 -0.84732580
0.82673609 -0.18850535 0.06341631
0.75392413 0.59373558 0.03726438
0.68489516 -0.50003362 0.27541211
0.26832584 0.53423905 -0.55773139
0.80986929 0.33579919 -0.05661722
0.72616887 -0.26288700 0.39608166
0.69458067 -0.45188779 -0.22765881
-0.32520381 -0.39553633 -0.66614032
0.85520363 -0.17287548 -0.01653317
0.44982293 0.00284132 -0.81374633
-0.30363813 0.74558556 0.23169318
0.68121266 0.50811410 -0.21338439
-0.44491443 -0.12211481 -0.81341422
-0.01706687 -0.82253826 -0.59641361
-0.36015823 0.34553647 0.67148280
0.27105537 -0.46888810 0.57902241
-0.54451013 -0.55024993 0.39746663
0.07164524 0.68018019 -0.60976529
-0.48175097 0.41089821 -0.54580343
0.13434455 -0.02274117 -0.79605007
-0.44612283 -0.28463152 0.57971549
-0.20660330 0.76204324 0.26797232
-0.52502716 -0.69638395 0.02270805
-0.75038207 0.21793668 0.30083162
-0.40456799 0.50603342 0.37628415
-0.31791061 -0.40463033 -0.64887381
-0.02665901 0.75939810 -0.57010734
-0.54055738 -0.25416604 -0.66617501
0.15497914 0.78690219 -0.04763428
-0.26735371 -0.72750533 0.05331580
-0.30629361 0.19778319 -0.80662990
0.44213167 0.22180478 -0.72394085
0.46726465 -0.10213224 -0.77891028
0.24172176 -0.11853549 0.81150186
0.80668211 0.44877329 -0.09572257
0.19343536 -0.62991142 -0.58396947
0.55222714 -0.26676759 0.58437037
-0.41201454 -0.02582117 0.85144186
-0.59827328 -0.26681831 -0.46798936
0.63847375 -0.56351984 -0.13716500
-0.10090661 0.29632476 -0.75194740
-0.72988701 0.24994043 -0.18698689
-0.51431286 -0.42973769 -0.41092387
0.03512063 0.03681675 0.86402905
-0.23938942 0.43954447 -0.62039423
0.01096108 -0.85423338 0.26449907
0.02912667 0.04885021 -0.90422821
-0.29324821 0.68691659 0.38930425
0.44641003 0.41285080 0.55900991
0.45278874 0.54115033 -0.38505739
-0.38994995 0.13189742 -0.83455229
0.74299562 0.20551492 0.41643959
-0.26546964 -0.61493373 0.47451833
-0.69990432 -0.09714472 -0.44102305
-0.70951128 -0.13687626 0.32533056
0.49064371 -0.72941327 -0.02094104
0.60116172 0.35570133 -0.43403417
0.54634774 -0.18013960 0.67771006
0.04779648 0.04709372 0.83221412
-0.34335628 -0.73815191 -0.22998737
-0.80432105 -0.11986315 0.19055811
-0.38059178 0.15440568 -0.79459906
0.33741277 0.35618019 0.63438654
0.52755058 0.70988119 0.02045796
-0.19743751 0.57524633 0.58588243
-0.10608615 0.46547848 0.61433721
0.68911767 0.05531285 -0.39157453
-0.35382381 -0.62480760 -0.43467590
0.24970727 -0.61793935 0.38972664
-0.62834382 -0.48828539 0.26318932
0.10057745 0.81321371 0.33544561
-0.19798586 0.40589660 -0.66799414
-0.58248031 0.01335787 0.65712833
-0.20259158 -0.62855792 0.63032389
-0.32825190 -0.71475589 0.18495454
-0.17602493 -0.74315321 0.46941131
-0.24418187 0.48935768 -0.65123451
0.63892782 -0.14376643 -0.51689494
0.59163737 -0.11663207 -0.50504553
-0.65946281 -0.25184718 0.37778381
-0.14731097 -0.39904842 -0.71772933
-0.39610490 -0.16748430 0.77671480
0.37841401 0.73377740 -0.11743411
-0.71218479 -0.12572978 -0.46914148
-0.08838413 -0.33818093 0.70449245
-0.59545720 0.37583339 -0.28853565
0.12744871 0.81994081 0.30090681
-0.66291618 0.33607426 0.44934005
-0.46975654 -0.61628342 0.26475573
0.41129449 0.11419179 0.77642822
0.73219180 0.13209382 -0.28514123
-0.62687683 0.09365267 0.57416058
0.28180534 -0.75262868 -0.07102580
-0.80155516 0.25368097 0.28222144
0.28272346 0.70369124 0.18232217
0.26933432 -0.06436089 0.81589544
-0.77455616 0.01061972 -0.29181051
-0.65346849 0.49609908 0.31102532
0.74737060 -0.05258153 -0.18316412
0.40008843 0.64725101 0.38707724
-0.76258159 -0.42525083 -0.27054307
-0.17925335 0.79412019 -0.05791450
0.41173840 0.65175021 0.06798406
0.36453003 -0.38076371 -0.59598005
0.70060301 -0.15951090 -0.36126894
0.68865299 0.56179488 -0.13648120
-0.69510436 -0.12951498 0.40154654
-0.12958308 -0.69717002 0.57950664
-0.88365424 -0.53012013 -0.05278781
0.16129713 0.78390372 0.37038419
-0.77059150 -0.08133561 0.19151649
-0.51999700 -0.41524601 0.40652496
-0.19852906 -0.74843633 0.19105297
0.83482683 -0.00494868 0.07640216
0.39006791 -0.42227030 -0.65793204
0.59566891 -0.03480117 0.65195978
0.16584209 0.32890865 -0.73322630
0.48153529 -0.25513795 -0.64906406
0.04626568 0.76584446 -0.48826268
-0.08102705 -0.79709530 0.57345068
0.76633000 -0.10204859 0.23776026
-0.56638169 0.57967949 0.18690103
-0.68382120 0.49382043 0.25527877
-0.69149923 0.14863983 -0.58904874
-0.31857184 -0.69019043 0.08894578
-0.57388544 0.11856230 0.72069800
-0.21055964 -0.66717446 0.36768946
0.72143292 -0.09059948 -0.33839533
-0.24223487 -0.54068518 0.59193480
0.64380479 -0.34721234 -0.40622997
-0.68618655 -0.58439791 0.04705539
-0.36408263 0.69244242 0.09441072
-0.27740547 -0.63613868 0.50652957
-0.58987761 -0.24798886 -0.57374704
-0.71490538 -0.30598924 0.38580820
0.55204439 0.61977625 -0.01641230
0.33267337 -0.18071781 0.77741539
0.71359837 0.40734249 -0.22090720
0.68200493 -0.49314299 -0.28087834
-0.23735970 0.75291145 0.15146574
0.31860098 -0.70899045 0.38637152
-0.16272567 -0.79326129 -0.25248408
0.30455530 -0.62908411 -0.43495047
-0.01457404 -0.78858566 -0.54362535
-0.28606549 -0.78219783 -0.28965724
0.26029164 0.41714725 0.59197903
-0.08087400 -0.59349549 -0.60793126
0.71965933 -0.24981382 -0.38179341
-0.80337679 0.24611232 -0.23192570
0.77511489 0.00625249 0.22152410
0.36012068 -0.72622371 0.16392292
0.09251937 -0.80767107 -0.33060318
0.04132879 0.82241607 0.12840904
-0.01042889 -0.87890804 -0.12940447
0.39623210 -0.35832760 -0.62989426
0.27218583 0.57415414 0.47497463
0.04197843 -0.81206107 0.36153781
-0.41064671 -0.21041827 -0.73159993
-0.82919312 0.51606643 0.00022523
0.55634606 -0.58788252 0.24466316
0.05994826 0.31410116 -0.78237557
-0.33049071 -0.34729418 -0.69374979
-0.77056313 -0.50219500 0.11263511
-0.44294643 -0.60525370 -0.39727941
-0.25896522 -0.07136915 -0.80964923
0.38615197 -0.06334976 -0.82025480
-0.78011727 0.38076261 -0.08673735
0.18334895 0.62565970 0.56146586
-0.34195969 0.23604433 -0.76928055
-0.77439594 0.09083780 0.24365599
-0.22075042 0.74416232 0.33945403
-0.40905428 -0.71006465 0.04098752
-0.07603496 0.02334969 0.86306643
-0.42094365 -0.57046044 -0.33156756
0.12388135 0.82342803 0.12851658
-0.17011273 0.78796661 -0.09673768
0.38909283 0.40370300 0.58956349
0.30712786 0.66851044 0.39063203
0.65493190 0.11177835 0.67129230
-0.23179686 -0.27379766 -0.73385334
0.73261487 0.18650012 -0.39840814
0.50511992 -0.28817028 -0.53440893
-0.02017822 -0.33333325 0.72165895
0.76944554 -0.03754252 0.16672949
0.21605560 0.78018892 0.22044252
0.67667603 0.26758698 0.62723672
0.09674951 -0.65935349 0.54885161
0.14819917 -0.53973651 0.61149025
-0.18140735 -0.62054515 -0.48140955
0.00405604 -0.00355685 -0.81485605
-0.01600853 0.84636617 -0.39455572
0.42845148 -0.51200020 0.44691944
-0.33917263 0.36380476 0.65278566
-0.08100079 -0.09949258 0.82086241
-0.55222690 0.37377876 0.39563033
-0.23350306 0.75873411 -0.39706731
-0.59174728 0.13654748 0.64059567
0.24660628 0.67790687 0.33785418
0.22830439 -0.60657561 -0.51395011
-0.09021805 -0.19527930 -0.81238735
-0.67460871 0.05509009 0.44905797
-0.24655254 -0.78763056 0.19093411
0.49802652 0.11307027 -0.74276769
-0.37275487 -0.65547335 0.27313921
0.84983420 -0.16004321 0.17169441
0.33385113 0.15372434 -0.83473063
0.14352709 0.43433836 -0.69395447
0.51471412 -0.60876560 0.02927303
-0.23786396 0.22732040 0.73421681
-0.26678476 -0.24944198 -0.74248159
-0.61746597 0.49970162 0.22176552
0.39093670 0.36385080 -0.60542321
0.72149205 0.11180174 0.48458102
0.17749402 0.82805192 -0.39444953
0.00900248 0.00371206 0.85004294
-0.78673422 -0.01625622 0.16310573
-0.31259480 -0.78390336 0.22030541
-0.34831241 0.71431601 -0.03888909
0.03333284 0.83509874 0.22954018
0.01566755 -0.23610790 -0.78401899
0.73791742 0.42542374 0.26152796
0.46192479 0.56668878 -0.40862864
0.12070022 0.83911824 -0.52795756
0.22547285 -0.59315062 0.56827009
-0.40241459 -0.27294418 0.73553967
0.45704857 0.55756426 -0.35529974
0.65957737 0.13749158 -0.24516979
0.79603410 0.14873764 -0.15362084
-0.67778301 0.50035250 0.17318742
0.60320616 0.04759216 -0.82215297
0.06158405 -0.82599974 -0.18652786
-0.12795238 -0.44348994 -0.65565991
-0.00963834 -0.02231387 -0.90843606
-0.40687153 0.06850009 -0.80243599
0.38304582 0.47621426 -0.48125359
-0.87507248 -0.06862139 0.09741398
0.03440912 -0.05271798 -0.85622561
-0.72829759 0.58578861 0.11356606
0.29858044 -0.40335035 -0.67189395
-0.23889397 0.62818718 -0.53437340
-0.00739230 -0.81152654 0.26733431
0.54030120 0.64595652 0.15662453
0.59992158 0.08975117 -0.60285378
-0.13695772 -0.09876353 -0.73662746
0.63900065 -0.54386687 0.23297590
-0.69800580 0.14196530 -0.27285713
0.70250010 -0.43652892 -0.22580603
-0.59392917 -0.48360118 -0.31654951
-0.70982611 0.32369611 0.40407413
-0.52032924 0.67866743 -0.16423143
0.56697559 0.35802674 0.47140184
-0.77232039 -0.36025703 0.25528818
-0.18349467 -0.26998830 0.72031713
0.37741381 0.70206749 0.24208330
0.28251284 0.28208792 0.75833511
-0.11456201 -0.11253361 0.81284034
-0.18433179 -0.31595150 -0.75442612
-0.05977593 -0.59698832 -0.57842231
0.70813060 0.39868900 -0.25105393
0.81260431 -0.24038900 0.09262808
0.64434218 0.11999648 0.57967436
-0.35059211 0.31677344 -0.72193968
0.50308526 0.65799057 -0.01085925
-0.10002089 -0.76067138 -0.56871510
-0.56764877 -0.23269242 0.59611523
0.27906641 -0.10892845 -0.76295447
-0.11132762 0.65245402 0.56227148
-0.23691103 -0.26034048 0.69997895
-0.02885796 -0.79622066 0.49579695
0.42402425 -0.67534435 0.27782291
-0.41108111 0.44989002 -0.51426470
-0.31827760 0.73183751 -0.17493919
0.24016359 -0.48109359 0.59974003
-0.61392474 0.64571452 -0.14610192
-0.15192319 0.79097581 0.03164767
-0.71163869 0.19165333 0.33238924
-0.67163491 -0.37240309 0.37877768
0.32684484 -0.72104383 0.36725727
0.01922334 0.80344903 0.06379225
-0.21873531 -0.04619516 -0.82068348
0.42806536 0.15573487 0.72388518
0.60846829 -0.65879178 -0.22557256
0.79631567 -0.20528905 0.12122815
0.09893571 -0.34230113 0.73340380
0.78731489 0.16681533 0.16960758
-0.57381356 -0.57050741 0.30433196
0.32215101 0.75388694 -0.22716640
0.68681538 0.12509619 -0.33987126
0.17082632 -0.77067339 0.31345817
-0.51771188 0.13014695 -0.76701558
0.02771860 -0.06402577 0.84253120
-0.62025785 -0.16242146 0.65577435
-0.58984232 0.05109306 -0.65744805
-0.58103240 -0.49981314 -0.25107303
-0.36175451 0.61244404 -0.52025855
0.82213616 0.02385816 -0.08996561
-0.50457156 0.33992499 -0.51381218
-0.30126998 0.48871574 0.53320217
-0.37392819 0.29755557 -0.74846029
-0.32241118 -0.62516642 -0.45587310
0.59284067 0.05341176 0.69820893
-0.15516417 -0.47420341 -0.72348487
-0.22265707 0.81670189 -0.03026935
-0.39101148 -0.46494058 0.41601405
0.65084887 -0.14092955 -0.47744614
-0.05996789 -0.78159285 -0.55803955
-0.20702276 -0.62472582 -0.45589653
0.46076119 -0.32814497 0.51071644
-0.79500365 0.12205677 -0.14355685
-0.58641589 -0.61947560 -0.05595541
-0.32399988 -0.63426793 0.53374708
0.27373618 0.69306898 0.01298421
-0.71756542 0.09974127 -0.35966513
-0.67976665 0.07767277 -0.41450441
-0.19543400 -0.18333697 -0.79032004
-0.79751110 0.18090653 0.10317641
0.14822781 -0.74257243 -0.41359201
0.17459729 0.23664682 0.76677763
0.12667248 -0.76193035 -0.34643817
-0.82294369 0.13752329 0.10168906
0.16031566 0.73749471 -0.49888316
-0.04309400 0.09509880 -0.82399285
-0.50578415 -0.00115192 0.86439705
-0.73229706 -0.23937932 0.24498679
-0.08555693 -0.05507056 -0.80284595
0.10493909 -0.35255080 -0.72908831
0.29434171 -0.53918433 -0.51715899
0.71524847 0.37576625 -0.39008588
-0.19536272 -0.76114845 0.33549798
-0.37647012 -0.14788091 -0.77635324
-0.74882257 -0.52921796 0.07747801
0.28083235 -0.78982699 -0.00307124
-0.19508621 0.01856447 0.84340155
0.35734650 0.25612500 0.69610369
-0.50388944 -0.62852490 0.20720300
-0.27084213 -0.56523168 -0.55091596
-0.82365382 -0.45027557 -0.14083748
0.03490042 0.67801487 -0.59270859
-0.07422061 0.80556929 0.29952940
-0.34659240 -0.06479079 -0.78176975
0.26586893 -0.11777285 0.82153809
-0.66236842 -0.21080323 -0.55922151
0.26861659 0.71944058 0.30905053
-0.34057102 -0.42113838 -0.63421214
-0.63336456 0.56649911 0.00233174
0.87088263 -0.37862170 0.04025785
0.12266269 0.27597430 0.75804043
-0.73396981 0.08398958 -0.28632298
0.81223667 -0.33195689 0.19059712
-0.29065582 -0.04560627 -0.85610843
-0.24673437 0.56270504 0.54876733
-0.26473263 0.43257052 -0.64134908
0.25101739 0.73779964 -0.16958521
-0.68833005 0.51472163 -0.16705723
-0.26375106 0.25689149 -0.77940202
-0.14646216 0.62481022 0.60118353
0.66294575 -0.47333562 0.22162104
-0.04031759 0.75998950 -0.25539318
0.31247702 0.50816905 0.52345347
0.17773400 -0.34453976 -0.70454288
-0.54149890 0.27478629 -0.59487104
-0.23494159 -0.17240639 0.76260853
-0.47463727 -0.13073343 0.74462235
0.31225210 -0.72505677 -0.14758468
0.40645692 -0.33881235 0.59623551
-0.43538654 -0.61966240 0.25105062
-0.47744137 -0.18478507 0.63325596
0.44955534 0.58100939 0.32149002
-0.77224505 0.03519408 -0.17769301
-0.35034811 -0.14394985 -0.77355826
-0.37935671 -0.02568892 0.90034807
0.69046390 -0.57677591 0.12437002
-0.22653854 0.23036589 0.72957218
0.29113016 0.72382772 -0.40361547
-0.38329652 -0.57946777 0.45606375
-0.60552835 -0.01222910 0.51205647
-0.73634398 0.27237868 -0.24810040
0.30381951 0.57967985 -0.50188613
0.54617167 -0.45272073 0.42284137
-0.58875465 -0.30683267 -0.59395289
0.51906395 0.36637729 -0.50551653
0.60748041 -0.37334153 0.39483443
0.07949691 0.56904113 -0.60587263
0.47338039 0.51922488 0.45789230
-0.66521597 0.59855330 0.04135561
-0.44594246 -0.67429674 0.27590540
0.28103378 -0.49631095 -0.64301622
-0.07085877 0.04971285 0.83698213
-0.52338612 -0.45331827 0.32994553
-0.66076696 -0.11224694 0.42244503
0.53712475 -0.65581632 0.12499408
0.56855214 0.39954296 -0.47811037
0.46824604 -0.68092823 -0.19663763
0.60730124 -0.18409643 -0.60917509
-0.67170572 -0.64817679 -0.06758373
0.61542845 0.57186007 -0.13180193
0.68723381 -0.33608913 -0.35546342
-0.81331730 -0.24684556 0.11104304
-0.11807998 0.74159253 0.05796033
0.41292223 -0.55522084 -0.40700617
0.05539389 -0.87036169 -0.36387822
0.42673224 -0.44491223 -0.46503961
0.08950953 0.83028257 -0.05262964
-0.57397282 -0.62558413 -0.27169994
0.80141008 -0.48342144 0.13059643
-0.59383881 -0.06260324 0.65700853
-0.73056877 0.54290807 0.16299070
0.35023707 -0.45048764 -0.56055164
-0.46265173 0.00893984 0.84929347
-0.09417794 0.79737175 0.25338629
-0.83823597 -0.43649080 -0.01090933
0.28389639 0.71638322 0.39100304
-0.64678884 -0.01677059 -0.53805923
0.20011216 -0.53159392 0.66745043
-0.73233414 0.01222640 -0.23146637
-0.03730766 0.87733388 -0.47475839
0.28329191 -0.39802945 0.60981834
-0.46828520 -0.11777008 -0.84723759
0.80547035 0.40367392 0.11692047
0.56634831 0.38410604 -0.37292424
-0.43492654 0.61039591 0.32074070
0.20527267 -0.33209583 0.72984207
-0.01912140 -0.63127494 0.63219392
-0.11116228 0.07354193 0.83984637
-0.54688907 0.60143769 -0.20301947
0.51851630 0.31685856 0.58107889
0.29459888 0.72367847 -0.30198175
-0.19121607 0.40398940 -0.67883205
0.22270159 0.78200972 0.01853751
-0.18214943 -0.79939222 0.23780133
0.17515358 -0.09499598 -0.73841190
0.42102152 -0.57387912 0.37238857
-0.50454438 0.24889156 -0.57764208
-0.18872045 0.40250963 -0.69117200
0.14267954 0.40017939 0.73668981
-0.71215069 0.11076051 -0.51376796
0.60135388 0.43693337 0.27662653
-0.69906080 0.09095178 -0.36324820
0.39145797 -0.32617939 -0.54326510
0.78943312 -0.29768166 -0.20217556
0.10017273 0.37490752 -0.70734632
0.14622994 0.54882157 0.57239294
-0.71158016 -0.44360551 0.33916134
0.84781945 -0.26923022 -0.10389219
0.53034031 0.16600467 -0.70938122
0.41619641 -0.09235731 -0.87348700
0.47578996 -0.31529745 0.67337036
-0.20668331 -0.41549653 0.69717717
0.21283831 -0.38016865 0.73809743
-0.85276282 0.01779469 -0.03031836
0.36699745 -0.18566117 -0.80426705
-0.19520473 0.76448190 -0.21841505
0.61178410 -0.63402736 -0.03436092
-0.39633065 -0.43655398 -0.53824902
0.14739452 -0.81311512 0.20295712
0.09971737 0.42943287 0.66137767
-0.90497577 0.31756675 0.03199222
-0.05803730 -0.22526792 0.76205134
0.56876826 0.16663581 -0.55983317
0.13179345 -0.78631771 -0.09564126
-0.11365514 -0.19637112 0.82928491
-0.65220213 -0.21470660 0.55078554
0.30428687 0.48581213 0.63389480
-0.53533590 0.41116396 0.35884723
-0.37623224 0.27004337 0.71709967
-0.11977012 0.76282299 0.46618432
0.16985169 -0.80621684 -0.45251879
-0.01533434 -0.83951473 0.30896613
-0.70388782 -0.29037526 -0.44535074
0.35400450 -0.29553217 -0.67093575
0.32599270 0.62575841 0.51689720
-0.77227616 -0.25425699 0.19394346
-0.48148316 -0.27581391 0.54781449
-0.79142547 0.31951985 -0.10732452
0.08043472 -0.57280588 -0.62243044
-0.65856349 0.11816317 0.52628303
0.67295671 -0.09204575 -0.44046459
-0.27275127 0.56680572 -0.52768815
-0.36397919 -0.74376106 -0.16949219
-0.29869109 -0.61543357 0.47283709
0.02774366 -0.88070047 0.47515106
0.18727791 -0.51004195 0.60949314
0.62134635 -0.12847693 0.60702288
0.03624589 0.45130301 0.67141378
-0.44324613 0.68816102 0.21043906
-0.21583413 0.74516213 0.27652776
-0.74062335 0.42645195 -0.22426583
0.69277704 -0.54334235 0.12825555
-0.74725378 -0.33704412 -0.30163258
0.18938608 -0.22059117 0.74170077
-0.73572659 0.21467350 -0.42748663
0.11008881 -0.16217546 -0.76664376
-0.04622092 0.40606576 0.72616613
-0.34497574 -0.53967619 -0.45146251
0.02361606 0.55294859 0.63424611
0.59005809 -0.40019375 0.40473777
0.29632255 0.22367366 -0.74646306
0.07103685 -0.79180050 -0.18887112
0.30107450 -0.12504302 0.81881464
0.50730872 0.43052584 -0.48143440
0.69633186 0.25180924 -0.41907105
-0.56152809 0.19629960 0.63367069
-0.06039081 0.54305565 -0.64753330
-0.69874883 0.53458500 0.16980295
-0.40721181 0.26458815 -0.73182070
0.55766499 -0.56017780 -0.30932778
0.45437422 0.34678066 0.66490281
-0.82487381 -0.12164024 -0.08453952
0.27265301 -0.75334370 -0.18947574
0.06217922 -0.40913042 -0.72857118
-0.73854816 0.57971239 -0.05800288
-0.61120141 -0.42491674 0.27279657
-0.02751569 0.17891109 -0.75795710
0.55433524 -0.53205752 0.31255466
0.74310815 -0.04706804 -0.28527778
0.61392188 -0.59773970 0.01024910
0.24733317 0.77622521 0.27252021
-0.46339706 -0.66236961 0.23820788
0.17888515 -0.31249747 -0.72543061
-0.27718240 0.34047371 -0.72209620
-0.68125474 0.20775993 0.51906717
-0.88875020 -0.27915820 -0.04348950
-0.46087649 0.21044692 0.71481681
-0.26253146 0.76760936 -0.16317062
-0.58384204 -0.20338756 0.62728310
0.13095570 0.80784297 0.31844455
-0.11115113 0.40811136 0.75291181
-0.84570038 -0.10555843 0.00181906
-0.52690589 0.11422005 0.73711061
-0.49136791 0.18334767 -0.72006369
0.37906501 -0.74647272 0.10827962
-0.78367770 0.38844642 0.22126915
-0.09439670 -0.81252027 0.43265337
-0.29709363 0.72905385 0.05263848
-0.82110107 0.18066217 -0.01806305
0.13175634 0.08021607 -0.82299900
-0.32594603 0.71406007 0.15823705
-0.16385916 -0.68281412 0.47982138
0.13499588 -0.77916515 0.31736916
0.82284427 -0.24294789 -0.03127278
0.83909917 0.40260452 0.01248790
0.78810751 0.47936285 0.01445395
-0.78176320 -0.48637927 0.12214797
-0.60159516 -0.23769291 -0.52123475
0.37712270 0.69307816 -0.29213029
0.48947975 0.07029790 0.82822204
-0.58709991 0.43194222 -0.31857294
0.21332957 0.64695859 0.49236968
0.10524619 -0.58967423 -0.58583999
0.50618815 -0.00933196 -0.77384591
-0.79067719 0.20763522 -0.08547407
0.77771533 -0.25740734 -0.19150700
0.40428099 -0.57444644 -0.50672829
-0.79476559 0.24209803 0.20828097
-0.43863696 0.11009613 0.79980552
-0.75504363 0.00085582 0.19926664
0.86601555 0.09264033 -0.09052876
-0.63301814 -0.47680143 0.22435775
0.39787206 0.37135145 0.63094473
0.49000326 -0.46267021 0.40886846
0.50063932 -0.64472342 0.07136115
-0.64878178 -0.13551700 -0.52499497
0.44009566 -0.21540433 0.78882241
-0.56658149 0.49979931 0.31240746
0.33112919 0.34809563 0.69123578
0.61463034 0.51507127 0.17418976
-0.17497146 0.58743489 -0.63300824
0.79756677 0.11441319 -0.27433896
0.55759025 0.26238704 0.65315771
-0.85920703 0.21268024 0.04985518
-0.58133352 -0.34093872 -0.48288223
-0.74012077 -0.07478753 -0.24775825
-0.00222212 -0.28149700 -0.72663152
0.13752890 0.50197113 -0.61969209
0.45259458 -0.60019970 0.33649540
-0.01532006 -0.62320256 0.62620568
-0.83938849 -0.20353214 -0.19629052
0.21658385 0.10857266 0.76807880
0.84019983 0.26548725 0.14388916
0.24783853 -0.05761494 -0.79953885
0.24504805 -0.75560391 0.33806059
-0.44778335 0.67966330 -0.09859290
-0.03259408 -0.03892618 0.78196776
0.65998161 -0.09106523 0.47633168
0.45461074 -0.56458366 0.38512352
-0.73069680 0.04551485 0.44824776
-0.55373645 -0.05335569 -0.69889021
-0.80476069 0.34046343 0.09689753
-0.03094062 -0.85134685 0.22047582
-0.06428983 -0.19183435 -0.75081384
0.06663748 0.36165187 0.70241022
0.81466305 0.10294358 -0.21329606
0.12480058 0.62430835 -0.61576760
-0.58626366 0.50280094 0.32666668
0.47325683 -0.69037688 -0.04855844
-0.18532887 0.73970473 0.49489176
-0.48020101 -0.29298449 0.55114627
0.58661056 -0.40686798 0.45938885
0.26326719 -0.09814721 -0.83114493
-0.15562563 0.76526725 -0.31265360
0.08706599 0.85880542 0.07895523
-0.38577664 -0.73731863 0.22751778
-0.28783944 0.63478875 -0.48346198
0.47466207 -0.15602021 -0.80326200
0.57449663 0.61584818 -0.15534905
0.56343758 -0.66366911 0.19319063
-0.07299566 -0.75519562 0.52877998
0.01060655 0.85606861 -0.36013678
-0.38194713 -0.23447803 -0.68329024
-0.86956930 -0.40428045 -0.04679422
-0.76114547 -0.10299364 -0.31420037
-0.85540795 -0.56452298 -0.09446648
0.41782427 -0.29823977 0.61788368
0.20503004 0.45366889 -0.69685125
0.72600007 0.28940317 -0.35812953
-0.19165598 0.12043055 -0.83118486
0.57066309 -0.12745734 0.66987216
-0.23927116 -0.80891943 0.28359845
0.67887139 -0.26614553 0.42921755
-0.04796090 -0.15533321 -0.78939617
0.03402628 -0.23873550 0.73855269
-0.28604484 0.74511063 -0.34934005
0.71379459 -0.46387845 0.16763675
-0.34473658 -0.30299255 0.78926492
0.13673677 -0.76111889 -0.54724872
0.42071378 0.42399701 -0.55164456
-0.28784412 0.69323444 -0.47145191
-0.13208170 -0.70533681 0.54162931
-0.40990648 0.33053362 -0.59566593
-0.11859877 0.53638518 -0.62669134
0.16188683 0.80023944 0.29254830
0.57266009 -0.60966730 -0.12221437
-0.04145580 0.70458531 0.59061980
-0.74369645 0.47699091 -0.15935637
0.73254609 0.59021676 0.02101325
0.50901854 -0.20786014 -0.58628631
-0.21075077 -0.69433868 0.38481101
-0.06922776 0.55895066 -0.59735370
-0.24133533 0.24156654 -0.72976804
-0.61346126 0.28554729 -0.49395069
0.63652611 0.03446621 -0.52803457
-0.49835846 -0.50918484 -0.38123566
-0.53723919 -0.25532493 0.46822304
-0.10495862 0.59893656 -0.62270880
0.45619628 -0.00293111 -0.88190436
0.30373344 0.33073393 -0.68528068
-0.18961294 0.73404586 0.44104412
-0.61455345 0.53825319 -0.29051638
0.55695260 0.49492285 0.19177622
0.09802196 0.35813549 0.82191849
-0.83430111 -0.43514159 -0.05062432
0.13513632 0.67991519 -0.59309494
0.54902029 0.21223933 0.59781599
-0.79303598 -0.42225388 0.13721760
-0.13305990 -0.15142871 -0.78990412
-0.33213690 0.37525314 0.63303459
0.02009086 -0.62824690 -0.62056148
-0.06228419 -0.38353276 -0.72182763
-0.03313819 -0.73252523 -0.05597001
-0.33394343 -0.19644563 0.76376200
0.31709334 -0.73151398 -0.17441955
-0.35540724 0.75072730 -0.25899664
-0.11611613 0.82485521 -0.53705871
-0.67353427 -0.20530736 0.53714883
-0.47994676 -0.45261359 0.41725719
0.19206467 -0.73817420 -0.27477962
0.24200012 -0.35672903 0.70536387
0.12843415 0.43847570 0.67419457
-0.73794150 0.05673508 0.22443913
0.38284072 -0.38173169 0.68181789
-0.67312193 -0.12695360 0.57190120
0.47043172 -0.06899684 0.87343001
0.57249558 0.11203562 -0.65718353
0.83994794 -0.36184043 -0.10029485
-0.12378165 0.57188010 0.69070387
-0.69394350 0.56486547 0.17261305
-0.84012842 -0.35710382 -0.07929771
-0.78088081 -0.14836556 0.21095937
0.27564338 -0.61185074 -0.48863935
0.43788159 0.06636799 0.83398139
-0.52700150 0.39662117 0.46353954
-0.36360407 0.46987671 0.53086352
-0.47850725 0.19361894 0.64912534
-0.70154643 -0.26385364 -0.44435665
0.29712218 -0.51797318 0.57425022
-0.38368332 0.19335753 0.71797347
0.69935966 -0.58918071 0.08569410
0.01379978 -0.44700459 0.65795112
-0.04582124 -0.87337792 0.14879028
0.49157643 -0.49261677 0.29543093
0.39022183 -0.22755377 0.75657940
0.44064385 -0.07047465 0.85214388
-0.43923944 0.53414857 0.35035253
-0.65851605 0.11394175 0.58129978
0.70495200 0.58570099 0.16463539
0.15930712 0.60617983 0.61036420
-0.05033494 -0.10197303 -0.71401405
-0.03634859 0.48391032 -0.63955557
-0.25663251 0.68145013 -0.04711065
-0.53653419 0.60449851 -0.08757731
-0.48430395 0.49845898 -0.36259839
-0.77719259 0.26305389 -0.11453858
0.19579846 -0.00093398 0.81102133
0.71269071 -0.14808132 -0.45886737
0.51750338 0.39811888 0.42459577
-0.72479224 -0.19800270 -0.31955719
-0.44372097 -0.41406175 -0.56831348
0.82682157 0.28125745 0.11828833
0.06631061 0.74117112 -0.55430841
0.11278991 0.76495564 -0.55589688
0.73996890 0.09025635 0.29892164
0.04781067 -0.80181122 -0.01821473
0.38122991 0.27819517 0.61183846
0.67887294 -0.39226624 0.33913139
0.18767561 -0.53937948 -0.56105149
0.23414421 0.52002287 0.55186641
-0.85355961 -0.17924666 -0.01416720
0.81396794 0.20146951 0.12742987
-0.60459244 0.28163785 0.42187914
-0.47799143 0.54672527 0.32890129
-0.53875279 0.41789821 -0.44291684
0.45585787 -0.53212392 -0.44795907
0.50933838 0.16886395 -0.74072707
-0.25660622 0.54630268 -0.55063796
-0.24725540 -0.57130575 -0.53281415
0.89083302 0.07636660 -0.02578294
0.56731904 0.25403664 -0.42995346
-0.72326207 -0.21461442 0.33911952
-0.73233807 0.32903138 0.30683941
-0.82692564 0.05993502 0.02130418
0.02820787 0.84937549 -0.40537372
-0.26616997 0.40835816 -0.76375628
0.31253326 -0.75901592 0.20780161
-0.75662267 -0.55738807 -0.05939204
0.27733633 0.71738088 -0.42172396
0.47076306 -0.00895581 0.85453689
-0.74026299 0.36386782 -0.31855142
0.36823836 -0.38628814 -0.54166043
-0.10537124 -0.30928591 0.70258117
0.53119373 -0.35722479 0.45458111
0.48582560 0.09050487 -0.83392799
-0.08642136 -0.40039670 0.70936990
0.12555368 -0.08078052 -0.86743498
0.67579257 -0.51147163 0.20574819
0.72299564 -0.38988152 0.23631458
0.83464038 0.26994124 -0.03655953
-0.59172988 -0.33343196 0.40378904
0.60491073 -0.65946770 -0.03636895
-0.01785709 0.11569540 0.76434195
-0.67745519 -0.11647443 0.34662986
-0.31043568 0.58308089 0.44033808
0.57151926 -0.17068306 0.61963248
-0.54463673 -0.05876606 0.69503736
-0.73865712 -0.48830271 0.12542067
0.18740915 -0.34115306 -0.74831414
-0.86973655 -0.02213379 -0.02487791
-0.52525580 -0.48728698 0.32282040
-0.73402166 0.51442027 0.07019776
-0.08498446 0.78795123 -0.47451940
0.15352857 -0.24147260 0.71745431
0.77218366 -0.03182126 -0.21035974
0.32697824 -0.67121327 -0.44945294
0.81585956 0.11499405 0.04840767
-0.10674042 0.22748543 0.77198589
0.47490197 0.03723825 -0.82458758
-0.38486058 -0.45155743 -0.58653665
-0.39826074 0.22020827 0.73628092
0.12479275 0.83149767 0.26771179
-0.15219408 0.76719558 -0.46270037
0.81591380 0.15038481 -0.00857088
-0.13255699 -0.61323941 0.63661385
0.50983572 0.52616405 -0.30186731
0.25179070 -0.20026484 -0.78753209
-0.37046862 0.58424354 0.38072348
-0.10792509 0.87217093 -0.39354762
-0.36895907 -0.30013168 0.66159797
0.21665029 0.45807436 -0.67601132
0.69340074 0.13833338 0.48291847
0.23988543 0.21096347 0.78002834
0.20875840 -0.62968266 -0.58471859
-0.61788893 0.16391486 -0.56516564
0.54944980 0.34279686 -0.52054739
0.55655491 -0.63547909 0.09344886
-0.21728630 -0.01642811 -0.87211907
0.28038716 -0.14547729 0.77419031
0.39835784 0.68881285 -0.21853073
-0.30410346 0.44417354 0.61821425
0.36535534 0.19160099 0.77941906
-0.05108252 0.81504405 -0.36351237
0.25736815 -0.01755970 -0.85563624
0.05458780 -0.14626192 -0.82601893
-0.34797147 -0.52327895 -0.57762206
0.51705158 -0.71549165 -0.22527462
0.53253877 0.57617688 -0.02154893
0.59180820 -0.06606069 -0.60693324
-0.57433534 0.60619366 -0.31543005
-0.68717015 -0.51538444 -0.20769884
-0.19821505 0.29284784 0.75486755
0.72293353 0.24914947 0.32147944
-0.21020238 -0.12196056 -0.79377437
-0.40578789 0.61073828 -0.38333425
-0.67063212 -0.06223982 -0.42604819
-0.22116646 -0.12752128 0.75297010
0.37331283 -0.51432145 0.34409225
0.33222869 0.70540464 -0.20205510
0.63884950 0.56501853 -0.15950294
-0.50238550 -0.70989716 -0.24595694
0.42110083 -0.68624246 0.26778421
-0.66902661 0.07344910 -0.42348993
0.31289205 -0.69640112 -0.00376312
0.46895939 0.23004384 0.57325315
-0.65617800 -0.57406461 -0.09185961
0.47529414 0.66898656 -0.00222166
0.37109390 0.69067252 0.15990908
-0.44680020 -0.15979721 -0.80588770
-0.14775735 -0.70436573 0.55350971
0.55554807 -0.02599395 -0.62982011
0.20385273 0.09078838 0.76047933
0.57034671 -0.20124441 -0.64068866
-0.25771242 0.73118103 -0.05211999
0.12185950 0.84878659 0.46457762
0.25395602 -0.75306749 0.28390291
0.28899318 0.17181347 -0.74761724
-0.47988892 0.10279410 0.77118385
-0.52924228 -0.27768201 0.60704839
-0.34483510 -0.63831055 0.35422093
-0.09061007 0.67956674 -0.56326652
-0.49746707 -0.32880729 0.51088679
0.40825382 0.21100140 0.77678096
-0.86495519 0.44919029 -0.09702089
-0.55759823 0.00702275 -0.76476431
-0.87064791 0.41584501 0.06433214
0.39818224 -0.64206541 -0.15670434
-0.59546757 0.02950189 -0.79642653
-0.82084477 -0.23888840 -0.09333864
-0.73774588 -0.14852321 0.41090325
0.44570982 -0.49806762 -0.48692709
0.34770906 0.28708780 -0.71367157
-0.55419338 0.17749679 -0.65367830
0.42044351 0.14439875 -0.71966016
0.81173909 -0.31961107 -0.04006283
0.39208296 0.18451563 -0.75338471
-0.26395318 -0.76670098 0.09956653
0.67534792 -0.29306448 0.48799869
0.85204446 -0.34084833 0.00417096
-0.07930858 0.40899301 0.61326540
0.79188991 -0.31635645 0.23373392
0.29643387 0.67614293 0.39906436
0.79864621 0.50661230 -0.06623942
-0.11605806 0.59685624 0.65227067
0.28196675 0.75004041 0.11748282
-0.02369367 -0.03601599 -0.85231924
0.86637151 -0.39951968 -0.04858556
0.07088374 -0.81299329 -0.33280358
0.68606853 -0.57383418 0.13470656
-0.07414736 0.83208084 -0.38443458
-0.76995659 -0.25502640 -0.26401752
0.49687394 -0.37641552 0.57786500
-0.83182967 -0.06827202 -0.18931422
0.83375978 -0.44213665 -0.04967577
-0.64170289 -0.59080505 -0.11925127
0.59137559 -0.20508985 0.57064390
0.29258955 -0.69648242 0.01008205
0.66640627 0.10599308 0.51467288
-0.50591648 -0.64845419 -0.19542992
-0.75783443 0.21935749 0.34052280
-0.12229878 0.80501473 0.06158298
-0.08059605 0.11639415 0.85076916
0.16999653 -0.85273981 0.09275266
-0.26389807 0.75781262 0.34532869
0.08409812 -0.72736049 0.53981900
0.78407979 0.05871067 -0.14888896
-0.60761940 -0.09172797 -0.51136267
0.33727995 -0.07650836 -0.79605412
0.14320667 0.79264688 -0.20283052
0.72267079 0.29093790 -0.28502688
-0.65049708 -0.32546309 0.33992136
0.62562132 -0.59928310 0.19464147
-0.26970312 -0.69974756 0.02444278
-0.03892867 0.92809212 -0.41087514
0.13101022 -0.66226900 -0.55606091
0.66136491 -0.11357775 -0.48466390
-0.52814901 0.24795084 0.60402596
-0.65541399 0.11851276 -0.44359362
0.65834010 0.04949202 0.62858117
0.50117445 -0.45542455 0.43298915
-0.23825508 0.75799286 -0.02303841
0.31809908 0.08495683 -0.81595111
0.24559438 -0.26397592 -0.75938058
-0.30998236 -0.73756385 -0.27308068
0.32150349 0.14543232 0.83087933
-0.26608318 0.57197738 -0.52414548
-0.06834326 -0.21343578 0.72739959
-0.52273178 0.66170490 -0.08568277
-0.04002676 0.06681101 -0.80036938
0.40240529 -0.69098091 -0.18209560
-0.31519371 -0.25523028 0.74847651
0.49622256 -0.63282526 0.06211289
-0.30729491 -0.71552002 0.24506958
0.13091777 0.36115324 -0.65106070
0.73158908 0.38391474 -0.18426916
-0.56002450 -0.38504204 0.38197902
0.15264425 -0.63647568 0.49239013
-0.20867053 -0.56573987 0.52522218
-0.33616278 -0.54590428 0.44626021
0.46030328 -0.69694126 -0.17898239
0.79637825 0.37931880 -0.22798057
-0.70294189 -0.30995703 -0.23226009
0.81095850 0.10244755 0.11862759
-0.57698643 -0.16331637 0.69146264
0.56213069 -0.42852923 0.47575605
0.06883097 0.65324342 0.58378732
-0.04557379 -0.41927862 -0.73055410
-0.76759243 0.37178177 -0.20158353
-0.61857736 0.05599087 -0.60163879
-0.54790723 -0.39237463 0.43503106
-0.21342990 0.56567049 0.59596026
-0.02554259 0.19179249 -0.75029588
-0.85989034 0.19083843 0.07928115
-0.15240800 -0.69433391 -0.50676024
-0.04756044 -0.84138715 -0.12281738
-0.38468799 -0.69437790 -0.21045268
0.21477371 0.72070539 -0.35406098
0.42004848 -0.24172561 -0.67580140
0.01031635 -0.01092950 -0.85781860
0.36467373 0.73093331 0.02116768
0.45122883 -0.04244926 0.84606123
-0.30413324 0.49745929 0.56753159
0.14114237 0.82902384 -0.25462341
0.45339027 0.13272789 -0.77749872
0.24784383 -0.71545291 -0.19608210
-0.40913776 -0.70621622 -0.22249477
-0.31452501 0.13148372 -0.76477599
0.39973739 -0.42774728 -0.56369567
0.40673697 0.37619391 0.60533512
-0.34090951 -0.76156056 0.15741216
0.64333069 0.61975253 0.04096317
-0.22161317 0.61901152 -0.52442384
-0.16170609 -0.77671504 -0.02325922
0.22949259 0.64446497 -0.50694025
0.66531956 0.56616831 -0.03909273
-0.13289659 0.67108059 0.58458960
0.61419201 -0.18227351 0.58776176
0.14656058 0.51457751 -0.62417531
-0.84500897 0.39233813 0.14978082
0.83229935 -0.48239127 0.05313209
0.35549140 0.31484866 0.68573809
0.39118278 -0.30139601 -0.70985830
0.06036903 -0.81710994 0.41109297
-0.00989060 0.85569119 -0.54759419
0.82118201 -0.29607272 0.14193040
0.39931029 0.37488031 -0.63876843
-0.05375607 -0.40679613 0.68131673
-0.85560298 0.40500453 0.02529003
-0.78577185 -0.07689170 -0.07154564
-0.79180205 -0.14420378 -0.21434689
-0.29576519 -0.77217364 -0.14438002
-0.46821672 -0.62187111 0.21162647
0.76537728 0.18774213 -0.16227950
-0.17162205 -0.18761374 -0.72349596
0.30760133 0.09421986 -0.81480598
-0.64196730 -0.05127098 -0.42385638
-0.47942609 -0.64129436 -0.18052079
0.69554937 0.06929665 -0.25650966
0.69178104 0.54467821 0.03507261
0.42503786 -0.44243255 0.46782500
0.31554139 -0.47965026 0.60881829
-0.34267059 0.58347774 -0.42628345
0.17300312 0.52825773 0.61213541
0.48521721 -0.67414367 0.31024703
0.64732265 -0.12427583 0.51566303
0.60848832 -0.17574215 0.54432249
0.12369255 -0.12880170 -0.81370652
-0.00260468 0.60139310 0.60712576
0.36334005 -0.29657105 -0.69736636
-0.72278380 -0.56251073 -0.11939579
0.27318776 0.51636350 0.49393663
0.58683872 -0.22984517 -0.53493798
0.29469496 0.69182599 0.10277648
-0.15946838 -0.72200954 -0.50174117
0.48780373 0.29411334 0.59054136
0.49879527 -0.62548602 -0.02147177
-0.83775699 -0.38269150 0.04152380
-0.21353503 0.59275949 0.58614624
-0.26877439 0.64485741 -0.48736280
0.13204342 -0.80416656 -0.24217449
-0.04218454 -0.80633271 -0.60516942
0.58129084 -0.27496859 0.51310813
-0.72907567 0.40061310 0.27047545
0.05539920 0.37153050 -0.69290292
0.43835360 -0.25613430 0.76099491
-0.30385214 0.49546957 -0.55882680
0.66550374 -0.46956256 0.12983629
0.18259546 -0.63524258 0.53932619
0.56579840 -0.69665968 -0.15818673
-0.14507504 0.82293749 -0.31453797
0.40198353 -0.40524167 -0.63057005
0.20544706 0.83863521 -0.12781985
0.54115522 0.57750249 -0.27676314
0.68179691 -0.56940627 -0.07904436
-0.19465758 0.81414926 -0.29372039
0.07386184 -0.80728424 -0.09899483
0.07672782 0.56212401 -0.67023873
-0.52652061 0.17195347 -0.65376735
-0.79717565 0.24550909 -0.22943085
-0.70365286 -0.35710433 -0.21705185
0.29505056 0.52050889 0.53684008
0.33373615 0.33915156 0.71607578
0.15336701 0.36409065 -0.71912503
0.75867903 0.43482563 -0.11255672
-0.33015427 -0.70300114 0.36731669
0.69297397 0.34153035 -0.34759724
