17.17580032 -23.67219543 29.38184738
13.31782246 -33.23873138 21.08131409
7.97167206 -26.02799797 -4.14440346
37.30427551 -31.52280617 14.66193199
-3.73441315 -19.34353065 -0.29206848
34.08235550 -18.72781372 20.21244812
15.05816078 -38.57900238 -3.85777664
15.66408539 -16.00644875 26.13634109
23.51917648 2.97679520 13.60222626
7.13593197 -40.60910416 10.36002350
2.11446381 -21.09288597 10.64864540
33.45993423 -0.54690838 18.45573044
1.33960724 -19.36236763 -10.75836372
26.57917786 -41.28081512 13.71282768
31.30974770 5.24836349 36.31988144
36.83296585 -35.59487915 26.47877502
13.05240631 -9.75194359 15.13344097
20.99366760 -13.50827217 35.41142654
33.41815567 3.71870613 20.37481689
6.38006973 -13.84500980 -0.34902763
18.41412735 -3.99607182 14.20761871
15.96115303 -33.53158569 14.58140755
33.15312576 0.80379486 24.27824402
33.27478027 -32.39471436 32.17380142
45.06523514 1.95100784 33.14375687
41.59428406 -32.37560272 35.51230240
17.37924194 -37.94128418 19.79049301
2.68618393 -28.81199455 -8.95958710
25.57752419 -35.48970032 20.60440254
9.97640896 -30.82733727 20.99496078
2.68638611 -16.28815842 13.49416637
14.57897949 -44.26884460 24.73220062
4.37687683 -22.11650276 -0.19155884
10.14091492 -34.10152435 5.59068680
31.17206573 -16.36083794 41.15290833
21.63852692 -35.62360764 38.11157990
14.92238808 -16.67648506 3.11808014
3.42205048 -21.47205353 2.70436096
37.43246841 1.76271820 38.81702423
42.22822571 -2.77049160 37.45553589
8.10776711 -15.45329380 18.75789452
-1.77076149 -32.29069901 10.43166256
17.34897614 -41.59735870 15.09033203
32.97811508 -19.96469879 43.27527618
34.30864334 -8.94410133 20.73065758
36.01811981 -19.78264999 22.34923935
33.21294022 -30.47200394 40.34342957
19.45538330 -26.28306007 34.26785660
15.76355171 -0.62330341 20.08199883
19.57879448 -15.81370926 6.14874554
30.10432053 1.90314865 21.32553101
12.65306664 -22.11910629 21.71968842
3.35421562 -41.66310501 9.67471218
8.95959377 -29.16911316 17.33326721
24.18248940 -16.51787186 4.55780220
11.00414181 -14.89802933 23.76743126
3.48730659 -17.27706718 4.92303848
44.98662567 -37.08641815 51.78114319
10.11514378 -27.55634689 -3.14598656
28.17370796 -43.63958740 18.95547485
18.15336418 -17.13896942 32.85582352
42.97172928 -29.45944595 34.33189392
23.92020798 -24.00816345 13.09201717
24.08301163 -1.59201622 31.51295662
3.38105202 -18.51674652 7.67084980
14.33554840 -11.68276405 4.39846039
0.44597816 -31.77375412 -2.04553795
12.20909977 -34.12169647 15.53782558
45.17697144 -27.69843864 38.80292892
26.60501671 -35.85173035 23.44328117
19.79497719 -34.33678436 13.08838272
26.34398460 7.86259842 15.70760536
14.01130104 -28.56945038 -2.64682388
-0.88066101 -23.74650192 10.57289219
13.16249752 -18.92049408 28.61033630
11.85776520 -21.12112427 21.70420837
29.77978897 -35.47495270 26.68230629
30.45042801 -31.56285667 44.87638092
17.82690430 -34.58616638 33.69012451
21.60549355 -31.82758141 40.83595276
33.88640594 6.49796295 39.48060608
-1.11116982 -25.92869377 1.57246399
25.43314743 -33.37738419 4.86781883
22.34148979 -37.41599274 39.25878143
33.42136383 9.98263550 23.22554016
16.22110939 -7.74406290 20.09966087
23.64927483 -39.66487503 12.26609707
29.50059128 13.97113419 22.31140518
18.89385986 -1.65875053 21.16175270
13.31957054 -28.35034943 24.55680847
18.14225578 -39.53659439 23.37736511
5.22107887 -18.56816864 -10.56377411
15.27271843 -31.77637291 14.78806686
17.78583908 -26.10724449 12.20287704
37.60428619 -25.75963211 30.98185349
49.26078415 -38.09947586 52.88259125
14.92214394 -41.24978638 0.28868675
11.36621094 -33.35669708 19.05292702
17.92482567 -22.57608414 4.72306252
39.35688782 9.48069191 31.01683807
50.42987823 -32.38217163 49.33998871
1.39446068 -35.95683289 -0.18728447
34.66485977 -32.68806458 34.70733643
4.41231155 -39.78121948 9.09796143
30.16682053 -0.28480625 35.06906891
46.50500488 -34.82991409 53.35353851
38.38977814 -28.63676453 36.55687714
21.50259972 -40.50516510 23.71991348
-0.78089142 -30.68355560 0.25523567
41.40691376 -2.81690884 29.36145210
29.99755859 10.25208282 22.21856117
2.77610397 -42.95670700 11.32794476
48.35163116 -35.69460297 47.14941406
14.59020138 -37.96516418 27.89527130
32.00621796 -39.51668930 26.33128548
36.27026749 -26.36619186 44.18010712
43.69819641 -27.91967010 40.41687775
40.11734009 -29.49436951 26.56209183
22.29283142 -9.15237236 17.43288803
40.60218811 -18.20193100 43.37403107
4.41837883 -39.03061676 19.92718887
42.86069489 -29.79050255 31.88681793
38.52937317 -11.21553612 32.42583466
16.13512802 -26.59308243 28.28623772
19.08402634 5.38814545 16.17211533
43.87185669 7.69483376 42.43652344
19.29977989 -15.43774128 31.92373657
21.47020149 -29.35685539 13.78450584
23.63680458 -29.82987595 38.50226593
32.41792679 -6.69231319 23.18659019
36.02975082 -14.34640312 26.92605782
25.55809021 -35.27926636 23.17365837
33.65623093 -9.87872314 21.88772202
31.53996277 -20.53850746 41.36033249
9.45730591 -20.50023270 -3.21585274
23.04508781 -40.30556488 18.15044594
44.62586975 8.02545929 37.05194092
21.70165443 5.51815796 15.22662544
18.93553734 -42.13069153 5.91164875
22.74310112 6.52636337 15.92001343
21.56771088 -29.57018661 32.63538361
34.38360214 -25.28906441 17.90689087
35.91123962 -21.24097824 19.21342278
8.57585621 -16.97358322 16.52711868
44.24829865 3.74522400 35.20053864
34.00761032 -36.07334137 27.39639854
4.16342163 -12.08647919 11.23974514
18.39029503 -33.57128906 36.30722809
33.51767349 -30.24131203 37.37363434
20.68450165 9.41110039 11.76477718
29.82567978 12.42192078 28.50170898
24.61318207 -16.93986511 40.07413101
27.35736084 -23.71402168 15.06662750
32.83494186 10.18669701 23.55627060
35.65528870 -32.89461517 33.51303864
26.33911896 -36.64182281 11.81095600
1.60959816 -21.66002846 -10.04333496
8.70184898 -15.41399956 17.92931366
32.22028732 3.16938972 21.03447342
13.69841290 -35.14676666 27.30102921
13.70149612 -41.56135178 6.53003502
31.57800865 -18.91515541 15.17487621
24.36260223 -36.87395477 21.52811623
16.51654053 -29.08250427 20.21073341
37.93070221 0.40807629 40.45074463
30.35435104 -32.02987671 48.29183960
25.47039986 -39.28752518 36.71993637
12.54431152 -39.69834900 -4.03629112
6.41344738 -39.57088470 13.51274967
35.55996323 -0.04467392 40.59594727
16.01951599 -26.09822845 17.28552628
5.45548630 -27.29138947 -6.85576248
28.76983452 -20.64255333 16.40680122
19.35651588 -28.90536118 19.97229004
1.68353271 -29.62420273 15.58681393
12.54575634 -40.77326202 0.05170631
13.78206730 -3.68572140 16.48397064
12.62351894 -41.06795883 23.18463135
26.51350975 -39.70351410 43.79205704
12.40379143 -28.97245407 18.50747299
23.33521271 -37.20166016 26.18013000
24.31767464 -32.24552155 42.47395325
15.75549126 -7.09291840 24.00601196
38.94458008 -20.72748947 29.91541290
38.51232529 -20.09802437 22.28683281
27.87220573 -36.80434799 21.79619217
19.22961426 -37.62971497 30.29108810
5.21527672 -26.39030457 -3.51465607
29.11546326 9.84834671 22.49868011
44.63967133 3.70755196 41.85499573
26.29585838 -12.17612743 8.01567459
21.23517418 -11.49190521 36.14961624
0.72766304 -15.19746017 -1.41877174
15.00511646 -31.36709023 -1.83578491
38.09918594 9.39859581 34.78244781
22.58480644 -1.80248833 30.27170563
10.91606331 -10.48087883 19.18013191
24.66526413 3.89676857 13.06276417
39.88055420 -14.24140453 37.98050690
25.85948944 -29.83338928 15.05488205
21.92855263 -16.04140663 5.97441673
10.93954849 -44.76704407 17.16294479
1.76479721 -33.17504120 15.57717133
6.25484753 -9.41761112 9.54669666
8.79196930 -40.56047821 -2.28326416
12.08790493 -7.77607393 5.11101723
40.55563354 -31.76347351 35.62248611
23.95974541 8.00376701 16.38181686
3.12399483 -19.27471924 -8.20143700
16.10114098 -27.45228958 30.10415649
2.46183777 -16.51782608 0.22303009
7.52383518 -33.29895401 19.74201584
28.42830467 -40.53124237 16.94532013
9.05841637 -26.27293777 1.27591896
24.46096802 -27.02359200 43.74774933
20.04126740 -13.41013145 4.34361076
14.04662037 -17.03084755 -0.02987671
18.66978836 -16.49983406 3.82538414
-0.48880386 -18.29626083 -11.38850212
13.57281971 -40.25659180 24.81968689
1.89323997 -16.88757896 -1.18866348
22.51972580 -40.67287827 31.44841957
14.08926105 -8.60057068 23.06087875
24.81748772 -38.24542999 32.93994522
8.82505417 -10.46558571 13.55923176
12.66448879 -40.06818390 14.35431480
38.51542664 8.35768890 40.65663910
37.13238907 10.34358788 35.76688766
21.64248466 -37.42984390 34.70898056
12.41580105 -28.15139008 -2.14310646
28.85551071 -37.69077301 19.35494041
38.37139130 -24.00013351 43.91052246
42.27571106 -0.68494415 32.69267273
32.35321808 -8.19848633 26.13506317
15.75547600 -32.23056793 23.38158417
4.68536377 -22.27465057 -3.42436600
43.92524719 -34.79706192 45.98002625
38.22483063 -22.32602119 32.60423279
32.18225861 3.61712837 37.39631653
16.16758919 -38.74979019 24.55579758
33.49650574 -15.01666451 22.73202896
31.11020279 -34.23400116 47.56021881
4.83389473 -17.13157845 -2.86317444
48.37135696 -35.97315598 49.32450485
35.72633743 -9.65005207 25.41147041
4.84518051 -13.61223507 8.09643841
32.52524567 -24.04900551 20.59342957
42.40608978 5.93333435 41.03845978
16.20575714 -44.38601303 25.60237122
17.17505264 -27.93121338 -2.26076317
18.58144188 -2.79435730 24.01380348
8.89727879 -17.84036827 20.16494370
19.08314514 -29.98172760 8.56387615
30.69447899 5.01076508 16.84778976
0.09729576 -27.84993744 12.46168232
3.66998863 -12.12121487 0.45795441
46.52204132 -34.50868225 54.09565735
0.17312622 -40.53054810 5.80443764
-0.74238014 -29.85868835 10.95956230
2.63850975 -18.80876732 15.38570213
7.38428020 -28.64762497 -3.96762848
29.80333328 -20.24866486 41.53899765
17.59797287 -30.54750443 17.47653961
31.20932770 14.96787453 29.55934143
24.40820312 -35.14536285 19.08325195
14.87747002 -10.09063435 1.20674324
47.54174805 -31.04396057 47.24077606
36.23968887 -34.89892960 28.83622742
37.30225372 -24.52105141 22.26606178
28.11036682 -22.75072289 14.48428535
24.45169449 -22.67827606 7.21967030
43.43214417 10.75311089 37.78302002
8.18579006 -40.97306824 -1.99808311
32.56934357 -12.74944687 19.71105576
44.54535675 -2.58863544 35.46481323
35.71772003 -0.99349117 37.65648651
41.39383698 1.72402382 42.73786926
8.71143627 -15.24409389 9.13724041
24.73101234 -2.47546577 14.84920311
3.16392136 -12.50496387 -6.96513748
32.25907135 9.22955322 23.71253204
32.44550705 -19.65963364 43.98667908
33.03934860 7.59180832 20.20119095
19.34608078 -5.15014553 24.05956078
22.83418655 -39.82234955 18.26019096
18.87877464 -6.59549904 27.61278534
24.97656631 4.03761673 15.27321815
4.32418823 -25.81453705 -6.97160149
31.20871353 -38.34664917 22.54868507
9.84641838 -29.61690903 22.14243889
6.79586792 -20.24913025 -0.48877525
25.17566490 -8.86151695 27.94881439
24.35781097 2.89078331 30.09727478
42.91231537 -26.84775734 39.10166168
27.12630844 4.74602699 18.50275421
13.64620399 -15.60423756 27.32127762
15.90101624 -38.09363937 19.31911087
27.53715134 -11.57635689 12.39390659
24.34433365 -12.86811829 9.07671261
2.43201256 -17.16120911 10.88639736
48.30992889 -37.25274277 51.82232666
11.68667793 -39.63217163 24.13846207
5.59820747 -26.28401756 -7.92496109
22.62052917 -14.21687222 36.84313202
24.07355690 -38.87651062 43.07785034
23.00231934 -35.28226471 46.09885406
23.00882149 9.90528107 23.08238983
16.07742882 -43.70604324 25.56299591
18.81410408 5.66418839 17.86467934
22.33392143 -29.84782219 42.35024261
1.17214584 -25.31803894 -7.06566811
2.09042168 -28.36545372 8.31567764
25.33120155 -34.74124146 15.91901779
40.87691116 -20.02176285 40.57162857
25.78283310 -31.42361832 21.50252724
4.71606445 -35.87865829 -1.49477959
27.22674942 3.64030457 29.41833305
17.71818542 -26.61228752 20.66494370
39.09619904 -0.40067863 37.37065125
13.03257751 -33.14170837 13.90138435
31.20107269 -41.65054321 14.78710651
24.84735298 -15.73135185 41.03881073
43.09259796 -31.78470039 46.81516266
2.60071564 -31.92637253 15.13359165
8.09633350 -14.29253769 1.23861313
-0.13712692 -27.89560318 13.42514420
23.19560242 -32.82970428 13.10416985
13.00617886 -36.32872009 3.34872818
12.74657726 -31.37312698 25.16824913
22.27443886 -33.81352234 36.50613785
4.09240723 -22.58785439 -8.39456940
31.89296341 8.51023102 18.15768433
32.04685211 11.01238060 30.78669739
30.42162704 8.07999420 36.75513077
2.11980438 -19.59599686 -10.34968948
34.24528503 -11.94410801 39.36758423
33.04010010 -24.92111206 44.03720093
23.61599922 -40.90259933 9.35307217
38.10007477 -15.75022602 32.51256180
20.38265228 -20.83169746 3.31598473
47.31796265 -36.41006851 51.97248077
31.96988678 -42.92470169 15.72752762
17.96640968 -29.95042419 17.09868622
-2.27803802 -20.74244881 -0.12756348
12.37066841 -8.30074501 10.07272530
11.48287678 -15.18801308 24.31293488
14.64710808 -32.30247879 19.94595146
2.40570259 -33.48095703 12.04921246
39.38574219 -32.79842377 28.27869606
23.73683357 -39.49333954 11.01637363
29.16872406 -31.14685440 34.20684052
25.91499519 6.38910484 29.95813751
43.42335129 7.18121910 42.90502167
27.51298523 -36.91028976 29.13428307
24.17052078 -36.62818909 24.25641060
17.77781487 -36.23882675 27.32551384
0.77979279 -37.77450943 10.15717411
31.37911606 -34.37657166 27.17314911
31.36789131 -35.34879684 16.14407921
-0.75300980 -31.00954437 -2.95072746
39.68159485 -22.85369682 29.98686981
3.57241058 -41.43073273 7.68103886
17.95576286 -40.16890717 15.62284851
20.78406143 -36.35643005 13.12448883
6.26343632 -12.72818756 2.69018745
9.63907146 -42.89379883 24.09121132
31.69203568 -12.26796532 18.23375511
18.29462242 -36.55645752 32.77520370
40.85498047 1.40567970 37.27780151
30.05624771 2.35835266 37.65289307
37.90629959 -35.64867401 28.12942123
7.69529629 -34.27179337 -2.58197212
15.35212898 -41.24823380 25.83481789
29.09164047 -28.96636581 19.34798622
20.78750992 -45.14216614 23.50656319
25.93461990 -36.33127594 7.64117622
6.21086502 -12.79988670 1.53850937
20.87813950 -23.92012787 5.20110512
32.61670685 7.71453667 20.65220261
23.81610298 -12.66164017 37.27429199
17.38428688 -35.42343903 2.14398003
13.65525055 -15.18792057 0.92060280
6.36070442 -38.44240189 7.69097328
18.64067078 -11.35687542 9.09011841
46.85414886 -38.58797455 51.16355515
8.70526218 -41.93912888 6.45677757
16.23838997 -21.06989861 26.79821777
12.65628624 -30.81975555 30.14993095
28.82787704 -10.00715828 22.01656342
12.25535393 -12.99121284 15.59570885
32.85408020 -12.96758366 41.04247284
6.18256950 -10.27337837 6.93295574
16.16137695 -33.59046936 15.93485832
38.56649780 -30.34057426 22.63392830
39.66287231 -24.12769699 30.59024048
27.73030090 2.34676552 33.62456512
40.81729889 7.63260460 35.61066437
33.94973755 9.93186188 26.35033035
20.93744278 -29.23573303 4.86315346
12.97141838 -31.85914803 -1.55581665
25.04841042 -6.93383598 15.41417980
20.09550285 -9.00658989 28.90336037
28.80629730 -20.12490082 13.35255909
9.63243389 -42.50580978 6.91594696
39.44388962 -30.39692688 33.44748306
12.94789886 -38.01273346 30.04991913
24.70473862 -29.45366287 42.11973572
16.01530075 -39.54254150 25.97366333
41.32596970 -23.37894440 33.75227356
4.32569313 -31.26658058 13.76877022
33.35768890 15.97731972 25.19851303
23.21451759 -0.51195908 14.19186115
29.79748726 -39.13079834 18.46857452
33.29637527 -28.18985748 42.87458801
18.13185310 -21.32530212 1.44693756
38.07488251 4.55580521 42.11500931
6.32580757 -14.54643059 11.25113106
27.84532356 -34.71072388 13.30132008
40.41399384 7.19930649 40.26148987
29.31382179 -7.89673281 34.39600372
3.66719246 -32.67959595 -2.00872993
1.13790703 -20.12788010 0.04508018
14.01477623 -24.43990707 25.92512131
39.13603210 -23.88816071 30.69354439
34.21059418 11.33967018 27.36322784
39.30550003 -29.65402222 40.88431168
6.34238148 -10.64643383 7.32197475
21.79615021 -18.95154953 37.88646317
27.31882095 -30.57455826 18.36409378
32.52370071 12.05506706 24.86082840
36.27311707 -12.34630585 30.23712349
35.09334564 9.62404060 37.26405334
20.29081535 -42.26461792 30.98870850
1.74694061 -36.11091614 -5.24333191
15.23524094 -35.55725861 31.82757759
35.11170959 10.64460564 32.96041489
-1.35732651 -30.32920837 0.69236755
15.21241283 -42.79887390 5.06341171
34.77796173 -3.92948055 32.50184631
20.69212914 -42.33839417 31.07933807
35.15108490 -22.87865257 47.31447983
30.94670868 -2.99254990 22.55450821
-3.41452217 -27.30972290 1.13039398
27.52412605 -4.29187393 17.93989372
35.71587753 11.37831116 28.40349197
41.74129486 -15.44985104 39.50490570
31.09655190 -34.24137497 34.55607605
27.53063965 -4.67365074 32.56121826
40.92843628 5.85258293 30.56214905
10.11164093 -18.56890488 21.82837868
36.39817047 8.05122566 26.64910889
43.42616272 9.37069893 43.39048004
25.95049286 -5.99096680 29.42827415
19.33453751 5.89764214 26.49054337
14.85894299 -43.07335281 4.25366974
33.82485962 -22.84579086 44.07189941
13.47541046 -35.08481979 -4.52435684
26.69684792 -7.41039038 29.20257950
8.10831165 -39.81936646 9.76576042
35.51397705 -28.06690598 41.14893341
-1.18014908 -28.13371468 -7.79658127
3.05844307 -24.40396309 8.30200768
20.49137306 -25.94202995 34.79003143
21.01224899 7.31190491 25.91123390
14.82391739 -24.42550659 0.16946220
14.82458878 -14.07762432 4.37813568
40.06458282 -10.67925644 37.28604889
20.63091660 -27.81725693 11.00452232
31.33200455 0.61358547 41.02559662
37.80625916 -24.69987869 23.42617989
31.16502190 -20.41111374 16.69046402
-0.68310356 -22.40513039 0.47624397
15.86839485 -13.60051632 3.48806763
37.43721390 -20.81509590 23.90288734
36.98232269 2.91381454 39.56560135
16.61378670 -10.32329750 26.74040794
36.00566864 -0.47309208 36.35460663
22.47315025 -34.69649506 11.69465065
41.34983826 -27.57987213 23.68197823
17.38960457 -39.93123627 31.26465225
-2.67622185 -25.70512390 -0.15345764
28.92916489 -30.91746140 44.31010818
14.00398254 -3.33404255 13.36743927
30.50984573 6.34611511 19.42287445
16.93777466 -6.50034714 7.91346264
-2.33841896 -36.65705109 7.72970867
0.71462250 -9.45700073 -1.23731041
-5.97985840 -27.23097801 -5.11054993
28.94305420 -10.22360134 35.04919052
37.14441299 8.34402275 29.70880890
28.98966217 11.34417534 28.33165741
47.72587585 -27.92296982 44.97554398
17.88958931 -37.44481659 7.12452698
28.63957214 -16.38886261 37.25308990
18.12229156 4.45376015 23.81619835
45.33875656 -27.23773003 43.48827362
42.27945709 -35.28781891 27.28807449
-0.00243950 -35.06655884 13.48303604
43.47338104 -19.47822762 33.91609573
32.45912933 -0.98839664 35.23712158
28.92292786 -14.25619888 22.17480659
40.08549500 6.02084732 42.00731277
30.25014305 8.48166084 34.46757507
11.15218830 -23.04025269 23.86816597
33.58644867 -5.26922226 23.06989288
2.08293533 -8.29468727 -3.50838089
14.31720448 -26.19293022 26.16706657
29.19331551 -28.68286324 41.07439423
26.60190201 -15.44898129 15.88356400
28.43488503 -35.76330566 44.69612122
8.65229893 -33.22896576 18.21582794
7.83275127 -39.11134720 6.13776779
39.38061905 -30.97238541 40.54016495
23.23435402 -34.51158905 22.08622360
36.99031830 2.45991707 24.96040535
18.44510460 -42.34728622 16.72627258
24.78207970 11.72256088 24.52982903
17.44321442 -19.93190765 27.29650688
12.35091114 -23.10559273 -2.09240913
11.28130627 -35.90426636 28.77581787
25.39331818 -35.62718201 43.24548721
35.76836395 -12.01606750 38.88683319
41.70632172 -33.26506424 26.21081543
-6.49926567 -22.25247002 -1.93578529
14.91275024 -13.21993637 23.28396606
25.49348640 -39.68902206 33.45520401
25.87552261 -4.88202095 19.75007439
23.55200577 -31.85331535 24.29306984
8.11768627 -23.48586273 19.90765572
14.55724812 -28.62025833 -1.70617485
19.82456970 -0.02410316 25.97223663
0.18468094 -43.00812912 6.62241650
19.49938774 -25.18310165 33.81606674
34.46692657 -37.06942749 27.56403351
-1.69463539 -28.23580933 -4.76280785
37.75931931 -0.64977551 30.12794495
29.39428711 -8.06602859 33.85165024
30.86101532 -20.73934746 44.35068130
44.53210449 -0.55823898 41.73759460
33.78955460 -22.19519043 21.79110718
21.50742340 -25.27387047 6.90270042
17.80109024 -30.40736389 1.35031700
14.72997856 -33.11456299 -2.86083221
0.32702827 -20.01878357 4.67261314
16.08477974 -23.95298386 2.63160133
7.45939064 -15.81266499 16.45847511
39.62184143 -20.83052635 23.65370369
26.02836990 -40.15618896 31.44255638
-4.29987335 -22.63514709 -7.10431862
3.67410088 -23.17839432 10.48859787
19.79223824 -6.24634838 17.26405144
41.61327362 -18.03073692 39.56393051
32.39551544 -8.83001137 34.66144180
6.92069912 -16.45629120 -2.96834946
15.32535362 -24.18627548 -2.36849403
14.30183983 -37.88757324 -0.42493820
0.65450478 -28.57420158 12.69640923
29.11992455 3.37610054 35.03942108
42.03572464 4.05454826 39.20220947
23.04435539 -36.53775406 42.34102249
-5.99504471 -21.07839584 -2.53717041
16.19499969 -33.92838287 22.50201035
12.95418930 -40.49102020 7.09450531
5.13320160 -27.39870834 -6.44592857
18.89378738 -34.55973816 3.91583443
13.56994724 -34.00055695 -2.59503365
18.29312706 -42.25406265 28.71959305
42.73296738 6.28196144 38.21418381
1.51459694 -27.79541397 -2.78153419
40.80541992 -23.23478889 39.32551956
32.55864716 -12.12446404 24.59635544
31.38640976 12.94658089 25.56876183
32.90474701 6.56951714 38.21768951
49.42280579 -33.20279694 46.82629395
40.60867310 -27.78770828 25.95690346
22.69103622 -40.17169952 36.80822372
36.48463821 -16.28301430 22.04331017
14.05908394 -37.76339722 30.17726517
37.69174194 1.94906998 39.78106308
31.48548508 -34.65297318 44.39193726
51.48674393 -34.68400574 47.53813934
41.26781464 7.57093620 32.17678452
42.44953537 -30.90059280 34.60855484
34.39145279 -32.06180191 15.25432777
24.51768494 5.30579185 28.77917671
-3.41873932 -26.31407738 -3.91790581
43.86430359 8.86886406 37.45206451
16.90273285 -21.98056984 37.22417068
46.38810730 -40.84477615 53.43487549
42.35157776 -20.59415054 41.40572357
39.60205841 10.03544998 41.15344238
14.62382317 -4.23301792 12.10058594
2.92885208 -17.07143784 2.90989685
24.42469597 9.70457840 26.90548515
22.33538246 -28.92129517 41.25922012
8.50417328 -24.74023247 -0.10631180
9.41778088 -38.89151764 22.70479393
24.17200470 -37.55772781 34.93964767
17.28191948 -29.96109200 32.94324112
26.70929909 -35.71109009 34.29487610
31.28985596 -30.91262817 16.64851379
-0.39975166 -22.25075722 1.61339188
15.57295609 -21.17828560 27.96569061
36.65984344 -18.60677528 23.83245850
43.49779510 10.60276985 37.80455017
25.25997734 -26.49702835 14.09129524
20.70104408 -2.31180573 27.77383614
9.71141815 -39.38150406 4.39022827
8.67947960 -37.69750214 14.63350677
26.68032455 -6.75903988 17.89882469
-4.63117409 -19.56258583 -1.70193100
26.76226044 -41.20054626 16.30773163
24.28851509 11.13215065 21.80284309
24.58041573 -19.06437492 38.83260345
-0.09599876 -21.59593010 10.21670818
29.24118996 3.86499023 17.21862411
25.69982529 -37.20730591 19.10570335
35.19551468 -28.21867371 41.53347015
3.91947365 -16.79324722 -0.79356956
12.39966583 -10.79436684 22.03728485
14.04326820 -35.76715469 14.37060261
16.39578247 1.68310928 18.21060753
42.70251465 -23.74765778 44.84228516
12.84011555 -42.92099762 26.32833862
11.47835064 -20.55123329 23.84564781
41.23774719 -26.65896034 37.47377396
47.33450317 -35.04280090 44.51789856
12.35443401 -7.14846134 9.50693607
33.90068817 -26.82533455 19.22993469
28.31977081 -20.68534470 17.18914795
17.25161552 -36.32541275 35.12477493
42.69250488 -23.93233490 36.72604752
19.75972748 -30.37832260 0.83782387
29.16795349 -29.42856407 18.06667709
8.76930714 -32.63384247 20.77101707
36.18035889 -14.23384666 26.45102310
36.09663010 -37.20952606 29.09596825
50.09060669 -40.99201202 52.40023041
24.37962914 -40.94192123 12.26299572
39.76649094 -33.43888474 35.75355911
17.37127876 -32.69065857 18.44986534
17.57074547 -35.74353790 19.85727692
28.62764168 -9.10527992 19.84167099
40.50263977 -20.36997223 30.98534203
49.90917206 -33.28589630 51.29419708
14.82179356 -35.08963013 26.52487373
19.12882423 -41.75482559 19.47758484
-0.31339836 -29.52073669 11.36006451
10.01501560 -14.05051804 23.76737595
23.79236794 -35.02242661 11.08773804
3.69847488 -38.04672241 5.40325356
39.36985779 -25.25477028 37.17958450
34.20752716 -35.47903442 28.30885887
21.46875000 -18.70626831 2.47742081
16.51092339 -27.18710709 34.65432358
-3.88087082 -18.80165291 -1.52972984
32.34005737 -15.24562168 16.09667015
35.42226028 -14.53237915 25.93260193
17.84628296 -4.05769825 16.76970863
43.27527237 -19.41840935 34.02393341
27.71796989 -6.63340282 34.56991196
7.26272011 -25.86933517 -2.03414154
23.58906746 -23.62016678 6.14281464
34.55107117 -23.16766167 44.02071381
15.05076885 -37.86102295 0.10858536
-0.33160019 -32.27524948 2.67390442
-2.21781731 -28.96413803 -4.45904541
11.54174995 -24.52388382 22.65751648
17.40291405 -26.97110558 17.58864021
25.99784470 -6.77826786 33.67053223
12.44252586 -15.21907234 23.72886658
17.56923866 -33.14285660 0.71006012
-0.93432617 -20.21839523 -7.80628586
37.74279022 -24.00455856 23.61048126
14.88119125 -29.91276550 17.05253220
30.33145142 -37.38956833 41.44813156
42.88735199 -29.80095291 48.60639191
22.98746490 -9.16232586 28.10528946
36.31877899 -3.98834229 25.12352943
14.21960258 -14.15532303 3.89060783
38.75366211 -0.20430946 28.97682953
20.90524864 -24.02020264 34.50848389
34.30978394 -30.73468399 16.52725220
2.45784569 -38.31132126 11.83634281
42.21407318 -23.99598122 40.09481049
10.87672901 -31.49903297 24.41707420
13.10137081 -10.03448296 10.20923042
26.87764931 -20.78748131 38.44840240
20.42199707 3.51272011 24.77938271
21.67784882 7.35320282 23.90639496
10.17166138 -42.13866043 6.09207344
19.44134521 -10.62451363 10.08698368
24.69297409 -3.32461452 17.66368484
21.67691231 5.73345566 15.63572788
43.58034134 1.84744644 40.30908966
27.03846741 -35.18376160 47.22859955
3.70785332 -22.99522018 -9.57713509
34.71270370 11.93540764 28.70396423
4.58218575 -35.33099747 -0.58560181
35.26339722 -10.45322227 29.63923264
24.80646706 -38.24773026 8.24098778
15.17990208 -29.41312599 24.14521217
21.98604393 -26.42430115 15.35064697
14.33354187 -28.15082932 0.27690506
27.50017548 9.77239418 27.61026001
23.68255806 5.01861954 29.26922607
13.21589279 -39.75921249 18.33953857
7.17224693 -23.69856644 20.03574371
30.09649658 -16.07472038 39.11843109
22.50720978 -33.53652954 5.02795219
39.99290466 6.34029770 36.21053314
12.38843727 -41.22323608 0.53043556
-2.52816963 -21.35800552 -10.93674660
42.90474701 -22.34582901 37.82781982
30.33378792 -2.61258221 37.05872345
3.35569382 -20.15327454 1.17092323
38.65142441 -1.99918079 27.11940765
40.28833008 8.25978470 28.96760559
28.08053589 -8.08109093 31.65547562
13.26296139 -30.86837769 14.38381386
24.08049393 7.72618294 15.53290367
3.82340813 -29.51880074 -2.43331909
38.64263153 -5.72269535 30.34558105
22.00628853 -38.26821136 4.61824417
11.12790489 -10.44819641 5.53369331
21.58170891 -38.83958817 31.32379150
40.10244751 -23.91281319 31.23361206
34.27966309 -6.15838814 25.13171196
3.25470543 -17.88023949 6.64763165
17.24068069 0.73901844 21.93452644
27.98081779 8.30446434 18.65966225
6.85924149 -23.53142357 17.68685913
19.44402122 -27.60120964 15.00621223
11.12011051 -41.02422333 7.86583138
12.57907009 -42.90009308 13.20676517
21.65476799 -34.72974014 16.35494232
22.06728745 -23.67651176 38.93895721
32.22524643 2.99472237 20.53155518
4.15299034 -42.51222992 5.76946545
1.68408012 -23.45397949 7.48798561
42.89371490 1.99475098 34.71549225
21.08049393 8.13273430 17.62861633
21.10177422 -2.37353325 27.45998764
30.61872482 -15.51996040 40.23983765
27.29010773 -20.22149277 12.98610687
37.53033447 -18.46039200 26.05123520
7.19117928 -10.70926476 13.22865868
16.32851028 -5.21497154 11.85165310
24.51807976 -5.84063625 17.67625999
24.04938698 -38.46419907 39.23724365
22.40517426 -25.82120514 16.83530617
39.89639664 -2.10210991 31.75844193
5.45875931 -35.95263290 20.07550049
16.14375687 -7.32590532 20.33156586
12.30462551 -28.92987823 19.87934113
43.87036133 8.92568970 33.91498184
29.53350067 -1.66548538 21.51037025
27.55380249 -36.62095642 43.29953766
0.78348923 -15.69471836 8.95186710
9.45516491 -36.32370377 24.37732124
29.68893814 -6.27930832 21.68462944
41.84624481 -32.76293945 41.81753922
17.41293144 -41.58362579 29.42036819
41.30686188 -29.07471848 30.42353249
10.28870487 -11.14466286 4.39547539
12.77870750 -41.97169876 21.65522194
35.84934235 -5.02249718 37.67929459
40.29725647 -15.65806007 42.57196045
42.58300400 -30.08353043 39.41470718
-1.42724609 -38.20069504 2.31578255
1.64601517 -30.19072914 -0.98869324
-1.22907448 -26.18947029 -3.31391144
3.47820282 -9.00462914 -2.00374985
42.27059937 -30.53454971 31.95198441
17.17320251 -39.19583893 21.60520172
38.58594131 -18.91946411 34.47755814
27.57145309 -33.46913147 35.82288742
20.71092796 -35.15183258 4.41061020
12.89531136 -6.43811131 11.85242462
6.20549202 -12.48247528 6.38844967
3.32960320 -23.35278702 -1.11094284
23.62472916 -5.29933357 29.66802025
-0.41348648 -17.45503235 -7.97215652
29.81840897 -26.03477669 43.23976898
35.37838745 -15.08095837 42.77960968
14.08913136 -7.17453480 13.79549599
19.22309685 -10.74746323 13.33316040
16.94589806 -38.19066620 20.28699684
24.33187675 7.94788551 15.64600468
36.37772369 -30.20935440 19.92284012
34.77637482 -10.44616890 36.16704178
6.57629776 -39.64196396 18.04984283
13.42240810 -40.89437103 4.96388817
17.35092545 -27.81851196 33.14516830
-2.46028519 -30.67228317 5.16502762
16.70908356 -3.62627220 23.59469414
38.42218018 -16.22167587 40.30780029
38.71133423 -18.69092178 40.30907059
1.13385582 -22.35039902 7.09764957
29.46789169 9.19507980 35.79995346
-2.86236763 -22.16584015 -9.92269897
1.69232941 -37.13018799 0.41266441
40.71521759 8.85675621 35.63348389
36.22077942 -1.46344566 38.52760315
9.07750130 -17.01263237 1.53951454
6.93374920 -20.49986458 16.57882881
37.69446564 -29.42307281 19.59688187
6.14302921 -16.16256142 -3.54390144
4.16680145 -15.33695793 -2.11265373
0.61516571 -20.14420319 10.13110733
34.04613495 -0.88184643 38.80802917
26.60650635 -10.96583557 37.41575241
12.26053715 -30.38060760 18.60543633
25.02510643 3.58459282 30.51037216
14.79425430 -22.97943687 -1.09235954
26.10952377 -37.72869873 24.92695999
41.01518250 -30.42348862 29.10816956
28.30455017 -28.48423195 16.66345596
7.86892509 -20.88331413 -0.78350449
39.65740967 8.34389496 39.99507904
38.76647186 -31.24855042 21.61304665
11.74579334 -28.01263618 14.05522060
24.68113136 -20.09822464 39.99083710
19.80296898 -0.74966145 22.19860458
41.50222778 -26.46128845 46.70351410
37.78794861 2.76866722 42.42480469
23.36248207 -25.69956207 18.55188942
17.07852936 -24.78868866 32.82444000
45.68503571 -30.02856064 39.63934326
31.50922394 2.41807365 21.91630936
20.70575142 -31.49140358 4.14279938
9.85137272 -29.74250412 -1.73818016
32.88208771 -35.47360992 30.09790611
23.31436920 8.05547905 17.97142220
38.13223267 8.14533806 42.37580109
31.12443733 14.53403664 27.52782822
39.95286560 -26.61787987 24.62842941
37.26473236 -13.31389618 24.96743584
38.23225403 -14.87819862 38.43571472
-4.16161346 -23.03100586 0.56591415
-2.64833832 -31.23864555 -2.29293060
38.55418396 0.29448032 36.26543427
16.72819328 -10.34606457 24.32383728
28.87977409 -40.65533447 15.46079159
18.76937294 0.77260208 25.53514862
29.19466400 -8.54866409 36.05226135
28.08614731 -20.93252182 43.06033325
9.33376312 -43.14331055 20.86771584
40.31330109 -1.11731529 39.50994873
40.30929565 -28.99679184 24.55024338
34.05448914 -27.21942520 16.97444534
25.47857094 -23.45612335 9.40960598
33.96646881 -17.12564659 21.13133240
8.48574448 -41.57226562 9.74774456
15.68794918 -36.92613602 -0.17503548
0.03620148 -25.57030869 2.85700226
36.04647064 -29.00961685 38.90939331
26.06636810 -40.36756897 19.72620201
15.71233940 -39.35267258 11.93487453
26.12836838 -17.23356056 8.80838585
20.94571686 6.19761848 21.40836716
38.50819397 -17.98518562 42.97011948
11.93767834 -32.89479446 18.97367859
23.21294022 -26.12924957 10.35638142
31.38212585 0.78271866 35.82391357
14.55581474 -27.43260384 22.59083939
7.61641693 -40.44297791 -0.59876633
6.42776680 -25.83940125 21.23673058
24.69190788 -27.07628059 9.70211220
18.27678680 -40.89955139 31.68218040
6.12371540 -15.12184048 14.49967194
29.14132118 -11.96156120 13.90087509
10.23442459 -12.96334743 0.22373390
36.75878525 -19.49898529 28.86514664
2.21558952 -23.79510117 3.96408272
31.39349747 -11.65555477 38.05567932
20.30136871 -26.98115921 14.02280998
9.68053913 -34.73971558 -4.91475677
17.28177071 3.56385040 23.74935341
43.63887787 -34.89849091 47.61466980
10.29680347 -9.17101192 20.20627213
27.72591019 -33.71839523 30.28572845
46.01308823 -37.55932617 48.39853668
1.02379417 -17.51164436 -1.12722015
44.63442993 -35.00616455 46.13787842
16.64028168 -42.21123886 17.65385437
-4.95223236 -20.12871552 1.35294914
3.26013565 -39.99932861 10.80319786
16.93156052 -31.98483086 0.47615623
-0.73876572 -21.80932236 -9.76526070
12.23088932 -13.69585609 -0.75251961
0.42735863 -21.55044174 -0.42829132
24.12337875 -40.21185303 31.81697655
20.03340149 -41.73162460 31.21523476
28.53231812 -26.67749786 43.61032104
39.16062927 7.54545593 25.74242020
29.19224739 -28.98169708 16.97289467
23.68634796 -30.46721268 11.06137180
31.53598404 -2.29646301 36.57421494
25.57235718 -30.43657303 48.13566971
25.05430412 -14.09612083 14.78147602
34.34216309 14.27770233 27.68098259
29.38334846 8.20319939 32.38314056
23.45862007 10.77912903 30.22565651
42.90349960 7.65258026 35.26826477
40.80002594 2.59686470 31.37949371
37.24631500 12.79928970 40.72278976
37.13399506 -16.44506454 44.93497086
21.34129906 -39.62390900 4.33627510
38.63549423 3.60304070 44.17266464
-1.09810066 -20.43756485 -9.07039452
33.66285706 -12.04072380 38.50560760
19.32843781 -41.20788574 19.49509430
35.70707321 -5.78552246 30.58240891
22.98638535 -12.51199913 8.27835274
17.87266731 -34.78237915 0.27245903
45.23020172 -37.59902191 48.03465271
22.95779991 -23.48243904 38.10067749
31.47826385 -36.86124420 28.65933609
-0.27309990 -27.38032532 3.55059624
31.05501747 -18.84851837 40.50567627
26.68475151 -39.14654541 19.39702988
42.90362549 10.77274132 40.34024048
38.90430450 -4.23836803 27.05280685
29.23263931 -13.31454563 15.51951504
0.49933052 -30.14326859 11.91044331
22.29163933 -36.07108688 17.02568245
18.18336296 -28.36202621 13.37975979
34.74333954 -11.23565292 40.29777527
15.12814713 -27.69278336 0.55933762
37.91320038 -30.18282700 34.40076447
40.80541992 7.77497292 34.08082962
-2.62668419 -36.59701538 6.09720135
39.07378769 -26.80770111 25.03689766
32.89300156 0.44251823 35.33595657
27.29420853 -4.45615387 34.93803406
38.95316315 -15.89691448 25.58959961
31.99713898 -11.76776600 24.79234886
8.84717846 -34.48158264 -0.73110962
7.57323360 -35.42866898 6.56797981
17.20835495 -32.82132721 37.76579285
11.77986526 -13.66546345 4.17335129
15.97696304 -1.80288601 12.25939369
25.04138184 -38.38073730 24.79378128
2.24809456 -28.60551071 7.34337807
15.63992023 -29.61387634 1.31778717
21.31889343 -12.04096317 33.47606659
21.10753059 -32.97953796 11.10881519
2.62701225 -24.79415894 -11.34746361
22.12897682 -29.24835587 22.86287308
25.46848869 -15.88331604 37.36869812
47.20140457 -32.35198975 45.89588165
0.12901115 -26.91452789 -11.31113243
34.79990005 8.12051582 20.45580864
30.67810822 -6.88878155 17.81664085
19.92797852 -19.63589287 4.82707596
27.85067749 11.31548500 33.12763977
24.30469894 -14.48326778 8.81504154
28.74982452 -36.16859436 40.51177216
35.32168198 -28.82428741 43.43363953
33.86705017 9.84086609 24.34410858
18.62902832 -28.55524063 30.89602661
41.30073547 7.69220543 37.23460388
28.15749168 1.67720413 17.16818237
4.37290001 -20.73190689 3.94830704
17.50081253 -31.68614197 21.33708572
30.18673706 4.69137955 16.33768463
37.17378998 -38.17480469 24.96089363
41.04509735 -29.47361374 44.02819824
23.30022621 -33.04864502 12.80792618
32.34893036 -9.49032497 22.39060211
24.40749931 -27.73596382 40.47834015
-1.21344757 -16.40452957 0.88866043
29.77290344 -35.69984436 15.38636208
10.88242245 -42.92154694 19.30475235
32.34213638 -25.78363419 42.87162018
9.04828453 -8.27756882 11.05796242
29.77732468 -4.54177570 32.89369202
31.34157562 -12.81541538 20.17383957
12.38946915 -26.59594345 0.99843979
30.69285011 -8.83499336 20.05641747
31.65634918 -30.66225433 36.55742264
37.10572815 -32.38006973 21.13672447
-1.35482788 -18.40341187 -2.01052284
26.15512466 8.31110191 19.36429787
39.16674423 -15.07649708 42.92843628
19.97398949 7.79969788 24.31251526
43.48162079 -30.03472137 28.38956070
3.59243393 -33.72723770 14.56692410
42.29597092 6.02230835 33.28115845
12.22147846 -33.36074829 25.53522110
11.73371220 -35.86679077 -4.31114578
20.92668915 -12.60127068 5.91447353
30.89317894 -36.07158279 20.53907967
16.67895317 3.96483040 17.70695305
17.77799797 -28.64440918 17.69209480
29.69912338 8.46719551 22.15463257
12.84215355 -26.68246460 21.08139420
13.17096233 -37.37337494 -2.99204636
24.87355995 14.91864395 26.11082077
17.15860939 -8.78317928 10.87822628
23.94982910 9.74895096 29.13756371
33.03358459 -5.65558720 33.04586029
36.97408295 -24.38941574 43.91960526
17.18311501 -10.87368679 8.84923458
37.86859131 7.33358002 26.87899399
23.77338600 -40.05287933 27.14233017
19.61202049 -34.28548431 16.71575546
37.83238983 1.42915916 40.48970413
9.93508625 -41.63549423 15.72029591
25.10338020 -30.14792633 41.04968262
42.16402435 -0.20329475 44.09041214
13.69024658 -22.93826294 -3.68605042
27.65307617 -0.65898514 38.81324768
34.30599213 -5.18896961 23.96812439
7.73119354 -12.90241051 8.46280861
34.31938553 5.45678902 40.53759003
19.19890594 -17.54083824 4.48914909
18.84692764 -31.64564133 18.72990799
21.98561668 -1.53625202 26.22156143
20.45053291 -8.06262016 22.48461342
26.21264648 -13.39429665 13.08621693
2.69866753 -28.37658691 -6.21605301
40.18459320 -19.17351341 22.38128281
-5.09313965 -18.76029396 -5.17893600
35.54051590 -8.59474373 25.40364265
27.10605621 -22.61265564 9.00423908
7.48546791 -33.68135834 5.34716415
-5.54922104 -36.68994141 5.65800190
18.87153053 -30.49272919 34.63358307
41.64603043 -15.01939106 40.81016159
29.44137192 -38.00231171 42.98218536
10.86862373 -11.05869198 14.92906284
26.70999908 -30.83572006 41.28423309
26.57757950 -18.05614662 38.76156616
20.39051819 -33.40229797 5.77988720
15.37039757 -9.58063412 21.97641945
14.89445496 -28.93988419 17.39382172
43.23352432 -28.35381699 23.21687698
19.61311150 -34.95428085 14.32875633
11.36077595 -35.06262970 -3.84238434
10.82451630 -39.09017181 -3.22962189
23.00006866 -26.49510193 10.69929409
33.60903931 -31.27249527 31.80057144
16.41932297 -20.46111298 -0.58825493
19.89688110 -27.76615906 13.40643120
9.32161522 -33.19154358 12.86563778
27.99301147 -2.44897652 32.45097351
2.08966064 -25.60339737 -11.23512459
-1.77514839 -28.08659554 2.14021301
12.10389233 -38.77281570 14.68564701
41.14157867 -29.33027267 32.93550491
21.58397293 -40.69297791 31.84687424
38.56786346 -19.16947556 22.24559593
20.43703079 -29.46118355 19.55107117
36.05385208 9.88053131 27.30241013
30.21110153 6.38156891 32.62652588
8.89332962 -42.99999237 21.00637817
29.09045410 -5.96251488 33.96243668
35.80570984 -29.06095505 20.74107742
32.10744858 -12.71661186 40.45120239
29.25129700 -6.69023514 16.46821594
26.91880989 -23.04397202 7.03388023
6.85391331 -24.55260849 -11.47904778
12.52838326 -16.51230812 23.27787399
4.22470665 -33.88415527 -1.23708725
41.09456635 -15.70551300 34.49171829
25.04076576 7.78660774 15.33156109
37.92283630 -24.61294937 21.52737236
14.64114857 -34.95641708 16.59159470
23.58576775 -35.59008789 20.27565384
-2.70752144 -25.08015823 -12.31500053
40.69366074 -26.25263977 28.93106461
30.17827988 -37.14387894 44.93765640
40.90519714 -27.53520966 43.77857208
21.65380096 -12.04040337 8.66501141
38.87345505 -26.00421524 22.57299232
21.71772575 9.22842598 21.42935181
31.38254929 -20.95612335 15.59310341
14.69383049 -40.43488312 11.83987045
38.23365784 -17.79731750 28.31604576
39.74743652 -20.79524612 28.96033096
49.59786224 -34.73665237 51.87005615
29.68062592 -2.73217201 20.22861481
42.85232544 -38.43570709 48.29587555
45.93491364 -35.40233994 50.82508850
35.51674652 6.29727173 26.34977722
23.15531921 -11.87940693 32.46136856
26.30049896 -34.71603394 25.16584206
-3.43999672 -24.54217148 0.66984940
-1.05711555 -20.20385361 5.09833717
21.13010788 -36.38373947 7.64636230
40.04895020 5.85465431 26.61651611
9.33214283 -10.82240868 4.90919113
31.79909325 -39.21502686 20.97111511
-4.97400093 -20.92584610 -10.34910774
33.45708084 -32.32297897 35.35514832
16.43999481 -42.83869934 21.11704445
27.02992630 -23.32325745 13.15235996
6.56094170 -20.27561951 11.22035789
4.09095383 -22.74087715 -1.42239571
40.13589096 -29.48884392 25.02524757
34.63936615 7.59045601 19.06156921
15.74570274 -22.34259796 0.49605560
19.62487411 -9.29580402 8.59224129
0.05624580 -35.53566360 -2.28084564
2.64078140 -17.69923210 -7.77790260
24.62322235 8.93351173 27.30764771
27.28854179 -15.06889439 38.10173035
40.18167496 -1.56346893 37.91578674
11.98706722 -31.79528236 -4.13353920
32.22280121 -13.62936783 18.50790787
21.84161949 -36.13145447 6.13572025
25.72521400 -20.88415527 12.86629200
22.45021629 -10.68700027 7.06440735
31.85601234 -37.63043213 14.15188599
21.58771324 -35.19675827 14.34027672
6.80895329 -34.44939041 21.57615662
33.96157074 6.17518234 21.73856926
27.17829132 -31.21812057 46.53340149
42.03559875 -34.83626938 46.43733978
17.94001389 -13.06272030 32.98358917
8.04065132 -40.98113251 21.08652496
19.53036118 -19.33885574 40.68159485
3.04726791 -17.32215691 -10.94890404
14.10909271 -21.28575516 0.12753487
2.49221420 -39.15561295 13.47346020
12.00017357 -28.47464943 21.71509361
15.37427902 -22.50423813 30.23553276
7.64386845 -29.08725548 -9.89564896
36.34999847 -12.88226795 32.42250824
19.59724045 -29.05176544 4.91507721
30.97352028 -24.50667000 18.77875710
40.00104904 -32.67556000 27.88771439
29.48684502 -38.01908493 25.72050476
22.19104004 -29.91704559 14.06733131
27.79575157 1.13740540 32.24017715
21.40994263 -32.09353638 8.87794018
2.30071449 -31.55124664 14.03108978
24.97383881 -33.61211395 24.61555290
24.06773949 8.37586021 26.43163490
35.94406891 -29.23283958 19.37994957
42.52040100 5.35801888 34.55892181
36.02053833 7.55781555 36.69950867
-0.01101112 -33.09188843 -5.84134674
2.73245049 -25.41441536 12.36672401
5.62392998 -27.70637894 -9.47547150
24.34295654 -39.60511017 14.98535252
40.09122467 -32.05286407 29.43131638
6.43872356 -19.86655426 -3.77007866
26.51255035 -26.59951782 39.71558762
40.84664917 -3.14654255 37.56352234
47.89876556 -33.16701508 47.09271240
20.03969765 -34.95039368 33.78589630
15.03007698 -31.96481705 14.62079430
-2.07161331 -31.08058167 1.06503677
9.67462254 -33.27254868 -3.86192322
24.15901184 -33.62876129 24.15631676
2.33508873 -27.35903549 10.94282341
10.51945686 -40.60530090 22.52229118
30.36964417 -7.85645247 34.88329315
1.28815651 -10.04614544 -4.19215965
34.90363312 -22.26549530 43.63359451
38.55820465 -24.20834351 24.71172333
32.16480255 -37.63864899 16.48739624
21.38909149 7.72773361 12.10263252
41.16784668 -19.32514763 42.44194031
6.15398788 -26.29703140 20.90691376
16.07120895 -12.77858639 32.97785950
2.58482742 -28.85537148 17.86449432
10.63598442 -35.14838409 21.53420067
29.79976273 -37.26702118 26.91005325
41.99749756 6.18414307 27.21986580
22.87397575 -36.21094513 5.45654964
11.17049885 -31.04261017 -7.23819160
-4.80264473 -27.27695847 -3.66291428
28.96491051 -11.24563789 18.79517937
25.49020767 -37.87821960 41.68064880
8.37320042 -18.37084579 0.37288094
-2.36214256 -33.75681305 -0.90346909
9.76227570 -11.35296249 6.81278229
22.50211334 -7.63403654 27.31612968
3.70578957 -17.91268539 11.01141167
12.73050213 -33.79661560 16.41095924
39.58216858 4.30865479 41.48936462
21.12184715 -8.14300823 30.07352066
16.44562531 -7.39921141 4.78881264
7.54949760 -22.47955704 -1.47812462
10.15678215 -11.03314972 8.01290417
20.73086357 -14.50034237 6.17163754
27.01956558 -25.43990326 41.84564209
44.78530884 2.11042023 41.12092209
8.17020988 -19.27754974 -1.90006065
21.95016289 -7.91463852 17.20501518
41.95376968 -26.23780632 27.27115631
36.48641586 -10.50602245 27.85033226
-9.11223221 -25.27450943 -1.93564034
16.29987335 -6.23383904 16.12702179
14.04441643 -43.51395798 26.46925735
21.10729027 -23.77010536 34.33850861
24.79012871 -32.79261017 36.94629288
-2.30657959 -35.57394409 -1.73699570
38.00846863 1.97200584 40.36475372
23.67461205 1.90299797 18.13257408
34.00300980 -29.20875359 37.95657349
42.63238144 -16.12575912 38.89341736
39.04327393 -3.58870602 37.87913513
21.46626663 -40.68098831 33.15956497
5.93618107 -14.50019360 1.89622307
10.93365288 -13.69701576 21.12747574
3.23147964 -18.91921806 7.63976288
25.73302460 -10.03003407 9.65298653
19.87214851 -4.40532875 23.04460907
27.90594292 3.32749557 33.32897186
43.22112274 -29.38148499 34.32794571
41.96839142 -32.37579727 33.40730286
21.65126991 -43.25540161 16.94713020
36.88890457 -15.53494644 39.20508194
37.81127167 -9.99013233 35.45902634
36.75781250 -22.23468208 22.94813538
15.18461704 -31.92179489 21.02594376
7.91239262 -18.90710449 -1.14820671
17.80265236 -14.82964897 33.52809143
9.02304173 -40.92485809 24.08928871
44.75637817 -32.90456772 39.78627777
26.39148712 -14.78618526 40.79106903
-2.33730507 -20.04980087 0.08644867
35.00400543 0.59897995 24.86358643
8.85522175 -41.41635132 20.66784477
21.22743988 -1.26473236 15.73603725
19.27595711 -36.55075836 35.23055649
-0.62182617 -29.99231339 -3.81462479
15.72194386 -36.64493942 18.55311584
28.71866608 -3.78303719 17.48556519
27.98947716 -37.99489594 25.69551468
2.84848404 -18.79793358 15.65008163
21.41338539 -36.49869537 5.23822975
27.59733582 11.58525276 28.50640678
0.14912224 -22.92913628 -9.59154320
3.08165550 -17.91032219 8.37941170
48.53669739 -30.70160294 50.65404510
-0.08818436 -11.91491890 -0.89308929
5.13407707 -22.83213043 -10.47803116
25.11937332 -34.27291870 44.59873962
31.16113853 11.21416473 36.48175812
44.84378815 -32.93487549 44.62126923
21.10521507 -36.40286255 7.34717846
6.77180099 -40.03168488 5.64329243
18.54818535 -43.16286850 28.67008209
33.58176804 9.04768181 28.64046097
6.60327721 -28.49217606 15.87060928
39.28631592 -25.60777664 25.80185509
28.26285553 -1.93206787 32.86681366
43.36185455 -30.09641266 37.61751175
31.81103516 -5.93655872 24.58862495
38.48298645 8.79575920 35.12470245
20.99438286 -41.37689972 31.96497345
37.14331818 -36.79701233 30.00248146
18.59671783 -33.83705902 17.59415436
36.50508881 -20.59033775 40.63003159
19.54227448 -20.97840500 2.76220512
34.21664047 -22.98486137 18.27096939
34.47554779 -35.38845825 34.04742050
15.17084122 -30.22755814 33.08065033
6.90589809 -15.86520767 19.93168068
38.95421219 -34.46428680 22.75891876
37.52464294 -8.32260513 27.68141747
4.40915680 -37.71897125 4.29711914
37.15858841 10.44984627 30.64305115
18.08262062 0.11861134 20.15068436
9.94598961 -40.59176636 10.92467403
4.63033295 -26.03033829 -2.66045570
31.31177139 -25.86099625 15.61482048
9.34773254 -27.38965034 -3.63789558
-5.39786339 -22.98386765 -4.75056648
10.01708508 -43.76592255 22.66270065
34.19488144 -36.86682129 23.47004128
27.90840340 -2.10198975 16.18160248
8.83341217 -19.87958145 -3.96201706
26.34126282 -39.87897491 35.66173553
37.41799927 8.46930122 30.21412277
36.64933777 -2.26154804 31.19859314
47.54751968 -36.22106171 49.15548706
19.38309479 -24.25074387 2.71867752
17.56962967 -29.93907166 18.01613617
25.54317474 -1.47843552 16.15576744
30.26252747 0.41397762 37.31043243
39.98348999 -37.44469452 26.13115692
17.27621651 -16.16203308 30.90155602
32.93354797 -37.00966644 29.25659180
35.84856033 -1.44557858 37.24260712
26.76424599 -29.01354027 42.67210388
42.84041595 -25.23040390 40.94123077
22.25922585 -6.63583183 28.50820541
1.34585571 -34.62407684 0.48793793
11.00460911 -7.99937439 11.24365997
22.75033379 -40.48875427 22.55770683
48.20090866 -36.03033829 51.41327667
14.38799286 -8.47111893 20.30009460
-7.09256172 -22.43221283 -2.15189934
26.16156387 -36.07455063 33.23471069
45.31331635 -40.18784714 47.83316803
25.37123871 -37.60512543 30.50224686
24.86847878 -10.53052425 33.24892044
3.66594887 -40.46115112 9.08560371
11.70800591 -16.73866653 -3.87029839
-0.35302925 -23.91330147 5.84415054
1.05800819 -37.06484985 19.51305199
14.98788452 -19.79937935 30.55311394
21.84018707 -41.21757507 19.07370377
9.45039940 -33.43522644 22.44453430
33.38880157 -40.00643158 19.85283089
1.77019119 -16.47178459 7.00315762
1.81925011 -21.98772812 12.89468193
8.52663517 -16.72234535 3.95358276
36.11424255 -10.33034325 25.87251663
33.84948349 11.16731834 30.70122528
19.06713867 2.50586510 26.86825562
3.52847290 -20.68032265 17.42744064
18.88843155 -26.99324417 17.11158180
