-10.79966640 -0.16019523 5.01301765
-10.74487209 -0.78782082 6.05589008
-11.03643131 -0.07927582 5.11842823
-11.64652252 0.80151331 5.16398621
-10.70469093 0.24147244 5.18805790
-10.24208736 -0.50045621 5.63980818
-11.45261288 -0.11650094 6.15916872
-11.50585556 0.53851080 6.71314716
-10.23399353 0.40610698 6.32499504
-9.94616127 0.76791781 5.11537790
-11.26211643 0.51645643 6.57704735
-11.27939415 -0.54706860 5.72072983
-10.33030128 -0.45845315 5.73247480
-11.16277790 -0.08018164 5.46353674
-10.55083656 0.59641159 5.66837645
-11.76038170 0.83682179 4.87629318
-10.14579201 0.31016704 5.80218697
-10.61713123 0.69341707 5.85591555
-10.90196133 0.66381621 5.73339176
-10.51784134 -0.59951109 6.45522308
-11.40233040 0.29514778 6.45712233
-10.44692135 -0.61689115 6.18662834
-9.97243881 0.69632894 5.14810324
-10.10305691 -0.67535424 6.77925968
-9.99255085 0.84175026 6.87595224
-9.99375439 0.90237474 5.21838713
-11.45510960 0.38998902 5.37473726
-11.11692238 0.24591476 6.57087803
-10.20049191 -0.66713041 6.65364170
-10.38032818 0.12902811 5.32280064
-11.00293159 -0.59649450 6.30795336
-11.78277206 -0.94885927 6.96165800
-11.03763866 -0.58663917 6.26124859
-10.23161411 -0.52727246 5.26632595
-10.36178207 0.64522773 6.49694681
-10.50734138 0.16725387 5.38304138
-10.01401806 -0.72195524 6.57660007
-9.69336987 0.15895985 5.94527483
-10.90456963 -0.46698165 6.33691359
-11.65531826 -0.78400314 6.76271868
-10.30086613 0.53692406 6.07844687
-11.40552139 -0.66418785 6.81090546
-9.92235184 0.68133938 6.75010252
-9.90353203 -0.11541069 5.97021484
-10.70473003 -0.46868393 5.45686865
-11.42228889 -0.44056672 5.72372484
-11.30997658 -0.10468836 6.41446209
-11.11633205 -0.18834931 6.45475864
-11.46186829 -0.82619351 6.77077961
-9.81853199 -0.20493318 6.03402328
-10.76210022 -0.63891047 5.62586308
-11.56817150 -0.76082158 6.97783279
-11.70439053 0.78192645 5.01658058
-10.17094421 -0.12702817 6.13585711
-10.25330448 0.05408982 5.55795145
-11.35324764 0.64648789 6.74563122
-10.69808865 -1.03444815 6.02751684
-10.91551495 -0.20581263 5.26401901
-10.09169769 0.78070450 5.03163767
-11.36655617 -0.50405478 5.46022034
-10.27062798 0.31291941 5.29999113
-10.86350632 0.43529171 6.46798038
-10.69454861 0.52798033 6.45177126
-10.65471840 -0.26054069 6.55606461
-10.57524681 0.08435983 5.39659977
-10.28273487 0.24022296 6.41542673
-11.15311432 0.68755764 5.32933998
-9.96995354 -1.00255799 4.97574472
-11.00888920 -0.63497692 5.84724951
-11.56237507 -0.90016389 5.20225048
-11.60408401 -0.87818074 5.24659252
-9.78553009 0.19635990 5.88218737
-10.29699230 -0.30352762 5.28551912
-10.94663811 0.59411031 5.62436867
-10.29542732 -0.31662497 6.10610867
-9.96216583 -0.77488863 5.05378580
-10.68893147 -0.76864201 6.11708021
-11.01616573 0.04385292 5.20246935
-10.13941193 -0.34352708 5.68611860
-9.85806084 -0.05373915 6.13055897
-10.32994652 -0.37774789 5.93888140
-11.19821167 -0.67515236 5.65454960
-10.15325260 0.00998342 6.19519186
-10.44441986 -0.50393790 6.00695372
-11.43572521 0.70554125 5.32953262
-11.57947159 0.00870216 6.14389086
-10.88667488 0.16623276 4.78839922
-11.86587048 0.05415569 5.84995937
-11.67521095 0.64313835 6.59175634
-10.79337025 0.08668240 4.95691729
-10.18545246 0.25921181 6.39445114
-10.13540173 -0.58628929 6.41422224
-10.76733589 -1.08929539 6.04260349
-10.71064854 0.36166537 5.43766022
-11.22784710 -0.11041161 5.40144348
-10.48734188 -0.63045400 5.84095764
-11.52165794 -0.42356321 6.39021349
-11.43486214 -0.53383178 5.56024551
-11.46837044 0.38524166 6.48817062
-10.09780121 0.25548267 6.02296114
-10.68070793 -0.05149584 6.86498976
-10.85317230 -0.36495969 6.39992857
-10.31284809 0.74957073 6.53963947
-10.38664532 -0.10032515 5.42520714
-10.40568542 -0.58181047 6.54533386
-11.32534027 -0.63708043 5.54074669
-10.69695854 -0.93157178 5.91583538
-10.61084652 -0.64491934 5.53131247
-10.41739464 0.54289907 6.47663641
-10.06092644 -0.13048270 5.72996712
-10.75336361 -0.82124221 5.79109430
-10.16343880 -0.17926672 5.62437725
-10.48165798 -0.09883832 5.28645563
-11.79484081 0.11123742 6.02336645
-9.95138359 0.70216173 5.09827280
-10.93575382 -0.43272397 6.48485518
-11.62769318 -0.18630350 5.77918959
-10.72490215 0.81268209 5.74242210
-10.42884636 0.68451530 6.62055826
-10.53195763 -0.05854499 5.32832575
-11.28331184 -0.52198368 5.68851423
-11.57298183 0.18230972 5.78178692
-11.57443237 0.67242968 5.46334410
-10.17543888 -0.67118591 6.44614601
-11.07524681 0.56139177 6.12527514
-11.75730991 -0.78017277 5.02702332
-10.58403206 -0.38712046 5.42790079
-11.06059456 -0.54618394 6.29464102
-10.75796223 -0.74031037 5.87591839
-10.24073696 0.77747613 5.33520699
-11.43201542 -0.26373750 6.15766191
-11.34305382 -0.09753554 5.71293926
-10.71836853 0.59428608 5.63113785
-10.87702084 0.05669474 6.91826487
-10.87877178 -0.55012387 6.17643929
-10.90972424 -0.39429978 5.51303244
-11.30078888 -0.21127279 5.34270287
-10.26192570 0.52330101 5.30693865
-10.94206905 -0.70709103 6.17268944
-11.12552071 0.64759761 5.99012613
-10.95011520 -0.20156719 6.76822281
-11.56293869 -0.83709413 5.09746695
-11.38852596 0.36412042 6.45467806
-9.81793022 0.01450171 6.07758045
-11.00691319 0.52325124 5.55849600
-11.26126003 0.07682796 6.15051079
-11.19469929 -0.61168081 6.50349092
-10.78323555 -0.29951072 6.66589785
-9.98707008 -0.86081529 5.23338032
-10.15946388 0.45378575 5.32126856
-11.39907265 0.74946105 5.10547686
-11.27145290 0.75627542 5.38704443
-10.61568832 -0.55166709 6.16479778
-9.83954716 -0.85923910 4.97361040
-11.12978935 0.62008148 5.80940437
-10.74983025 -0.10989295 5.10624552
-9.95764351 -0.64994437 5.30129385
-10.81820965 0.46927002 6.34672022
-10.21084881 0.49568677 6.26092434
-11.32751369 0.22302917 6.28311634
-10.94649982 0.23335195 5.18184471
-11.90880013 0.06923044 5.91121387
-10.72679234 -0.26108861 6.58510447
-11.18901634 -0.26294503 5.31027794
-10.65687370 0.57401472 5.77268648
-10.11746407 -0.60018790 5.28735447
-11.42273521 0.15449578 6.06126928
-10.08430290 0.74265939 5.19711971
-9.97740269 -0.65685856 6.63163328
-10.20709038 0.39201853 6.36453438
-10.48348045 0.15025841 5.27208614
-11.49816704 0.82199502 5.10172081
-11.00975323 -0.69048119 5.92224503
-10.73379326 1.16002595 5.86963797
-10.26846886 0.31578451 6.49355459
-11.52001667 0.09472125 5.71718884
-11.31924915 -0.70092714 5.30999804
-10.81013680 -0.82253104 6.10060549
-10.67371750 -0.16991347 5.30556059
-10.40829086 0.63291961 5.34810686
-10.06227016 0.75502574 5.25588846
-10.00092030 -0.85604513 5.05785561
-11.38210297 -0.75114697 5.15134048
-11.44691372 -0.59218121 5.13460636
-10.19064426 0.07954364 5.57422352
-11.33450031 0.45627344 5.97281408
-11.15028095 -0.61782277 6.00137329
-11.43163872 0.70519269 6.47839069
-11.51537132 0.55747467 6.69409132
-10.86256409 0.14079976 4.88381767
-10.15640640 0.49942321 6.58983850
-10.21946049 0.63018566 6.39680290
-10.97522545 0.88837630 5.91745186
-11.34238148 0.62249428 5.49528599
-11.29088688 -0.07933249 6.27149725
-11.28072739 0.56243980 5.75812626
-10.28114700 0.53630239 6.41279888
-11.36668205 0.36884773 6.16703224
-10.17783737 -0.27985919 5.74233437
-10.21847153 -0.39109740 6.32793236
-10.05620766 -0.65959090 5.21407509
-10.27808666 0.16070046 6.43151236
-11.06071281 -0.56121469 5.39368057
-10.44306469 0.48072037 5.88016844
-10.48652172 -0.64499158 6.22542810
-11.30530739 0.18965518 5.41222858
-11.27556515 0.71590763 5.14209318
-11.66219139 0.15468617 6.09396219
-11.05313778 -0.08104940 6.67712259
-9.70286465 -0.06006269 5.82216167
-10.75760651 -0.04140894 5.01471519
-10.73982048 0.41334274 5.47227621
-11.42894745 0.32186034 5.66931105
-11.13021088 -0.23022154 6.59254646
-11.63057995 0.75625741 5.08081007
-10.76658058 -0.09955207 6.85283422
-10.31981277 -0.29452330 5.87850714
-10.96348572 -0.86563355 5.83422041
-11.47065544 -0.56006360 5.25584984
-10.98954201 0.89179099 5.79489517
-10.65176105 -0.97827059 5.89750099
-11.37706852 -0.37843385 6.22250938
-10.77780437 -0.04407290 7.08058548
-11.37913704 -0.26313165 6.27404451
-10.46603107 -0.57415318 5.97868490
-10.99833870 -0.01423163 6.90768623
-10.74304867 -1.19576728 5.90008497
-10.86779404 0.03350033 4.94803619
-10.62639236 0.56235546 5.73589897
-11.50550652 0.61201954 5.41723871
-10.62570763 -0.72781152 6.11529493
-11.54391766 0.81917077 5.09110737
-10.64487171 -0.66463506 5.84587049
-10.49743080 0.00051492 6.50901079
-11.49748611 0.71305466 6.42224789
-10.88923836 -0.18367478 6.66721916
-10.54112530 0.28339747 5.23477221
-11.29562092 0.46979558 5.25335598
-11.44686317 0.39728507 5.65665054
-10.26580620 -0.55615300 6.37840652
-10.39101696 0.64017320 6.44738007
-11.42031574 -0.49186915 5.19273520
-10.63606930 -0.10930917 6.62746191
-10.79675007 0.16644038 4.92459726
-11.17916203 -0.21936448 5.35409260
-9.81149197 -0.09648506 6.04338980
-11.30107212 -0.18044530 6.40898609
-9.94626999 0.02271328 5.93869925
-9.95479584 0.03321204 5.84966040
-10.90027428 -0.51470935 6.45173550
-10.72761822 0.34968510 5.40622187
-9.90108395 -0.99583787 5.13117504
-11.36840820 0.46100008 5.64772463
-10.95303154 -0.04857063 6.63927841
-10.64098454 0.79421681 5.78063202
-11.49281597 0.82744116 6.58873224
-10.74783611 0.39051560 6.43524885
-10.09616089 0.60671234 5.31911230
-9.94788933 0.63046694 6.75089884
-10.29256248 0.51929742 5.26074219
-10.57179451 0.04405814 6.67449617
-11.42260647 0.02168545 6.24545145
-11.64471054 0.75072592 5.27552795
-11.09186459 -0.58589596 6.45969009
-9.94572353 0.12379400 5.80274773
-11.44356441 -0.20591155 5.90040159
-11.13467884 -0.20857877 6.45904064
-10.26877975 0.72121567 5.35845470
-10.37429810 -0.48532239 6.08956003
-10.89086342 -0.87536025 5.78385305
-10.38351822 -0.33338746 6.04135752
-10.63568211 -0.14727235 6.98060369
-11.19159126 -0.72090143 5.40332317
-10.91627312 0.17042294 6.53999138
-10.97391701 -0.35037315 5.42491627
-10.01709652 -0.17168427 5.86407328
-10.04517365 -0.57129437 5.41766691
-11.47584152 -0.64338773 5.08170462
-10.50027275 -0.57754076 6.56069803
-10.88781452 0.96364516 5.78968096
-11.45541000 0.59119225 6.72016907
-11.15168667 0.46762016 5.31532860
-10.35607624 0.40308473 6.54842806
-11.39453411 -0.74018621 5.09524727
-11.47313404 0.05664940 6.04040766
-9.96542835 0.59515512 5.21959448
-9.99825859 -0.02131812 6.22455978
-10.61372089 0.28983349 5.32687092
-10.24881649 0.47483444 6.13168812
-10.06493473 -0.50690782 6.41559839
-10.09673023 -0.19482611 5.98421860
-10.39397621 -0.51858163 5.98683691
-10.42484474 -0.12055545 5.45463467
-11.32502842 -0.56089348 5.77403450
-10.40771484 -0.66586322 6.49087143
-10.14083672 -0.64809638 6.53013754
-10.74517059 0.23249489 5.10074711
-10.14062691 -0.76683986 6.69587564
-10.78453732 0.22856244 6.79188871
-11.10417747 -0.48255023 6.65985107
-11.34782219 0.29618528 6.04290962
-10.72661686 -0.16838117 7.06834364
-10.75301933 0.97757024 5.83384180
-11.43551254 -0.61857855 5.57141781
-11.62249756 -0.91598111 5.02403593
-10.95598030 -0.11444293 6.71835232
-11.49485397 -0.78879303 6.74275970
-10.31160259 0.21370386 5.53253317
-10.16120148 -0.30363896 5.91914272
-11.10543346 -0.69208270 5.41044521
-11.34012032 -0.46704939 5.49510241
-10.86522675 0.62582010 6.19092178
-10.82309532 -0.02353603 4.83566475
-11.50826168 0.56909984 6.34548378
-9.91377258 -0.13668811 6.04978037
-11.19261074 0.59258085 5.32529640
-11.52635670 -0.42982781 5.30473757
-10.71311188 0.70212859 5.74619293
-10.28042412 -0.41691956 5.21816015
-10.72482777 -0.51452845 6.36791468
-10.77655602 0.48176330 5.44551945
-10.12142944 -0.14750557 6.00783205
-10.47703648 -0.08602662 5.23217201
-10.50030231 0.34247652 5.32537985
-9.91822815 -0.91399062 5.00714970
-10.57864380 0.76518822 5.93950033
-11.25327492 0.24869373 6.49986649
-11.58790207 -0.91422176 6.79305315
-10.41010475 0.57477027 5.54615259
-11.48021126 -0.80810016 6.68213797
-11.24184799 0.55526519 6.55204201
-11.38935566 -0.55993092 5.16121578
-11.51711750 0.16264716 5.83392143
-10.30519485 -0.51862997 5.73263502
-10.63842678 -0.80584657 5.94606352
-11.62486458 -0.75878531 6.81137323
-10.30827808 0.39162242 6.61606693
-11.65835667 -0.18628366 6.08734465
-10.95872784 0.17541498 6.72997332
-10.07720852 1.03742230 5.13974619
-10.14275551 0.29991236 5.59251165
-11.21712971 -0.59261709 5.33298349
-10.83595848 0.36042857 5.42061186
-9.78560066 -0.10752198 5.78977251
-10.43794632 0.50770485 6.55148172
-10.96924305 -0.65800482 6.33385658
-11.57490540 -0.83654094 5.22139645
-11.59793377 0.16334727 5.96219397
-10.69814205 -0.56660604 6.24361086
-11.42950058 -0.53055996 6.34866190
-11.21433353 0.50959855 5.26347446
-11.33144665 0.34974268 5.75583935
-10.89342785 -0.88753957 6.00453138
-11.05137539 0.62230414 6.18329144
-9.84942627 -0.03243728 5.80584669
-10.54919720 0.17151725 6.67701054
-11.18136787 0.37054494 6.59078598
-11.65351963 -0.75891918 6.68237782
-10.10256481 0.79968548 6.51366663
-11.61611176 -0.94306678 6.80927038
-10.87084103 0.23370349 5.12973499
-11.14024734 0.49464834 5.46501780
-11.32227993 -0.26287606 6.41393042
-10.85186195 0.42853147 6.38230228
-10.38710117 -0.57334548 6.55936289
-10.01315880 0.89896035 4.95592403
-10.60549164 -0.20926990 6.58056068
-10.69852352 0.18690771 6.65804100
-10.24758816 0.11012334 6.27615309
-11.30870914 -0.65522313 6.49200201
-10.81403637 0.79113042 6.11095190
-10.94523811 -0.30980167 6.52747583
-11.22375011 0.59291083 6.14319944
-11.02157116 -0.67778933 6.13326502
-11.47066689 -0.74871475 5.42439890
-10.98961449 0.68035001 5.77265215
-11.21546268 -0.47160184 6.47561121
-10.46454239 0.57185805 6.52751684
-11.57411098 -0.19293055 6.14973068
-10.41180420 0.41585657 5.35188627
-10.91177654 0.02188014 5.06418657
-10.26366138 0.44559368 6.47954607
-10.46049309 0.29254040 5.33092117
-10.27994728 0.39470598 5.52922583
-11.25354290 0.16021235 5.47449017
-10.91282082 -1.08946216 6.06493425
-10.59281063 -0.26316783 5.35945415
-11.37603760 -0.29672918 6.44380140
-11.56357479 0.58465618 5.26355600
-10.50354290 0.62111747 5.92792320
-10.11763573 0.57008934 5.26663542
-9.91308975 0.65323979 5.19877815
-11.62262917 0.76083022 6.65347528
-10.61166573 -0.83413482 5.97895622
-11.02887440 -0.62527478 5.92878485
-9.82329178 1.04361022 6.89105368
-10.97313690 -0.16179514 6.64188480
-11.25061798 -0.25939178 5.40590954
-10.36565304 -0.38464189 6.13890314
-9.95629597 -0.90400523 5.12060785
-11.37635422 -0.04621560 5.62854052
-11.28207302 -0.62369025 5.48444271
-11.06524467 -0.36453131 5.33031797
-10.39800262 -0.27566200 5.36596346
-10.77584648 -0.02370286 4.87701559
-11.49193287 -0.82290065 6.58730078
-9.88835907 -0.77882677 6.71413040
-11.47490788 0.54736620 5.27808142
-11.51989269 0.80403477 6.74813271
-10.88509941 1.04553199 5.90076256
-10.24372959 0.86700827 6.70082235
-10.29177666 -0.04464635 6.50538778
-10.49060154 0.55708051 6.47059679
-10.36078548 0.66167438 5.27933693
-10.10591888 -0.21852040 5.78133965
-10.21709156 0.42768478 6.18685532
-10.09863853 0.49115634 6.46349335
-10.58473682 0.13172752 6.74421263
-10.29196262 0.38766992 6.27411032
-10.37207508 -0.49353772 5.71781540
-11.42842579 0.78719705 5.25532722
-10.34398174 -0.44009313 6.12081385
-11.06199837 0.14176109 5.28259850
-10.18272018 0.78529102 5.20263958
-10.49098969 0.67638749 5.41806889
-10.75110149 0.12422681 5.07634878
-11.49562359 0.44780520 5.40548515
-11.37905693 0.80671364 6.35083818
-10.27828217 0.64040923 5.56195211
-10.92866611 -0.27716669 6.70868874
-11.05938435 -0.21852557 6.63337040
-9.89577866 0.96894801 6.85340500
-10.99937057 -0.06039634 5.14573240
-11.39183617 -0.68258435 6.47151756
-11.39669514 -0.50063121 5.33345079
-11.40401363 0.37642148 5.71927977
-11.56596088 -0.09429408 5.77242899
-10.05963802 0.83445609 5.17424297
-10.80166245 0.79238820 6.15903378
-10.06225586 -0.66545445 5.12610388
-10.95026875 -0.58526808 6.22477722
-11.26299477 -0.30478442 5.35314560
-11.09070969 -0.69822800 5.93653870
-10.32404327 -0.42842555 5.26703835
-10.90822697 -0.68473393 5.69827604
-10.28103161 0.47392642 6.68488979
-11.59015751 0.70519120 6.62875223
-11.79283714 -0.88867635 6.95891714
-11.23369694 0.44480518 6.04267550
-9.74239445 -0.02206720 5.76098537
-10.25539875 0.19674155 5.60962534
-10.66712284 -0.35724896 6.49836874
-10.47892380 0.00623641 6.47701740
-9.96010685 -0.71031857 6.78374767
-11.72156048 -0.00891988 5.69077587
-10.07995987 -0.78266066 5.30630779
-10.36476040 -0.32171452 6.15427160
-10.01810169 0.80025417 5.08595943
-10.74256420 -0.33375236 6.45077801
-11.18649673 -0.59210867 6.32596254
-11.73071480 0.77931672 6.78636789
-10.98509789 -1.09805071 5.82441664
-11.81471539 0.05394462 5.86416817
-10.71484566 0.54895550 5.61561108
-11.18630219 0.42745635 5.73098707
-10.54217243 0.55784345 5.65424442
-10.20171833 -0.32153904 5.45735168
-11.42671299 0.55112046 5.19456863
-11.09125805 0.55861145 5.63922977
-10.16881752 -0.29783073 6.02241802
-10.33690834 -0.51578659 6.13508177
-11.59267807 0.78457892 6.72358274
-10.23583508 0.53671473 5.70692539
-10.36161327 0.13793713 5.46702909
-10.35603905 0.66505986 6.54285812
-11.32482910 0.34074265 5.83309174
-10.53639793 0.62003982 6.51838160
-10.08988190 -0.31289980 5.85846138
-11.28511810 0.67108142 5.38693428
-10.80745411 0.77145928 6.20025778
-11.54894829 -0.55519843 5.53027630
-11.31314182 0.40767419 6.08892155
-10.33585835 -0.42181656 5.81648207
-9.94186401 -0.81764567 5.24198103
-11.32610130 -0.11028263 6.34339094
-10.83361435 0.63812643 5.67233181
-10.21204758 0.14018087 5.51433134
-10.40193462 -0.53322053 5.85238266
-11.35457325 0.29143378 5.34910774
-11.36164665 0.64460307 6.34174919
-11.09404278 0.10116851 6.43118620
-11.25268650 0.38195258 6.57156658
-11.03531933 -0.14324592 6.80762959
-11.20658207 0.59456742 6.40428734
-10.21096325 0.14806068 5.51079750
-11.87223053 0.08482003 5.88023567
-11.43462276 -0.28490576 5.66162682
-10.43643379 0.58393770 5.42272615
-10.88131809 0.65575981 5.61886406
-10.29882622 -0.20389621 6.48093987
-10.71759129 1.02898371 6.10941124
-11.72147655 -0.77355325 6.86615705
-10.70116806 -0.29833177 5.21011972
-11.72575092 0.80302399 5.15017509
-11.05427837 0.55853540 6.17826605
-11.71115112 -1.02464795 5.05425835
-10.76689434 0.27867961 6.70019579
-10.86080074 0.77398902 6.17229557
-10.17954159 -0.50884742 5.65773487
-11.18900776 -0.50028008 6.53094912
-11.74194145 -0.09444185 6.14257622
-10.59397125 0.64632547 6.27569962
-10.46332264 -0.51738811 5.80072308
-9.97363377 -0.80873287 5.16042900
-11.11550331 0.37969738 5.37922525
-10.72743797 0.70450181 6.05111885
-10.15286160 0.63285577 6.50167847
-11.62096977 -0.67437583 6.74350786
-11.54406357 0.78250766 5.33725786
-10.30386925 -0.78220630 5.30187702
-10.23900986 -0.12772362 6.39052629
-10.55464554 -0.70026731 5.75051594
-9.94582558 0.84985846 6.84281540
-11.49857712 -0.60614002 5.23281574
-11.34953690 -0.52993715 5.66874695
-11.55524635 0.67094558 5.36641312
-11.45022678 0.62520874 5.54292870
-11.05894279 -0.00779330 6.48203754
-10.94143677 0.30683616 6.39178038
-10.86028767 -0.22857784 5.42073393
-10.96937847 0.61497456 6.29282427
-10.20903015 0.17410275 5.52954149
-9.91660404 1.01531982 4.88177013
-10.29342747 -0.45127434 5.27989197
-10.31908035 -0.57053429 5.93069744
-9.82924366 0.91316509 6.86873770
-10.83751392 -0.38857824 6.32322073
-11.04784966 -0.62151390 6.00998831
-11.09548283 -0.60340261 5.63313770
-10.06176567 0.62066132 6.72546625
-10.83955860 -0.49232930 6.18740940
-10.27880859 0.65357280 5.50910521
-11.28734875 0.22011423 6.39942551
-10.29553986 -0.63904291 5.65596390
-10.12510490 -0.69535106 5.43739700
-11.42396355 -0.27277720 6.32502031
-10.95769024 0.71603137 6.15305185
-9.89154816 0.81018734 6.84401464
-11.29421234 -0.11404063 6.46073246
-9.78759670 0.99582374 4.87313700
-10.26787949 0.24205993 6.26453781
-10.45623684 -0.72558779 6.35160875
-10.60698891 0.53927249 6.38362360
-10.79157925 0.29933372 5.32400036
-9.92022800 -0.14545098 6.08442879
-11.36810207 0.11929466 5.61958456
-10.42728329 0.56952745 5.25184917
-10.74872017 -0.31066096 6.37492323
-11.72309208 0.86952823 4.99443102
-10.24243164 0.57995927 6.21275854
-10.98275280 -0.66731912 6.29987669
-11.39472485 0.23071110 6.15292263
-11.58298969 -0.69802654 6.62132263
-10.30718803 0.53147846 6.54306173
-10.69841862 -0.58540857 6.30519152
-10.46260834 0.57414669 5.74599743
-10.35866737 -0.59497035 6.56591463
-11.35708332 0.46751520 5.75901794
-10.73837566 -1.05663276 5.93168116
-10.11954689 0.92274231 6.71052122
-11.44609070 -0.48555762 5.43685627
-11.67120552 0.00864200 6.00529718
-11.63552666 -0.07622892 5.95182180
-10.65201664 0.91549873 5.86212254
-10.28505993 0.29503390 6.55649233
-11.09353924 -0.17196375 6.32447958
-11.43330860 -0.18381426 6.42495298
-10.96072006 -0.38709012 6.36058235
-10.63770103 -0.15295240 6.58046818
-11.27824020 -0.53714806 5.21520853
-10.90934086 -0.17035720 6.68463993
-11.21663284 -0.24362648 6.54851866
-10.51901722 -0.48989064 5.81965351
-9.87129116 0.98223627 5.15815353
-10.51260281 -0.39450529 6.56687641
-10.71337891 -0.00564367 4.90951061
-10.38127613 -0.70156091 5.22544670
-11.31267834 0.42207116 6.12796402
-11.75700951 -0.93643755 5.02368689
-11.54210091 0.18044546 5.69209862
-9.99225330 -0.70148158 5.10589647
-11.74391174 -0.90538096 4.86674023
-11.64437294 -0.78067112 5.19219971
-10.23495293 0.06134091 5.71698523
-11.73473740 -0.07554905 5.85332441
-11.20351791 0.64299279 6.17820120
-10.73349380 -0.69946796 6.14112663
-10.25765705 0.63452727 5.47335720
-10.53952599 -0.56933463 6.31093693
-11.48321915 0.60342103 5.22836065
-11.31310177 0.52649719 6.29656410
-11.77059841 1.01531839 6.96759319
-11.41834068 0.48822379 5.24757862
-10.63159943 0.43464929 5.54042721
-11.09747028 -0.56872737 6.37941217
-11.57546139 -0.70624936 5.06236076
-11.01252937 0.52430499 5.92637539
-10.76604462 0.37706858 5.42823982
-11.44004536 0.04957196 5.70471096
-11.44027805 -0.54529625 5.43135929
-9.62749004 -0.05407053 5.81334209
-10.46082020 0.56703782 6.20820761
-10.10465431 -0.01522779 5.76224947
-10.81707096 0.98548096 5.94421577
-10.25086498 -0.28711739 5.71270037
-10.73598766 0.14581752 5.08470678
-10.74655628 -0.91314292 6.10994625
-10.24925041 -0.17259794 6.28730059
-11.57653522 -0.54505026 5.31220865
-11.42742538 0.56587076 5.10387468
-11.72442722 -1.04429030 6.87702179
-10.01733971 0.13710421 5.79252338
-9.80148506 0.07782406 5.84639025
-11.15973091 0.46970341 6.03154421
-11.53268051 -0.17419386 5.95199347
-11.17873287 -0.61115122 6.43993473
-11.36950111 0.45882994 6.30073547
-10.24203110 0.01279577 6.26578379
-11.52626610 0.64440876 6.65497637
-10.41555119 -0.66387707 6.49828196
-11.42602444 0.20677428 6.32498789
-10.13757038 -0.38847750 5.41952753
-11.62780571 -0.84711057 5.05448771
-11.27003288 -0.73238069 6.37555361
-10.80372238 -0.13873626 6.83850002
-10.18208027 -0.21092792 5.97274637
-11.00851440 -0.93925112 6.09423780
-10.40207863 0.58140093 6.25786972
-11.38630676 -0.74861169 5.40714788
-11.34257221 0.35912740 5.97837591
-10.75207901 -0.15623917 5.04265976
-11.66830444 0.85885227 6.67486000
-11.10523605 0.00528428 5.39344835
-11.37051582 -0.64495659 5.20780897
-11.28619385 0.64759374 6.48967838
-10.48836994 -0.40021846 6.56638193
-10.22538662 -0.32850480 6.08439350
-10.25012684 -0.55333167 5.59878874
-11.20954132 0.24149995 6.43259048
-10.02598381 -0.75924593 6.52553463
-11.63400364 0.04563523 5.86190605
-10.16270924 -0.27532896 5.54620028
-10.73761272 -0.53505820 6.39141130
-10.25662136 -0.67361724 6.34904623
-11.14187241 -0.49324799 6.50942516
-10.19622707 0.62487215 5.56134272
-10.61666107 0.88766068 5.81336403
-10.16842270 0.26639667 5.98590422
-11.27619171 -0.57957572 5.55279350
-10.71920681 -0.92177457 5.81428814
-10.18199444 -0.56862295 6.32298613
-10.68393421 -0.06919561 5.12352324
-9.88564968 0.77353275 5.20840359
-9.86054325 0.12103328 5.80773783
-10.11002636 -0.86350769 6.71867657
-11.64582634 0.13909280 5.76526785
-11.84484196 -0.89624614 6.74953413
-10.53459072 0.00282198 5.34231377
-11.42621231 -0.03314698 6.19578075
-11.23955631 0.63100940 5.56135464
-10.06748486 -0.75947309 5.36902475
-9.83857727 0.12543926 5.78291225
-10.10483646 0.65884936 6.45168972
-9.99269009 -0.90100664 5.21171904
-10.19830036 0.25534841 5.94340706
-10.43540382 -0.59110588 6.31275845
-10.16927338 -0.36338162 6.35017061
-10.62362385 0.31360027 6.65971947
-11.74554062 -0.97393698 5.07933235
-9.87315750 0.95052201 6.75720310
-11.93791294 -0.01558445 5.97191906
-10.14199448 0.65539384 6.30373573
-11.34562969 0.32209721 6.56514025
-11.07350254 0.34117985 6.45364618
-9.86726093 0.07257996 5.87658834
-11.71685219 0.07316461 5.82623005
-10.07561588 -0.07454374 5.66803265
-11.39619923 -0.56281012 5.19448376
-10.80056953 1.03481770 5.86953592
-11.60877419 0.07854073 5.76221943
-10.80198860 0.31256422 6.58821821
-10.22151852 -0.27525660 6.42642164
-10.84208488 -0.29715148 6.62850857
-11.51916981 -0.45111623 6.51341772
-10.86044979 -0.04587831 7.06665373
-10.84660912 0.08215972 6.97202778
-10.00949383 -0.75583124 6.57043982
-10.55720425 -0.58922029 5.98706579
-11.17755890 0.51130927 5.85255337
-11.20325279 0.25583506 6.61497498
-10.13985348 0.30075654 6.41685057
-10.98531246 0.56702501 5.63900757
-9.95973778 0.79194242 5.10998726
-10.96582699 -0.45602632 5.39179564
-10.53316784 -0.67706895 5.83545399
-10.64066315 -0.56314683 6.40334606
-10.13883018 0.74945468 5.13637018
-11.31882191 -0.23563845 5.50391340
-10.38979435 0.56640470 6.18039989
-11.66559792 0.95914775 6.67946815
-10.28429985 0.28617799 5.56861401
-10.30387783 0.70850962 6.77950764
-11.34188271 -0.61400360 5.26212645
-11.19574165 -0.67089504 5.49595022
-10.13997269 -0.21727544 5.51376534
-10.10937977 -0.14063692 5.68641853
-9.92609596 -0.79035169 5.07766056
-11.49524117 -0.48194766 5.60083151
-11.19805622 -0.30067515 5.30002737
-11.10786343 0.33952355 5.39320660
-10.91982079 0.05803563 5.14956093
-9.97367096 0.74755996 5.38203764
-10.35087585 -0.47831148 5.69072914
-11.43031216 0.85335064 6.79748011
-10.59296703 -0.09632021 6.71894503
-11.37579727 0.04648603 6.19841814
-10.50526428 0.08970254 5.41534758
-10.17427826 -0.23692515 5.49942398
-9.85390568 0.69439077 6.84389257
-11.35419559 -0.53615719 6.23489618
-11.31946564 -0.64002228 6.43658733
-10.31505489 0.12111568 5.37208223
-11.51523781 0.07934823 6.18552876
-11.69495201 0.82586157 6.70544672
-11.64748573 0.99161118 6.87101173
-9.98722172 -0.73353183 6.66328859
-11.46637821 0.60738420 6.54625750
-10.99739361 -0.48637936 6.16877460
-10.94483185 -0.16565847 6.59442711
-11.43483353 0.61630601 5.11802197
-10.29679871 -0.34992957 5.99665499
-11.65485382 -0.71302915 5.05877972
-11.60608959 -0.60002881 6.76125097
-10.58696747 -0.30449465 5.38781404
-11.31661606 -0.43339920 5.94037867
-10.26164055 0.31305340 5.48967695
-11.29566956 -0.56580037 6.28329611
-11.79962349 -0.04953950 5.98746109
-11.27124786 -0.01558599 5.52667522
-10.54006672 -0.78969949 6.12046719
-11.54886627 0.16075687 5.82334232
-11.85198975 -0.00521173 6.07389641
-11.51771545 0.68496054 6.73597860
-9.88486671 -0.80428648 4.98842907
-10.72126675 -0.17164302 5.07876205
-10.37121201 0.57681727 6.08726025
-11.11451340 0.67951369 5.87147427
-11.42488575 -0.50738829 5.54521418
-10.53721714 0.50788349 6.45313168
-10.41053295 0.27551544 5.37839365
-11.70387936 -0.80602407 5.09755850
-10.63008499 0.02642119 6.82713938
-11.29800797 -0.28094092 5.52382898
-11.01177406 -0.86720550 5.94905567
-10.38255596 0.32362643 5.44540501
-10.13171768 0.10586523 5.61775303
-11.41599560 0.24423927 5.34424305
-10.62640953 0.70975357 5.79045153
-11.31353378 -0.52347302 6.60258341
-11.06287766 0.70993489 6.07915258
-11.53999519 -0.92149603 6.83889198
-11.35281849 -0.30253735 6.23970270
-10.40515614 0.20121758 6.46546793
-10.55225754 0.16604859 5.32099724
-11.18462467 -0.33464772 5.35829687
-10.21807480 -0.41048497 6.40414810
-11.69187069 0.71637422 6.88346100
-11.31816006 0.12419556 5.56392670
-11.44693756 -0.72026724 5.49511051
-10.27874088 0.37678087 5.30007410
-11.51826000 0.25771412 5.98058844
-11.27603054 0.79673398 6.54673338
-10.95496655 -0.05584981 5.11569118
-10.02336311 -0.51184976 6.53859043
-11.56902981 0.88067603 6.71809578
-11.01673508 -0.12229919 6.71232557
-11.20375633 -0.22761799 6.52071953
-10.61514854 -0.37709761 5.36880589
-10.28111172 0.56903511 6.07928228
-11.09933853 -0.30171245 6.56905985
-9.97669315 -0.05270325 5.84202957
-11.04906082 -0.02719786 6.68765306
-10.33833504 -0.66802567 5.35523939
-10.55710888 0.16359304 5.12641430
-10.19235706 0.29131058 5.64431858
-11.63811493 0.80168086 5.29313850
-10.07223129 -0.44231582 5.39900541
-10.36034393 -0.75889581 6.59040117
-9.98025513 0.12548207 5.73374653
-11.37710953 0.44805220 5.75545359
-11.36168861 -0.47391212 6.55730295
-11.01873970 0.28273797 5.33833122
-10.27340698 0.58233279 6.25892162
-10.70571327 -0.22473399 6.65876102
-11.00070000 -0.46170172 5.43350506
-10.40558529 0.59583998 5.33384514
-11.35458088 0.47744125 5.50640917
-10.50744152 0.49625725 6.50677633
-11.34723568 0.30168477 5.61971426
-10.42993355 -0.41222697 5.90827751
-10.91939926 0.92897177 6.13747644
-10.14569283 -0.38211933 6.44367170
-10.05422878 -0.81302017 6.73594046
-10.79777813 -0.07620674 7.03206253
-10.87761593 0.55728620 5.64866590
-11.11256599 0.48925272 6.48193550
-10.19043732 0.30320477 6.36998606
-9.96079540 0.67305118 6.62784290
-11.68689823 0.85655880 6.86066484
-11.67961407 0.91016507 4.98682213
-10.77480412 0.02523257 4.93826342
-9.80060482 0.03177232 5.83132887
-11.66540718 -0.92231721 6.74866152
-10.43447495 -0.47433934 5.76297712
-10.08539200 0.64683819 5.48772049
-11.55330181 0.50307071 5.40491390
-10.21433926 0.13403429 5.64034700
-10.98403454 0.93032104 5.91503334
-11.32084465 0.47324517 6.57141829
-10.52314568 0.07296324 5.41818714
-10.43798256 -0.55385250 5.91781616
-11.17124081 0.55615211 6.06950188
-10.91508007 0.07787527 5.06117582
-11.22607231 0.42214215 5.81893444
-10.81050587 -0.99267280 6.12871122
-11.48238087 -0.64431232 6.59963655
-10.08930683 0.73095411 5.37106800
-10.92170429 -0.92371237 5.95283175
-11.66724777 -0.76066208 6.78011131
-10.54165459 -0.64520377 6.10755634
-11.66455936 -0.75547165 5.17843151
-10.69596672 -0.20982818 5.18484402
-10.06988811 0.51748204 6.62137032
-11.18338680 -0.69172245 5.25243902
-10.20465660 0.37277588 6.27268696
-10.08311176 0.56125569 6.65852022
-11.48134708 0.38180283 5.66012192
-10.20570278 0.42395890 5.46527052
-11.82642555 -0.85103446 5.18776751
-10.82263565 1.09715080 5.98439884
-10.35510445 0.67020780 5.42054462
-10.86253929 0.55830282 6.28361893
-11.30091000 0.22963272 5.89217567
-11.19928646 -0.77247775 5.21774101
-10.77467918 -0.56944638 6.22146511
-11.27383709 0.15645604 6.42384005
-10.22399902 0.34812158 6.57616854
-10.83750343 0.37598693 6.54092979
-11.47154522 -0.48249891 5.46351624
-10.45454597 -0.68376493 6.25768661
-10.04159927 0.64698613 5.25623846
-10.85962009 -0.37732473 5.39380074
-11.04206848 -0.39866516 6.45536470
-11.95316219 0.06063601 5.91376400
-10.06212044 0.36112696 6.35358334
-11.53601837 -0.42934367 5.46726227
-10.81915379 -0.81312853 6.11071396
-10.07054043 -0.55457395 6.58455324
-10.99718952 0.59086233 5.74324083
-10.37312603 0.60439962 5.81137085
-10.59560680 -0.98994714 5.84992790
-10.80449963 -0.18109640 6.88369513
-10.39711189 0.62291187 6.55352068
-11.35645771 0.32704836 5.87450457
-10.38245201 0.62861246 6.60546875
-10.52297688 -0.65172601 5.92445850
-11.49223328 -0.37757644 6.64350843
-10.86856270 -0.01451956 7.02865601
-11.26828289 -0.64428991 6.38668251
-11.77340031 -0.20132872 6.02279949
-11.42109680 -0.58975565 5.38034582
-10.71462440 -0.41022411 6.37009335
-10.32487106 0.59974718 6.40862036
-10.40812397 0.62745607 6.37867594
-9.91020107 -0.79057503 4.95662308
-10.92785931 0.12461630 5.15513468
-10.95780087 -0.56953692 5.54771757
-10.05395889 0.01768320 5.64820623
-10.11431122 -0.56634098 6.37790012
-11.08307362 -0.47817668 6.00298882
-11.36471081 0.69514328 6.38107204
-9.86269188 -0.17429210 5.95246267
-11.30398941 -0.05981701 5.42552948
-11.17882919 0.29777297 6.34706926
-11.57845306 -0.70728213 5.20202923
-11.66071224 -0.57592469 5.32848501
-10.17294216 0.25992113 5.88551760
-10.96131516 0.12793666 6.56947374
-10.67555523 0.19799663 6.84486008
-9.98193932 -0.83259594 6.65473175
-10.25288486 -0.45988914 5.29836559
-11.70079899 0.93271786 6.92149925
-11.27111721 -0.44805825 5.25654888
-10.29227543 -0.65216804 5.48535490
-10.34602547 0.22219048 6.32042408
-11.31206131 -0.36597672 5.32489252
-10.36303806 0.44211468 6.21686983
-9.93095970 -0.75790787 4.94387102
-10.95995712 -0.81184626 5.86453438
-11.53643036 -0.08831961 6.11413908
-10.08203888 0.92364472 6.86308098
-10.00531197 0.74153376 5.18646717
-10.30492306 0.03421954 5.62682152
-11.68596935 0.78751975 5.26320553
-10.42685223 -0.13831618 5.53096628
-10.00152779 -0.15820538 5.98245668
-11.25713825 0.32733774 5.96414328
-10.44236660 0.10229030 5.42284012
-11.04078579 0.15590690 5.25073195
-10.24887466 -0.14944451 6.22007561
-11.10644531 -0.12016776 6.38169193
-10.71498966 -0.35093251 5.43808794
-10.72938824 -0.16261213 6.58343124
-10.32793808 -0.30079326 6.03894663
-11.23281097 -0.50772226 5.77112722
-11.04974461 -0.57690918 6.43108606
-10.69183445 0.52442843 5.71199465
-11.06241894 -0.62448794 5.40071154
-10.62344456 0.03924442 5.27000332
-10.35704994 -0.64232993 5.53242588
-9.89550781 0.07156882 5.93611622
-10.38571739 0.69067287 6.34096384
-10.77164459 -0.22892697 5.09887791
-10.92940521 -0.44378775 5.37075186
-11.55654144 0.60602832 5.29713726
-10.09977913 0.02964467 5.58569622
-10.12787724 0.50348085 6.53807926
-11.55132771 0.74265343 6.61731100
-10.10119343 0.54773331 6.63431978
-11.46611691 -0.08317572 6.20010042
-11.19887257 0.65242463 6.12717772
-11.02823257 -0.62063211 6.18979025
-11.28998852 0.20616949 5.48269844
-11.46815491 -0.35248697 6.39594841
-11.47116184 0.49114957 6.54011726
-10.24673176 -0.54847884 6.65996361
-10.60774994 -0.07280675 5.16522026
-10.74112320 0.77073503 5.79221821
-10.07984924 0.55780023 6.42242241
-11.36734390 -0.59724462 6.31268930
-11.03021240 0.28755876 6.52297068
-9.98340702 -0.82151359 4.99558878
-11.34005451 0.39677218 5.87676811
-10.36269951 0.53482491 5.63999748
-11.03932095 0.46555036 6.31618214
-11.05432987 -0.59672648 5.35488033
-11.28752613 0.65976703 5.32524586
-10.01890659 0.85676521 5.19397116
-10.94131374 -0.21691962 5.29914665
-10.41237068 0.06404313 6.38411522
-11.05028343 -0.55764979 6.44685030
-11.49923134 -0.60408133 5.43345022
-10.78599930 1.15140522 5.92556286
-10.30146980 -0.34666055 6.55466557
-11.46962452 0.06415790 6.20698309
-10.07943916 0.47415227 6.72031736
-11.27142811 -0.43205693 6.04659033
-11.11085129 0.61468625 5.90061855
-10.37936115 -0.62005055 6.61384296
-11.49841881 0.12602749 6.23073864
-11.47637081 -0.56890571 5.53040457
-11.17821884 -0.58210969 6.01272440
-12.01873398 -0.00374687 5.96510887
-11.21249676 -0.70257849 5.48454285
-10.24332047 -0.42565399 6.61324835
-11.19868183 -0.51450932 5.26959467
-10.77681160 0.58163816 5.60158014
-10.10245609 0.68640697 6.76334620
-9.83100414 0.95791972 6.79266930
-11.59782314 -0.66685563 5.37948990
-11.52267265 0.21038447 5.89212227
-10.48601055 0.47559333 6.48526382
-10.80744267 0.09824342 6.78916740
-10.48675156 -0.20948932 5.25895405
-11.57875633 0.94201779 6.66864920
-11.39493847 -0.39259085 5.22162867
-11.31588554 -0.18935972 5.70180559
-10.37697601 -0.52401638 6.23569202
-9.89001942 -0.99234474 5.05193996
-10.22398663 0.46474209 5.47630644
-11.41417027 -0.25119054 6.08734274
-10.28565216 0.36956972 6.15331268
-11.51811314 -0.26437929 6.19171906
-10.42136860 -0.35662204 6.55812454
-10.67267799 -0.56689453 5.59310913
-11.44779873 0.36684039 6.25649166
-10.50837040 -0.56038618 6.26719570
-10.62884617 -0.04299224 4.83091259
-11.90955448 -0.12076356 5.92122507
-10.44711208 0.23599188 6.35470629
-10.14603615 0.42884067 5.41108370
-10.03255367 0.77438557 6.79172754
-11.57388401 0.13065912 6.03641176
-11.57897663 -0.13813721 5.90128899
-10.35040855 -0.49910024 6.01601601
-10.83859253 0.12435549 7.03398371
-11.10081863 0.56372458 5.47257090
-9.99583530 -0.82265127 6.57456255
-11.18821621 0.38304582 6.58574772
-10.75648594 -0.82279104 5.81669283
-10.20294094 0.55969107 6.41612101
-10.78381634 0.85015285 6.05710220
-11.55249214 -0.85769427 6.70548630
-10.05458355 -0.48084381 6.38533974
-11.50981617 0.59511197 5.43981314
-11.66255856 0.80613446 6.61414194
-11.07576847 -0.17559643 6.54440689
-11.17977047 0.56369555 6.30770206
-10.74116707 -0.41945243 5.42867279
-11.20243835 0.08935024 6.46915102
-11.34854507 -0.39145172 6.09912539
-9.92401791 -0.93592817 6.88857365
-11.43459797 -0.51434195 5.38628197
-11.42241955 0.36399367 6.16650057
-10.60507965 -0.39854485 6.44351959
-9.58143425 0.09042820 5.94237280
-10.14321709 -0.01977777 6.13835382
-10.09862232 0.47394213 6.58293819
-11.68803501 -0.84016579 6.69904757
-11.52227688 0.12732512 5.83171797
-10.79545021 0.26042461 5.23217630
-10.50431442 -0.50384462 6.54269028
-11.35497475 0.12984715 6.32301903
-11.60875797 -0.87638116 5.32883358
-11.32022095 0.50218028 5.76056576
-11.87733078 -0.14187364 5.99798393
-11.34919739 0.53692210 5.13614273
-11.65295887 -0.91854739 6.81865501
-10.83128643 -0.40011412 5.44022799
-10.93253040 -1.08550346 5.90174580
-11.73937702 1.09225905 5.04039192
-10.79792690 -0.28772324 6.51968336
-10.04814053 0.00345859 5.70050573
-11.01951599 -0.02934952 6.58778572
-10.87854004 -0.07826667 7.00807905
-11.46157074 0.14546064 6.06824160
-11.39255333 -0.21461366 6.37540579
-11.34392357 -0.75154400 5.25468731
-11.55066967 -0.63709342 5.31785631
-11.07896137 -0.58890188 5.89071512
-10.37770081 0.05725956 6.44770193
-11.66385460 0.62515628 6.80764246
-11.55031300 -0.84286302 6.58517313
-10.22627354 0.42813492 5.33946705
-10.88497448 0.09219220 5.03641224
-11.25504208 -0.59641421 6.40794230
-11.56425190 0.70700306 6.79348564
-10.29961586 -0.72359753 5.38988543
-11.59259224 -0.62923920 5.27162647
-9.94553661 -0.65404463 6.58191586
-10.87966251 0.77466595 5.95985270
-10.31453037 -0.52437538 6.19649076
-11.34868145 -0.02240928 6.37279940
-11.39580345 0.74264663 6.52028084
-10.46701717 -0.15877961 6.51374006
-10.18011570 -0.42908156 5.70849133
-11.53047943 -0.67873871 6.43879080
-11.62054920 -0.72626096 6.61826324
-10.21665668 0.72890240 6.70417929
-10.09224224 0.63040668 6.40163708
-11.34057999 0.07454977 6.38613033
-9.85041809 -0.06990933 6.07536411
-10.42859077 0.48415530 6.02143002
-11.54823589 0.17976405 6.06985044
-11.66134453 0.83639157 5.07210016
-10.79929924 0.41823661 5.43270636
-10.51526928 -0.57345301 5.76449108
-10.16546822 0.70852089 6.27773571
-11.17288208 -0.66518050 6.40196609
-10.98729706 -0.65748954 6.09514809
-10.77471638 -0.18284668 5.21193790
-10.07340908 -0.13113847 5.75101948
-11.71844959 0.76078522 5.09282160
-10.32423210 0.58935374 6.13515949
-10.22513962 0.39886290 5.38171291
-11.28806305 0.12061046 6.51164055
-10.20966911 -0.79919839 5.24600792
-10.30627346 -0.50735593 5.38596821
-9.96843338 0.79721272 6.79705906
-10.56196404 -0.72674876 5.91821241
-10.06702423 0.29806024 5.83729458
-10.37688446 0.04212834 6.38197947
-10.92145824 0.32936093 5.40421486
-11.82278824 0.00277093 5.99086046
-11.21640015 0.15079696 6.33246708
-10.05613041 0.94472796 6.89946127
-11.28187847 0.56334758 6.21404600
-10.83270741 -0.95558470 5.83407784
-10.63315105 -0.03626750 5.04709244
-10.10890484 0.83965850 5.04784822
-10.09951782 0.65433872 6.59079170
-11.31297684 -0.19589341 5.43077993
-10.91820240 0.05557315 5.13253546
-11.61590481 0.15788308 5.86732769
-11.27559757 0.55862361 5.57496691
-11.48817730 -0.54251170 6.45894957
-11.50789070 -0.66098851 5.31708431
-10.13862705 -0.22066142 5.82342339
-11.24087620 0.51523143 5.84778786
-10.75080681 0.30180669 5.29382372
-10.14444637 0.60349119 6.26281643
-11.52729225 -0.65046877 5.31856108
-11.43026829 0.59971136 5.11058378
-11.13421345 0.47433102 5.31815577
-11.33232784 0.22462416 6.28357887
-10.82884026 -0.77456290 6.11587429
-11.49133873 0.19529420 5.80061769
-10.60140133 -0.25092787 6.69245768
-11.21011257 0.14227423 6.46295834
-11.21791458 0.05801942 5.45929956
-10.29728794 -0.32914647 5.30111408
-11.20185661 0.66296804 5.31594324
-10.83262730 -0.66543269 5.67736387
-10.85992336 0.44902793 5.43719959
-11.12080765 0.58503163 6.27696943
-10.58756065 -0.68479627 6.17181444
-11.59386635 0.81646746 6.60816956
-11.30494404 0.48935702 5.84157228
-10.90514088 -0.02054978 6.79198933
-10.50956440 -0.01365029 4.98636198
-10.75785160 1.17946935 5.87742949
-10.22512150 0.67119014 5.48086548
-11.02566242 0.70929617 5.85110998
-11.18724060 0.40762651 6.55172062
-10.42891598 0.45213601 5.41014242
-11.08376026 0.62767643 6.17954493
-10.57271671 -0.17551996 5.27345276
-10.74742508 -0.13819055 6.75265837
-11.54539776 -0.59948975 5.28920364
-10.86197853 0.14723623 4.99781322
-9.99758816 0.81868523 5.12393856
-10.08745575 -0.78414029 6.82879353
-11.69258785 -0.82975662 5.08518457
-10.82727146 -0.41056871 6.30872917
-11.45070934 0.65358406 6.70603466
-10.05231953 0.22750911 5.81347322
-11.28595448 -0.28239289 6.54687262
-11.14346313 -0.04429523 6.39284563
-10.72446728 -0.94512868 5.95747042
-10.58913994 0.71336836 5.90422535
-11.30804825 0.10106929 6.37001324
-11.57164001 0.25393340 5.87618923
-11.61946774 0.22050376 5.99074364
-10.40339565 0.56346935 5.41039848
-11.18438435 -0.54510093 5.43915129
-11.39476109 -0.15493561 5.60064507
-10.95633125 0.88147837 5.97166014
-11.17150402 -0.58479428 5.35245800
-10.11898232 -0.05814680 5.80065680
-10.50485420 0.54410714 6.36209536
-11.25998974 0.63568407 6.39053345
-11.38115215 0.81374937 5.32683611
-10.75553513 0.02537890 4.91368151
-11.72201347 -0.80472028 5.14458609
-11.30126381 -0.58094406 5.28943157
-10.74866772 1.09824824 5.82800913
-11.14726639 0.16255547 5.25468779
-10.30796528 -0.43445200 6.40156794
-10.75783825 -0.69317877 6.16181421
-11.47415257 -0.54135227 5.48006725
-10.36920166 0.06329717 6.39856958
-10.19607353 0.26307198 6.08569145
-11.36427212 -0.10805444 5.66651392
-10.19508934 0.63836163 6.58727026
-11.41501808 -0.13085955 6.26864481
-10.14331627 0.40502754 6.67535162
-10.90915108 -0.16808374 6.58080912
-11.45660591 0.73114920 5.39218283
-11.03527641 0.00800645 6.61208296
-10.21977329 -0.73392498 5.45984316
-9.91414833 -0.92608637 6.74455738
-11.48320103 -0.08412369 5.65705824
-11.00606918 -0.65348804 5.55616522
-11.64122105 -0.18525499 5.89103508
-10.90994930 0.96856904 5.82429934
-10.33073139 -0.38471961 6.01027489
-10.34150505 0.25105050 5.43072367
-11.34401226 -0.39440396 5.41977882
-10.44332409 -0.42833060 6.43965530
-10.26041603 -0.24900138 5.68792772
-10.30261421 0.28893909 5.30111599
-11.45353317 0.23880997 5.86888742
-11.33517838 -0.08875751 6.19256783
-10.63746738 0.43065774 5.34830570
-10.77402878 0.16772798 6.96906376
-11.21013355 -0.42059076 6.14274073
-10.23513603 0.43533459 6.56350565
-11.00218773 0.19643885 5.39255476
-11.42009735 -0.40451071 5.75103235
-10.44079781 -0.08085041 5.51468754
-10.18694305 -0.20509619 6.09256744
-9.84185028 -0.94309372 6.79967785
-11.51141548 -0.27205309 5.83137941
-10.38611984 -0.59789819 5.45200443
-10.31347656 -0.29757437 5.38880157
-10.23319435 0.29121760 6.28469229
-10.72675323 0.99686134 5.98141146
-10.84959698 0.40149581 5.51461458
-10.49138451 -0.18059501 5.31967592
-10.58585930 0.35868558 5.46273851
-10.00553513 0.54195166 6.56740379
-11.86374378 -0.01768726 5.87765503
-9.90559959 -0.10903546 5.90904999
-11.58407879 0.16232173 5.88168669
-11.45745468 0.06402539 5.73492289
-10.23141384 -0.36219743 5.84928131
-11.04273605 0.74651015 5.76259136
-10.11590862 0.57011050 5.30722380
-11.42596531 -0.23238830 5.60842896
-10.52201557 0.36381638 6.51986504
-11.61544323 -0.66954190 6.81910849
-11.26657200 -0.49496189 6.58262730
-10.83812428 0.62989551 5.63672113
-10.10543346 -0.03103283 6.26152372
-10.49492741 -0.21923988 5.28094864
-10.08156872 -0.17446311 6.09067202
-11.32313347 0.27883583 6.20165110
-9.90266991 -0.11785132 5.95975113
-11.71867371 -0.91240764 6.89216185
-10.25222969 0.13184489 6.29971647
-10.77373219 -1.17629075 5.83468676
-11.52319241 0.14539301 6.19627857
-10.13863945 -0.15372621 6.13414526
-10.34384537 0.13479987 6.32765579
-10.06245804 0.15013592 5.74211550
-9.89788818 -0.26057702 5.84988594
-11.01013660 -0.73604304 6.05765200
-10.66191196 -0.33618206 6.40244341
-11.12341118 0.54816294 5.64013863
-10.94125271 -0.75027490 6.15124035
-11.38467884 0.08819845 6.35971594
-10.74252129 -0.21063511 6.47129774
-10.83676624 -0.28399542 5.16075468
-11.37301159 -0.28608614 5.60744619
-10.02866459 -0.87987834 6.85563517
-10.49187946 -0.00640597 5.50129986
-10.59002018 -0.59924906 6.33342361
-11.32641602 0.43152469 5.70084524
-11.63131332 -0.81454569 4.97853184
-10.68491745 -0.32293609 6.47446156
-9.95276451 -0.77050084 6.85355043
-10.58110905 -0.58830410 5.71206665
-11.41747665 -0.47847039 5.62048435
-10.29714680 0.67227155 6.23912334
-10.87803268 -0.72059786 5.76704454
-10.80928135 0.54623586 5.54797173
-10.88411999 -0.69146180 6.20963383
-9.93152714 -0.88711733 6.75429392
-11.48684788 0.96347088 6.77290487
-10.31684589 -0.53739887 5.67357302
-10.25630188 0.40068787 6.54045916
-10.80018139 -0.58060408 5.50672150
-11.63949490 0.68637866 6.63190317
-10.73582458 -0.84618312 5.96283817
-11.54343128 -0.69442546 5.37586355
-10.93890858 0.77564359 5.99476767
-10.02148724 0.97755313 6.85211325
-11.61829948 0.05523213 6.15569401
-11.07033539 0.08909106 5.21603203
-10.09097004 0.18861970 5.90967989
-11.56150246 -0.73771805 5.38438177
-10.67465115 -0.39714929 6.48060608
-10.62666416 -0.20812468 6.60444641
-10.18478584 0.82704163 6.51282692
-10.91404343 -0.08283051 4.87778616
-9.90223408 -0.87155211 6.76017666
-10.03236961 0.93341756 6.67728233
-10.07153797 0.90065295 6.83667469
-10.46685028 0.68133396 6.08611345
-10.08343887 -0.73250520 6.51888323
-11.83543110 0.02483355 5.93469667
-10.10161877 -0.57085007 6.51114368
-10.02040768 -0.63227540 6.44102955
-10.99168205 -0.58363223 6.16340494
-10.24544811 0.49072719 5.44260263
-11.21694374 0.53996634 5.20566320
-11.80605412 -0.96693766 4.87383556
-10.36674976 0.11135112 6.33739948
-10.15717125 -0.26788872 5.93400574
-10.29846573 -0.55639517 5.53809118
-10.11828804 -0.60524422 6.28956270
-11.43497467 -0.18749890 5.66476297
-11.03405762 -0.43516487 5.31041336
-10.76969051 -1.09859610 5.98007917
-9.99024296 0.86548924 6.69896412
-10.88908100 0.67397869 6.11877203
-11.21648598 0.09862982 6.44193411
-11.38701248 0.61592180 5.33806849
-10.08623219 -0.07869052 5.79218292
-10.21605492 0.47090334 6.17997789
-10.12388897 -0.25011125 5.94727659
-10.95200348 0.02555917 5.14838791
-11.74822330 0.05953804 5.93322706
-11.59680080 -0.82114607 5.21764803
-11.27677917 -0.39945915 5.25813913
-10.65781498 0.01589381 5.10875893
-11.05119133 -0.44652852 5.47291946
-10.47286034 0.04485021 5.34347820
-10.80195713 0.82745105 5.85365009
-9.93351173 0.98093563 6.90523958
-11.46840858 0.34021935 6.45267153
-10.91400909 0.06553406 5.19932842
-10.27906036 -0.53186953 6.53988266
-11.54596329 0.13926636 5.82923651
-11.74833584 0.81183213 6.77213430
-11.31183910 0.07096525 6.43816996
-10.81763649 0.75704879 6.04301500
-10.23606014 -0.30515036 6.19116831
-11.55915260 -0.50143111 6.58819056
-9.86155510 0.94502336 5.00015688
-10.34241009 0.69678968 6.53737497
-10.19340992 0.49769336 6.22365713
-11.63911438 0.13687135 6.01815796
-9.70263100 -0.14306006 6.01684523
-10.51508617 -0.56602448 5.37336683
-10.18061733 0.72842699 6.65433979
-9.92030716 -0.10874298 6.04646873
-10.21173286 0.04611042 5.64872456
-11.41294861 0.20559436 6.32021332
-9.99523258 0.21782240 5.80498791
-10.88357925 0.24557140 5.27719545
-10.12936401 0.44371000 5.52260542
-10.25434208 0.35709676 5.57557440
-10.89763927 0.18869232 6.77351618
-10.67416668 -0.36975902 5.32115841
-9.76812267 0.04393574 5.82105923
-10.97910500 0.58160788 5.60748863
-11.63660145 0.63854903 6.62213326
-10.36184025 0.27464560 6.60850525
-11.51394844 0.23823240 6.03328609
-10.83838940 -0.92186230 5.77338505
-11.41103172 0.54256022 6.43209076
-11.41760445 -0.60644299 5.17163372
-9.93802261 -0.07577745 5.80586290
-11.28929996 0.37496880 5.94619751
-10.14672089 0.45420176 6.51202297
-10.64959145 0.29694530 5.39507103
-11.43593216 0.43373367 5.69636059
-10.35859966 -0.42688528 5.96587944
-10.79348373 0.03080707 4.91020679
-11.47859669 -0.57982028 6.49124861
-12.00704384 -0.03765888 5.93774557
-11.29594517 -0.31957263 5.42741823
-11.00409317 -0.55965036 6.37277031
