-3.87610245 -1.23660922 -15.82915497
3.16825509 -4.02968168 -9.45820236
2.09879804 4.19591570 -14.44622231
-0.91460216 -3.22828484 -17.03338242
4.16061115 -0.05748441 -15.95864010
1.79314613 -4.48624945 -15.62342072
3.93232822 2.10188651 -10.21031284
0.84550881 -0.17524488 -15.36555481
2.19347954 -0.84911275 -11.21728802
3.78151965 0.24356928 -15.86118317
-3.71414161 -3.82385349 -16.39525032
0.29072249 1.16498089 -15.27172184
4.33622932 0.81173784 -16.88627243
2.88909817 -2.71470070 -17.08439445
-3.73441887 -2.22335243 -14.89318466
-3.73482299 3.80070162 -11.60957813
2.10079551 -1.34075797 -9.96580696
-3.33492541 -1.05064023 -16.83824730
4.06551695 3.04818773 -16.27327156
4.11933661 0.46340454 -16.66567612
2.29494762 1.57557189 -11.79469872
3.64418316 -3.32639289 -8.94577980
-0.44390705 3.94274020 -15.71552849
-1.87936676 3.06134486 -16.80156326
-2.82552528 4.01216459 -11.34588623
-1.28400624 0.71056277 -12.09190845
0.07011718 -3.08822966 -16.75573158
0.60413378 3.32597375 -8.54033279
1.69870222 3.17255902 -9.07334232
2.59532833 1.60081708 -16.74433136
3.79852509 1.96103978 -16.68314552
0.59235525 -0.04611801 -9.96910858
2.58659291 0.77299452 -9.28364754
-3.47405243 -2.59255981 -12.88321877
-1.86904669 1.21259820 -13.12728500
3.44802690 3.59297776 -17.26106262
-0.79788542 3.80179882 -9.11953354
1.30258775 -3.82993007 -11.64746094
-1.71489298 -0.79295343 -9.85652256
2.53530478 2.58477044 -9.20303726
3.86345053 4.05288982 -9.26309776
-2.85858250 3.79569173 -14.54437351
4.16500950 3.67161202 -15.32101536
1.04232502 -4.54110050 -14.02197456
3.87599039 3.12343979 -13.15034676
3.65576315 -4.20289087 -16.31893158
-2.73363614 -2.14921570 -12.36539745
1.45451784 0.90490979 -10.38555431
2.58390784 2.10014033 -11.47872639
0.61447132 4.37623644 -14.32056141
3.74439979 0.30750620 -8.33409023
1.00639391 -2.38222051 -15.90095997
2.30776525 -1.71453333 -16.11032486
4.19747639 -1.34141350 -16.66215324
-1.54982543 -3.75186253 -9.90329456
-2.70870972 -2.11360526 -11.98048210
0.36716977 -4.02244949 -16.17498207
2.61004543 -1.38533747 -11.00969696
-4.17409229 3.05837560 -9.33466625
3.55153537 1.41641116 -16.97944641
2.16938710 1.97659886 -12.57128811
-3.94517112 -3.41556454 -9.54543304
-3.77541566 3.83610868 -8.82961750
-2.68868041 -4.04177237 -14.43852806
1.86825418 0.08514655 -11.62541962
0.79933667 1.52142286 -15.79953194
3.12893629 2.36061788 -12.50728893
-1.62226677 4.28577757 -13.19585514
2.28061199 3.85215449 -9.29105377
-0.44493759 1.06276667 -15.41933250
-0.66733414 -1.03312552 -15.73343849
-3.65757680 4.18270063 -14.78247261
0.19293495 4.28558683 -16.75012589
-1.29448438 1.37891448 -10.29580402
-1.47532928 4.05400085 -12.34581089
3.63298154 -1.96283543 -11.33671093
1.41363013 3.37594461 -8.99659729
1.67118669 -4.20507288 -11.49902821
-4.02150536 -2.88973117 -13.78940105
-3.20014834 3.99388695 -15.96397495
-3.17120767 4.03314447 -10.76641464
-2.99025869 -4.21112490 -16.09508133
3.78674221 3.17342973 -12.00411987
-3.50233245 -1.93353033 -15.36000729
-2.30678606 -3.80559492 -14.45112038
3.91744065 -3.78809953 -14.95121384
1.99134421 -3.88782597 -9.48421383
2.13336039 1.25018203 -11.35983658
-2.26832867 2.25133133 -16.52996063
3.15565825 4.14692497 -14.13276100
0.80555326 0.76059490 -10.15426826
-3.96949148 -2.34351778 -17.23876953
3.66085649 -3.45554471 -9.47479248
-0.68389732 -3.97943497 -14.88464451
-2.80185246 3.99970579 -11.29595375
3.75831103 -1.50669682 -16.03968620
3.57340360 -0.72918385 -10.35204124
-0.23230284 -3.87445092 -14.99461460
-3.74488902 -1.07685590 -10.40642929
4.15109444 -4.39026308 -11.70221424
-0.23402962 -0.92930061 -10.22263527
1.69315803 -1.94239473 -11.82467461
3.80915403 1.80564344 -14.81271744
-3.32252121 -2.44822240 -11.84561920
3.76309991 2.22487354 -11.37772751
3.03018594 -2.44781923 -12.21570587
-3.88682389 0.84791034 -16.02128601
-2.44897151 -0.35033596 -14.84604740
0.63170683 -4.27915335 -15.45499229
3.62030697 1.33541274 -14.99699211
0.90860027 -2.81819677 -16.89116669
3.21953726 0.76339179 -10.64863968
1.95092571 0.61628509 -12.60771084
-2.96106625 2.30268359 -14.48399544
2.58594131 0.85623223 -10.08727837
0.44198477 1.69870758 -10.01600552
4.25700092 3.23516917 -9.90406609
0.85263395 1.86500931 -10.21497822
2.91161084 1.49746382 -10.97095299
0.36879423 4.20226717 -9.01227856
-3.85976315 1.89543486 -9.40956879
3.00972056 0.44553107 -9.69831657
-3.66460586 3.80803847 -16.80036545
3.46466303 2.10484266 -11.57459545
1.48206115 -3.56377864 -9.48508358
3.70035291 -0.24971712 -8.96966743
-2.31441808 -3.32665467 -16.86059380
1.13976145 3.68342090 -9.11286354
1.66619682 0.36418372 -13.06214046
0.50677842 3.88070202 -11.43220329
4.31828499 1.21427739 -16.37662506
-2.55363584 0.57723361 -10.61206245
-2.04488254 -0.15281561 -12.56562996
1.37331498 3.68302393 -14.41536236
-3.69702506 -1.41659081 -16.90078163
4.03734303 -0.11477792 -9.34408474
-1.18674040 2.00419164 -10.05518532
2.10566139 1.07618999 -9.89455986
4.28209639 3.35796499 -11.77166462
-2.90974450 4.59983158 -11.25209141
-3.54901409 -1.94262910 -8.78487206
-2.01165462 -0.96750379 -10.03987217
4.27826214 2.34431767 -14.92318058
-0.59375089 4.62710476 -13.77645493
1.93990064 -0.47897166 -13.52919769
-3.86713457 1.53703415 -9.13791370
0.95805532 -0.00386964 -15.24355412
2.43755269 -0.55253881 -9.99716187
-3.92833185 3.82537198 -12.13158512
1.13681340 -0.07417350 -15.32712364
-1.87588239 1.35414660 -12.30552578
0.75748414 5.18523026 -12.77119064
1.80304718 0.17264538 -10.29237080
-0.19641340 -1.97937214 -15.80643463
-4.18709612 -2.96923876 -12.23995495
-2.23648310 -3.99816942 -16.42802429
-3.81385040 2.26419878 -13.74878311
2.83412480 3.99040842 -12.98143387
4.06051826 0.01117107 -8.73046303
-2.43568540 -2.11864734 -16.43689346
0.64171714 -3.82160759 -14.42774200
3.44042730 -0.02639687 -9.04842472
1.61166656 3.99309897 -15.14191723
0.76380265 -5.39533854 -12.15431309
2.81006408 -1.53147352 -11.50071907
-0.65956169 4.24430847 -14.20233154
0.84261549 -0.85097504 -15.60132217
-2.15184641 -0.01012222 -15.33901501
-1.64809501 -4.53753805 -12.28636932
-1.17603469 0.22082862 -10.57950211
-2.40543938 -3.96722651 -15.43733406
-2.25372577 1.01113248 -14.93562222
-1.20833039 3.86934495 -9.14813232
-3.75386405 -2.39770865 -13.80984402
-4.11068630 -1.67197001 -15.23652840
-1.17930770 -4.18243122 -8.99986076
1.88900828 3.81071758 -13.08933735
1.84567571 -3.77497506 -10.94343376
-3.47986603 -1.34652233 -10.90685844
0.43506178 2.76488066 -9.37518024
3.79659390 0.33923423 -10.46203995
3.63626242 -2.30439091 -10.34353638
0.93963504 -1.06306732 -15.26516819
-3.21733379 4.07257891 -14.90510845
-2.15596366 -1.35866165 -11.13639069
-4.16060781 0.26656383 -9.51832771
3.18462205 -0.54382998 -10.60511589
-1.42092013 2.65725398 -9.24191284
-2.42340207 -4.53762054 -11.11568642
-0.94759905 -4.03358459 -10.26155090
3.96741414 2.85989070 -10.88093758
-1.86813796 -4.29591846 -8.92646217
3.84864306 3.42673230 -11.38396645
4.09223604 -0.41547775 -8.98157883
-4.02035332 0.46375760 -15.81715584
-1.65177357 0.93799621 -14.54659653
-0.11878370 4.11633921 -10.68588638
-1.75933456 1.39752448 -9.71370602
2.82981849 4.11844873 -16.61895752
-3.25243998 -2.63194060 -12.78154945
0.44701612 2.51762486 -15.95387268
-0.55617332 -4.17919397 -9.11913967
-0.47205153 -5.35996771 -12.76109695
-4.20061588 3.46607018 -13.98470116
-1.14790189 -0.14877018 -10.12644291
2.26159263 -1.45357287 -16.31492233
3.27540135 -3.96304202 -14.55542183
-3.08958745 3.95283055 -12.20904446
0.32134700 -2.36432052 -15.85942936
-2.53697848 -1.49048710 -16.96284866
-0.32264727 -4.70073652 -11.62564468
3.74788499 2.59180284 -11.58062363
3.56043601 1.35642588 -9.27394104
-2.15256858 -0.11168012 -14.99989700
-2.93354106 4.06091309 -11.33909798
0.80535042 1.77567995 -10.06633186
-3.91628242 2.04077840 -10.05568790
2.20836806 -1.03561461 -9.72448349
-0.69193858 -2.15220165 -15.85566044
-3.97594190 0.35343680 -16.32530212
-3.48052263 3.81001973 -16.53618240
2.23489952 -0.99453503 -10.87923622
-2.98977327 1.20673156 -17.02210808
-4.23148823 2.13292909 -10.17800140
-1.78693044 -3.84423280 -15.63596344
-2.68086696 -2.37718534 -13.57481003
-2.65443254 4.03140831 -14.53539181
-2.96906543 2.56023431 -9.39744759
2.60035825 -0.79870909 -9.60529804
1.35822606 3.95312190 -14.25233078
-0.52444816 -0.81304491 -10.23955345
1.81612194 -3.69838238 -9.52673626
1.48344147 0.57200521 -11.42550945
1.76146162 4.12306356 -9.87177181
3.82875466 0.46344861 -10.04971981
4.12970066 2.12524080 -16.59542847
0.18065159 2.49867177 -15.42132378
-1.10642946 3.93738389 -10.40659618
0.01471586 -4.31078863 -11.22451305
3.56902385 3.04878783 -8.82180405
-3.81108475 4.11613607 -14.74786282
2.81996489 3.38030148 -8.99917984
-2.77470446 2.92636824 -13.28542614
-4.18670034 -3.00304961 -10.63820839
-4.08870506 3.47966003 -13.99059868
3.27293873 3.89430857 -10.04943657
1.93937719 -0.82504183 -13.05279636
-3.89779282 2.81607771 -16.38155746
-2.39498806 -0.28491357 -15.22422695
-4.25806952 1.49105716 -10.33227348
-0.23894207 -1.89953101 -15.38849640
-2.38105297 -1.98296404 -11.71098995
-1.24672425 4.16544724 -9.97086048
-1.62306714 -1.49081600 -12.80188847
-3.36198020 1.29364514 -16.91543579
-1.70459747 2.23011017 -9.67382908
0.40687373 -5.08971786 -13.70311737
1.15941548 -5.29739523 -12.77416515
2.50030375 -1.02112269 -11.18912792
-2.11045814 1.02849054 -15.86127281
-3.86981845 2.01260328 -14.68589687
1.03013361 -4.35569525 -11.58181572
2.55894613 -4.05703545 -12.06840801
1.84617817 1.19888115 -13.82325172
-3.07053280 4.22380447 -13.01621628
-3.92835665 -2.93257570 -10.56129646
-1.02847111 4.19688129 -12.43554878
2.97858286 0.11108459 -9.39588737
-1.82810128 -0.60591453 -15.69272900
-3.80492306 0.88851047 -9.03811932
-3.08708549 -2.47451591 -13.80322361
-2.64113951 1.23251772 -14.78759289
-3.82455540 2.37770557 -14.30455208
-0.90469301 4.04036331 -15.16800976
-0.04232544 3.53082418 -10.37424088
1.78785264 -0.66883528 -12.68150806
-1.47188246 -4.27555704 -8.99747849
-1.75411236 1.02750838 -16.61281776
-0.05559694 -3.93718076 -8.73911572
-4.10499191 -3.69063997 -16.64378929
-1.67631841 1.04588294 -12.34435558
2.18796515 -1.50296545 -9.67184830
1.52887416 1.14642084 -12.68020344
2.82877016 -0.54382414 -10.65408897
-0.05243313 4.03443336 -16.58872414
-3.31418705 -4.07634068 -15.83761024
3.28211808 -1.12292969 -11.02761936
-1.65197015 -2.23141932 -16.22044373
-4.02173853 -1.19988251 -8.90336514
1.11930275 3.90642452 -16.49754524
3.00463963 0.06634180 -9.16943359
-3.35213757 3.92109990 -16.17956161
-3.60478568 4.01206112 -16.36646461
-1.48064280 0.41109142 -11.88789177
0.35448644 -0.94108701 -15.52464676
-0.76807863 -1.77791083 -15.56240845
-3.35913348 3.43353415 -16.90519333
3.06413174 -1.94874382 -11.97774982
-0.78450716 0.53356308 -10.24537659
3.30877948 0.33545730 -10.47008896
2.09778047 1.16304398 -15.52617645
-3.42008471 2.66792774 -13.18721485
3.61889195 -3.22831035 -11.03260803
-2.28314877 1.22316241 -9.71902275
1.79418898 -4.27187777 -13.00865364
4.21245098 -3.97292352 -17.19395256
2.90992451 -0.56706697 -8.89696789
2.76261210 -4.04602385 -11.05850601
3.88217044 -4.04342794 -14.64915276
-2.29911256 1.18499744 -9.74805927
-2.35459471 2.42095542 -8.50138855
-4.16231823 3.72678685 -13.01141357
-1.09542072 -0.96250117 -10.10912323
4.10338640 -1.61215448 -10.64684010
3.49362636 2.96757078 -10.56631947
4.21044779 -1.57876420 -15.89757061
-3.34606910 3.77390885 -10.93387699
1.74222612 -0.92221981 -10.36270809
3.33722806 -2.92368913 -8.94706249
-2.74354386 3.79689574 -15.15169144
-0.78480577 4.64313698 -14.07217979
-3.98554540 -0.55115211 -16.22482300
1.49376881 4.26228666 -14.31527138
-4.25693417 -1.63306880 -15.36069870
1.59698701 -0.03600430 -12.44539833
-3.33141613 1.12310183 -15.13038921
-1.38013732 1.02358043 -11.92999649
-0.38500321 -1.26376235 -15.66374969
3.57211399 3.93054223 -9.38416481
0.96586013 -2.24283886 -15.77793121
-2.33536887 -3.99726439 -16.31388664
-1.25332463 -4.41768932 -16.49269104
-3.56477571 -2.26758862 -12.30825996
3.60571933 3.88568521 -10.30779266
-1.32558489 -4.24929619 -11.97779274
0.65149301 -3.74668145 -15.46619797
0.37205657 -0.00897272 -15.36444283
-4.00161934 -2.47673917 -11.32327557
4.06738710 1.48684597 -16.01972198
1.93535709 -0.51122522 -10.31661224
2.09758663 -4.02299643 -9.76877403
1.57723284 -3.85309958 -10.91371822
-0.04450569 -3.75331330 -11.12141037
-1.92972910 3.99671912 -13.66772938
3.48503685 -1.96050906 -11.33061790
-1.18344998 -4.44918871 -11.92954063
2.81252980 1.29663277 -8.84551907
4.14213657 3.18008113 -10.75621414
0.30568671 -4.15965080 -14.59935188
-2.13355708 -1.54686666 -9.62555790
3.81063843 3.37671638 -13.10989857
1.98161137 1.80312383 -9.64844894
-3.58725643 4.32444906 -8.98330402
-0.02035225 3.93369865 -9.10061455
1.58081937 -0.01613834 -12.66420460
-3.95565104 -1.61116898 -8.87332916
-2.45005202 -0.14352821 -16.52355003
-3.11714339 -0.87320364 -16.86126900
3.92419434 1.93771040 -8.89443302
2.43645620 1.96590924 -12.37625122
-4.07220268 3.60596991 -15.64224339
-3.94314575 2.56437778 -10.70571709
-1.63131559 1.78392565 -16.46875381
0.80262977 2.45550394 -16.14974213
-2.25300860 -1.93712616 -13.60908508
2.91755819 3.95418739 -14.86489010
2.36267781 0.88109952 -15.18746376
1.87364984 -0.48739564 -15.23221302
-0.27360302 -1.06679046 -10.42419434
-2.47783351 0.31415081 -15.74687767
-2.41325808 3.91935563 -14.97342682
-3.73764014 -4.07643127 -15.44901657
1.51608086 4.75166416 -13.15974617
1.67181408 0.97059274 -13.80713749
-3.84116173 4.18332148 -10.11879730
2.97081041 2.29154944 -12.72108078
-4.20621395 -1.93666887 -10.60961342
-1.35849321 -2.25861096 -16.41204071
-3.44857883 2.55598521 -13.73743343
4.43001747 2.86177802 -10.27606678
2.74835610 1.37528443 -8.90464401
3.38536930 1.94127965 -14.63618660
-1.81872475 -3.63860321 -16.90896988
-1.13126254 4.13740778 -15.77643204
-2.52450895 2.80639195 -17.24697113
-2.62854624 -4.10415411 -9.52019882
1.68211925 -0.09958182 -10.01576328
-3.82675767 -1.01290524 -9.11458397
-0.74680871 2.39387250 -15.99501419
-3.01573777 -1.98257601 -13.65308762
2.51368213 4.23551416 -9.94441605
-3.89679074 3.12022448 -9.98699474
-3.95829749 -3.34986615 -13.23285961
-0.75234568 5.25866270 -13.98671722
-3.60524940 0.84180754 -9.22595215
0.30870387 5.10934019 -12.19553185
-1.12694514 3.95560288 -11.94687748
0.73727357 -3.67633796 -15.43994427
1.86079133 0.75779867 -10.07796764
-3.96820283 1.86665547 -9.96633148
2.29201508 -1.07268131 -11.17143726
-4.07617092 3.15619612 -11.76612377
0.26286176 0.32021722 -10.29635048
-1.48516214 -4.48709154 -12.84013271
-3.28260946 -2.43814349 -14.39454460
-1.00046515 -4.02412271 -10.14098835
2.52236223 -3.60762191 -15.43164349
2.35529160 -2.85316849 -17.20997620
2.28369427 0.99487525 -15.15106106
2.15815735 -4.20649481 -13.43599033
-2.54902554 -1.67891288 -14.15790653
3.51272559 -1.75918806 -16.75799561
2.96990752 -1.73015714 -11.04783726
3.54659605 0.63821304 -15.12801552
1.93353534 -0.45383650 -11.04093266
-0.00967776 5.02638769 -12.55333805
-3.80760384 1.23917770 -15.13146114
1.62411880 0.19358616 -11.42252541
-3.19101357 -0.95088321 -15.64662838
-4.19720554 -2.68169022 -12.40721321
-2.28504086 1.69656444 -16.06039810
-3.35446835 -3.18129468 -16.89905739
0.62889010 -2.35528064 -16.03794861
2.08538747 -4.20158529 -16.03293610
1.67151535 -3.47829437 -15.28204727
-0.68699759 -3.88308358 -16.74639511
-2.60229802 2.51845336 -8.79754639
-2.16380930 -4.14367247 -13.12693882
-2.08276796 4.02180099 -11.79772377
0.16217060 0.60003698 -9.87390614
-2.13733101 1.31127095 -15.94155693
3.78322268 -4.48662329 -13.30664825
1.22654784 2.12341547 -9.88476181
-1.69089079 1.29106557 -15.35021973
1.60968983 -3.00605083 -16.85023880
3.91892195 -2.95721555 -11.80585670
1.41872859 -2.50890732 -9.38881111
4.24499035 2.60425401 -8.87609291
3.37950826 1.44506717 -17.15538216
-3.56333351 3.48401952 -9.12079620
3.36917377 -3.97257495 -11.25395203
0.97430545 4.44371653 -13.08382893
-3.98916149 1.88180435 -14.42266750
3.46052122 -3.86908817 -13.20150852
-1.47808635 -4.42939615 -13.99132061
-1.48387635 4.03314066 -10.91548347
0.94425362 -4.07842350 -14.52350807
1.69829798 -1.46521175 -11.58844852
0.33922023 -0.18264972 -10.22181606
0.29322505 1.11929977 -10.23287678
-1.58376241 -3.42177987 -16.54600906
2.46208048 4.18100071 -10.99704456
-0.13239978 1.38709188 -15.39308643
-2.60439539 -3.61116028 -8.58453751
-1.96984506 -0.99737817 -16.08087730
1.69387734 1.23859990 -16.34801865
2.23085022 -1.48756218 -11.60620117
1.92531681 -2.00854087 -11.74991035
-4.12358284 1.48460841 -9.66958618
3.91592002 2.64577675 -16.48258018
-3.71124625 3.02988744 -16.90167618
-2.30113983 3.92326736 -14.50536633
-3.45851707 -1.19343007 -9.25684643
3.75636148 0.37009555 -15.98266411
-1.97694862 3.66048265 -15.00971031
1.83735049 -0.09308989 -14.96380615
-3.31200624 0.10134418 -8.89265537
2.30759358 -3.84193420 -9.04385281
3.88572383 -1.67984843 -8.80480766
-4.34078503 3.02985311 -16.59344292
4.08677816 1.86332309 -11.04271698
-0.02832505 0.67678499 -10.21746635
2.95523906 2.04209971 -14.56186771
1.48306501 -3.95846772 -12.42881870
2.22086287 2.99291921 -8.89300156
4.17519760 1.14016008 -15.67736053
4.28848648 0.02839013 -17.05446434
4.08912754 -2.82026720 -11.71620464
-2.52737594 3.57988763 -9.23722458
-4.11115217 -3.05370498 -16.01711082
1.84509790 -3.83969283 -10.92007065
-2.13804221 3.90442204 -14.47766876
-1.39970064 0.27803594 -15.74851990
0.89202136 3.30768466 -8.89441013
-3.93191814 3.18227983 -15.69410706
-1.68563771 -0.40544596 -12.36451149
2.83362198 0.84617281 -10.59888744
-1.68505299 0.55290532 -12.00017357
-0.51344621 4.40211916 -10.96748638
4.04781389 3.59684515 -16.58811569
2.78010535 -4.06492853 -8.88549900
-0.60377783 -3.69905901 -8.72785568
-1.92353821 -2.50072765 -8.71096992
2.17804599 2.17720628 -13.75859642
3.92713928 2.99766421 -9.70877647
-0.03367485 -3.82245111 -15.99682999
2.91426110 -3.98015976 -16.63683891
1.97481072 1.81307018 -13.95273018
4.24088383 0.51797593 -9.30115318
4.01682329 3.53656936 -13.06854057
-1.73275709 0.80339515 -13.11770535
-2.48134160 1.33693612 -16.37940025
0.58587080 1.00092185 -15.90752125
-0.33230290 -0.45571491 -15.82112312
0.40261796 -3.91638494 -16.60903931
-1.39323974 4.17930031 -13.24777889
-2.39671755 -4.01967525 -9.50578117
0.51050860 0.64572632 -15.53346443
-3.23561740 -3.65754175 -13.28274727
-0.84662837 5.01274109 -12.57161713
0.27835760 -4.21133900 -15.32933617
4.10029602 -3.18846321 -9.39516544
2.29278731 3.63371825 -13.71248531
1.47033536 0.05618193 -11.50504875
0.20899613 0.37557530 -9.92727757
-0.77616513 -3.90865302 -14.83973122
-3.59292507 -3.88217711 -9.53110504
-3.94968081 -2.37483621 -16.10788536
2.90868044 -1.89782548 -13.84305286
-1.90075827 0.39426520 -11.13034630
-4.33466387 1.07437217 -16.53652763
-3.37127018 3.94439077 -9.62026691
1.10187316 2.91060734 -8.85351086
-3.97228479 -3.41087174 -8.95327568
-0.74060303 4.25106001 -10.82315445
3.12295485 -0.37900206 -9.98898029
-3.43817878 3.87038565 -14.31836891
-2.05157161 -1.67706108 -13.03734684
3.04527187 -3.25445843 -16.98617554
-3.95965743 -3.75854349 -9.80102253
-1.59941387 -1.16359925 -15.35204697
4.04038048 -2.25752521 -9.36328316
3.00920701 -0.13097917 -8.81189442
3.65714121 -2.80758381 -16.59287643
2.88860321 1.78517413 -12.04007244
-4.00242853 1.85117328 -16.23369408
-1.91502500 0.25314397 -15.49257183
-1.16364789 -1.67080915 -10.48717690
2.69004941 3.92161226 -10.11397171
4.03429937 1.28577960 -16.70845795
-3.97973347 3.45842600 -12.82981873
0.98456073 4.11414528 -9.56556129
1.70994341 3.98307705 -13.85820103
-4.23753405 -2.44231629 -10.16419506
1.83224630 -2.96227074 -9.11267185
2.05154872 0.94370401 -14.80864620
3.13208914 -1.39287996 -8.93083191
-4.33769035 -0.16648613 -16.90595245
1.45045960 4.18155766 -15.51517868
1.52826869 -0.89321214 -11.60241413
3.03559875 3.78628802 -10.71133232
-3.47470903 -1.65838361 -10.67960453
3.18515825 3.35057497 -9.36256027
2.81448698 -4.03446150 -8.91511917
-1.47582531 -4.61087561 -11.61144447
1.96155441 -1.51352918 -9.94117165
1.51787186 -4.33057976 -13.08709049
3.02407336 1.24141586 -16.67280579
-3.62450647 -0.40883115 -15.67440510
1.57029009 3.90797782 -11.35870361
-2.42521238 -3.77075410 -14.76618576
1.26518691 2.09870982 -9.75685692
3.64744473 -3.29953480 -15.32845306
2.86508679 -4.07831001 -9.28405380
1.17718041 -5.34210968 -13.63145351
-2.50358772 -3.98035121 -15.95603848
-2.91871285 2.33496857 -13.31290817
3.62845469 -3.90480137 -14.48265266
-2.23040485 -1.24698865 -14.55172157
-0.11915839 -0.51310426 -15.36898613
-3.71789861 -3.17105818 -13.82790756
3.32316351 -0.29288396 -8.92128086
3.31310749 -0.61689138 -8.56180000
2.18335986 3.01558566 -17.33496666
-4.05840778 -2.21967459 -9.52650738
-2.68629026 -1.76335788 -14.12778664
3.20481348 -3.80963922 -13.37094784
0.81678540 3.64970016 -10.66208363
2.98779106 -1.69519985 -10.72503948
-0.28846487 4.65183163 -11.16907501
3.24110389 3.98081923 -12.72201538
2.19593883 -2.75318456 -16.73176765
2.62835145 1.32186341 -9.08319092
-3.89337707 3.81452346 -14.38408470
3.85855556 2.85892892 -13.14498138
0.54245263 4.05785799 -16.74106026
-3.76664877 -1.05418301 -9.54465866
-1.80106795 4.03672123 -12.21508694
0.84255600 -1.71050620 -10.34100246
2.60811472 -0.61269212 -9.11006165
-2.27393818 3.93610168 -16.20695305
3.59953904 1.01565504 -17.02330589
-1.47279835 3.49640727 -8.77174950
-0.51624596 0.78196359 -15.44172764
1.82810950 1.01808226 -12.28689098
-0.22863987 4.33909225 -11.33314705
-1.81779826 -0.05451887 -14.68774700
2.91533375 0.58821434 -15.24898911
1.92536688 -1.24706876 -15.68848705
3.66978073 2.28112149 -14.51037502
3.59399128 3.69310069 -8.90285301
3.84899354 2.94067287 -14.90006161
-4.19494152 -2.12093878 -14.80737114
-3.13801455 -3.58363008 -16.03457832
4.14656305 3.03199625 -16.27540779
3.80207181 3.41241312 -11.95447063
-3.38575292 3.88807368 -12.09146786
-3.17084217 -4.50410223 -13.09717274
1.73229158 -3.87370491 -10.66498852
1.15766573 -0.80275011 -15.39823914
2.57772374 4.26553011 -9.41206837
-1.20189774 -4.18645000 -14.92241478
2.57668161 3.81482244 -9.90261936
-2.08370543 -2.40225530 -13.58048916
-0.22983266 -4.72167492 -11.41732979
0.95932162 -3.55997300 -8.99910641
4.08802986 -3.47689390 -14.36201286
-1.06936824 -1.48255861 -15.78672504
-3.30073786 1.26356041 -14.89789391
3.61233306 4.01270962 -10.25673580
3.43538952 -2.38466215 -8.94557858
-4.03362322 -0.45020607 -16.22825050
4.27492142 2.68539977 -16.15293884
-3.20686293 2.67896295 -13.78952312
-3.46748805 1.54335773 -8.86249924
-0.00836893 3.88971329 -15.11918259
1.53386319 -0.47432509 -11.93908024
-0.92762947 -0.48621464 -15.52888012
2.64921355 -1.21930933 -10.62730694
-1.88556945 -4.14951944 -14.81759357
3.82869077 3.56259561 -9.09864616
1.71341217 -2.06969404 -10.04962158
3.35483789 3.83184385 -10.45579147
-1.68680584 -1.95510900 -12.05694389
-3.87386370 -2.60292029 -8.77439880
2.83873129 -3.59686899 -8.95823669
-2.19919276 0.44826865 -12.77992916
3.71234846 -4.24802685 -12.30860138
3.88612318 0.07412574 -16.39474869
-3.10653853 -0.98560989 -15.37309742
0.59669781 4.13950443 -9.18535423
-3.42844391 3.46134830 -17.07492447
4.03270435 -3.87967062 -9.77057552
-0.31122366 -1.39019847 -15.45550537
0.15822017 -4.91599607 -11.97961521
-3.19744658 -1.96679783 -11.79038429
-1.98499358 -1.61022592 -13.48628902
2.47352099 -2.28080392 -16.71601105
-4.18798304 -0.07673983 -8.80436516
-2.08168602 2.08576322 -9.54465485
-1.73136663 -0.41946840 -15.78984642
2.80917931 2.03373933 -8.73922920
-3.87085605 -2.15395594 -15.20229816
-3.84027195 3.38922048 -9.16306496
1.36985588 -0.25348285 -15.47763920
-4.33658218 1.49146235 -9.86153221
3.51869798 1.33257163 -8.39611053
-3.20098281 2.53973722 -12.43728542
-1.84543359 4.02749968 -17.17251015
-4.07067966 4.07473660 -13.35371780
3.69762516 3.70028973 -14.25757217
2.43098521 -1.59290123 -8.53698158
-3.36419654 -3.88638377 -14.67143917
2.93525481 4.06728506 -12.58938599
-3.84452152 -3.36406684 -12.51307297
2.69932055 1.33856678 -14.30808926
-2.30964041 1.57579899 -13.46325779
-3.07732105 1.49010479 -17.01908493
-1.82353818 3.79215479 -14.48014641
3.73625350 -4.03226233 -14.58926105
-3.02798486 -3.78656411 -11.89758968
-4.01874399 -3.04031348 -8.59407234
2.19989491 0.21459202 -11.36249352
-0.70072687 -3.10873961 -16.88335228
-2.81619239 -3.62685633 -9.89148331
-0.68485004 5.12368250 -13.61539650
-1.96451044 -2.14442825 -12.61999130
2.59094071 1.57836068 -8.86459923
-0.28548485 4.10507154 -14.27493382
1.84263635 -4.20442438 -16.56799507
-4.10578680 -1.27210057 -16.06627655
-4.05988359 2.04933715 -16.09733200
-1.29188263 0.70405686 -10.66901588
3.99597216 -2.48427558 -16.32524300
-2.09478259 -0.18017246 -12.63915062
2.32446694 2.37662578 -13.74595928
2.30276513 -0.91825855 -9.26533890
-3.52923846 4.20796394 -8.50093842
3.86246705 -0.69699770 -9.89943027
1.87839913 -3.91850471 -11.33770752
0.35160553 0.02500948 -15.44519806
-3.14102030 -1.71709895 -10.97550488
2.51151276 -0.95804197 -9.94675827
-3.29236484 -1.80671513 -14.64185429
-1.52601063 3.24547195 -8.76183319
1.12853384 -4.69051123 -13.51999855
-4.06387234 -0.44104728 -16.43892860
4.10854673 0.43242857 -9.74260044
1.91723347 -1.59789431 -11.41263103
-1.06336963 -4.22491598 -11.48939037
3.72534084 -4.10074234 -13.22631550
-3.29514909 4.15740442 -11.17691231
2.05939102 -4.29698277 -12.86721325
1.61991048 -3.58473635 -14.22646332
3.76965737 -3.01263785 -10.84495544
3.03320265 0.59700555 -9.07119751
-1.57246411 1.09007144 -12.95206833
3.13963628 -1.52435184 -10.92856121
1.48762751 -0.25774896 -10.45822334
3.98771310 3.02485108 -9.11762428
-0.40140492 1.30518365 -10.25228214
4.06036425 2.33530712 -14.77870941
-4.02740526 3.33233714 -12.84403419
-2.20413232 0.95870453 -16.68016624
-3.16491604 2.98447514 -17.25769043
-2.89395499 -2.39790654 -12.08435822
3.73268461 0.83873206 -10.38311005
-3.16844726 4.43311167 -14.49107552
1.65462482 1.16020417 -14.50985909
3.31959796 4.23998451 -16.82471275
-3.02779937 -0.02454558 -16.49029160
3.99122453 -0.67019778 -15.81710434
-0.00648256 -2.99362397 -16.79326248
-3.45838904 -0.65359253 -16.54678726
0.03433019 2.79079700 -9.59247017
-1.87933171 4.21814299 -14.69243526
1.25705349 -4.03928137 -15.24692726
1.70217323 3.75247383 -11.25041103
0.35264298 -1.93524396 -10.20955467
2.21988344 -1.53660738 -11.78575039
-0.84239912 5.33854246 -11.93266010
-0.52512127 4.13035011 -14.50705719
-1.40015793 3.52977157 -14.67806149
1.18642557 3.33572292 -16.80611038
0.48646533 1.64445233 -10.66244316
3.69917870 -0.37411320 -9.99503422
2.80286789 1.92521310 -11.59019661
3.80421352 -4.05937529 -14.31513405
-3.94667315 2.61363459 -14.38850403
3.15155387 -0.37143120 -16.94218063
-2.58851290 -0.44781929 -10.60799408
1.89870405 3.81688356 -16.14531517
-2.79290795 2.26815033 -13.64326668
3.45839071 4.12646055 -15.87621212
-0.13094278 -3.99089170 -11.07603264
3.91704488 2.28474069 -8.73614311
-1.03636467 2.24290276 -16.32725334
2.21961665 -2.69245553 -8.93859100
2.79863524 1.94534016 -11.48037148
-2.89023161 -4.14823914 -16.42285538
-4.21270561 -2.56818676 -16.65135384
0.94498122 -2.59503555 -16.44735718
2.38348103 3.91579151 -9.17765617
-4.27479839 -1.68397546 -15.29319191
1.61302590 -0.07869299 -10.99725533
-3.63853645 -3.84899712 -14.40227985
3.62466884 2.51181483 -9.06825256
-4.14372635 -1.06992745 -10.39547729
-4.04074097 -3.31805348 -11.23874474
-2.71132827 0.58901203 -14.83355427
3.10258651 -0.63672751 -10.31314754
2.64677620 2.38457322 -16.95835114
1.22935760 5.04079342 -13.41027164
3.76195860 -3.09856796 -16.87153435
3.18555713 0.35524678 -14.96663189
3.31486964 1.12867570 -15.12333870
3.67135167 2.72143269 -8.92172527
-3.94725418 2.41533875 -16.21258736
4.00739002 -1.14625156 -10.62150002
3.04761457 3.83432293 -16.11521530
3.16560984 -3.85112619 -14.97389698
1.82286263 -0.17815022 -14.39979267
-1.12183213 -3.71004057 -8.80048180
0.50067341 -0.33252004 -10.51448250
1.52841592 0.80409676 -10.08557606
-1.97685301 1.38646090 -12.84454155
-3.98801398 4.23885345 -12.75020790
-1.92079294 2.00393152 -13.07513142
4.12050056 2.39426970 -11.06900501
-4.05177069 1.26421881 -9.88413143
-1.15212810 3.74003696 -17.02238846
-2.48840022 0.32726347 -15.10819149
0.41616637 -2.59114051 -15.44465733
-3.33313084 4.18956757 -10.58661461
1.37595201 3.40519094 -9.22156429
-3.88923717 2.45232177 -9.67364883
-2.28945327 -1.55002105 -14.61115742
2.08834553 -2.21370959 -9.06549072
0.48359486 -3.99143910 -16.72844315
1.35050488 0.86793482 -12.53588486
1.75292122 -2.35510302 -16.91871643
2.45486569 0.24041329 -10.72662640
4.02482414 3.53495836 -15.88955975
-1.06806707 -0.41737679 -15.22850609
2.57663560 2.70284367 -8.59775352
-2.66536379 -4.13299179 -12.38905811
0.56921864 -2.55337214 -9.22029877
3.01089168 4.06078386 -12.38144398
0.49652246 -2.19409513 -16.30034256
-2.54960132 0.49392226 -16.06168938
-2.06644535 -4.04008913 -9.43449974
2.61849189 1.91283226 -8.75917053
-2.04947138 -4.13968229 -14.58974838
2.33381200 1.67244363 -16.83086586
-3.30673647 -2.79478884 -13.10070133
-3.51569581 -1.39464426 -11.02359581
0.11287644 -3.88535380 -10.53785229
1.16346896 0.10735518 -15.78540134
-2.12610626 0.24908784 -14.51043701
-4.21093655 -0.02183094 -16.63346100
-2.45037794 -4.14643574 -14.99032211
-3.62355399 4.02555990 -10.96227360
1.25182986 -3.79534793 -15.85291767
3.98383331 2.88701415 -14.11726093
-3.54541254 2.28796315 -10.14252758
0.53281736 0.24241981 -9.99614143
0.25131804 -5.35031605 -13.86337852
-2.43604875 3.67942929 -8.70981884
4.08822393 -2.95884848 -12.69363594
1.69669533 -4.06465292 -12.72707272
-1.86350179 0.25024354 -14.40727425
-3.88002610 -1.65011787 -16.43548775
4.17860413 -1.43766367 -16.37788010
-2.24853826 -0.38489765 -15.09230804
4.43116713 -2.38899922 -10.83208370
3.30944753 -2.13176203 -16.99308014
-2.92040086 -1.78888488 -16.46448517
3.22649169 -2.95086551 -17.13463211
3.58123946 -4.09756994 -10.44269466
-2.83355761 1.07312155 -16.45636368
1.64241970 0.81485373 -11.26066685
-2.67400169 0.05157520 -15.30697727
3.16001272 -1.01198316 -10.63728523
-1.17482531 -1.05193722 -9.90407372
1.39392674 0.45825911 -10.32404995
-1.58744311 0.43929619 -15.45924950
-4.02205563 2.37995982 -11.22660255
2.49152994 3.55632210 -16.73693275
-1.85697341 -4.21798754 -9.25441647
-3.84390688 -3.89435673 -15.75009346
-2.82375312 -4.24158764 -14.57240772
-1.35511124 2.02032351 -15.77195740
-3.89979053 4.30898237 -14.14282703
2.96196198 3.73398423 -16.81744194
-2.64034605 1.80541515 -16.96343803
3.55749750 4.24857378 -13.72245407
2.89613390 2.34016895 -13.20079613
-4.44393444 3.64756274 -9.66431427
-3.63517022 1.78589177 -13.81905460
-3.61383629 -4.25584841 -15.98991203
2.54863787 1.02143943 -9.72780895
2.90290475 3.77703238 -13.49115944
0.81956714 -4.95689964 -13.93471146
2.36226058 1.86364937 -13.60292244
3.34224844 3.97076631 -16.26779175
1.87154901 0.08357048 -11.78460598
-3.13348913 -2.41220784 -12.48462105
-0.71009344 -4.00766373 -14.78725338
-1.03602409 -3.94372392 -15.91565990
3.73256254 -0.78234458 -8.85788727
-0.63332146 -3.98194313 -9.90266228
3.56663752 1.48134124 -14.93993855
-3.33311105 -4.03713989 -10.68496227
2.14698291 3.64426231 -9.55272675
-1.48828852 2.27877474 -9.59570980
-1.01474643 3.20738935 -16.88779259
1.75258815 -1.38430750 -13.16502953
-1.57532978 1.68268752 -12.25242043
2.97693038 1.87108123 -8.75383568
0.47482923 3.78373098 -14.26701164
0.37419710 -4.45753813 -14.26398849
-2.09464955 -1.37766922 -16.21291351
2.36764956 -1.70175755 -8.88955402
3.73662782 3.24604082 -10.12917137
-2.40928602 -1.09634840 -15.96403122
-3.18265724 4.09482861 -13.68302631
2.19983530 3.92874432 -12.86919117
-3.49504352 -2.69355416 -12.29290199
3.66393900 -0.69089818 -8.78615761
3.69372010 -1.09144080 -15.73756981
-1.18625975 -0.54028612 -10.49631691
2.14673138 -3.47470522 -8.73405075
3.65071750 -3.12630653 -16.79355431
-0.58357465 4.81862402 -14.52978992
-3.84495306 -4.05118895 -12.54194164
-4.07415009 3.17143774 -11.76811600
3.83018351 -3.78949547 -8.68652821
-1.47310400 0.88638306 -13.81921959
2.48356485 -1.80978596 -11.42439747
-1.84939539 0.31512818 -14.47587967
-3.60252118 -1.04387975 -8.82131767
1.97134674 -4.05715990 -16.13553047
4.08876610 -3.20591784 -16.83786964
-1.55723965 -3.98495412 -9.46099758
0.57879192 -4.98484612 -14.11502934
3.77129102 3.72362208 -11.07600594
1.70222211 3.67252970 -15.55167866
2.47057128 -3.63951159 -14.74972439
-3.71581602 0.10822037 -9.10217094
3.01619601 -3.58415222 -16.66680336
0.06904880 -4.00087309 -14.98867035
3.09427738 2.44416380 -14.71721649
3.01256180 -4.16557169 -13.94617176
3.69043803 -1.38303661 -9.01841164
-3.29570317 2.61372185 -13.45439529
-2.70620203 4.18753099 -13.37401581
0.98658544 1.19845402 -10.45338535
2.05286503 4.27853823 -14.33085251
1.77616405 -0.82405096 -10.36649227
-1.97404110 0.50264043 -14.68362236
-1.57236373 -0.23557563 -14.40326977
4.07919025 3.28308988 -9.67671204
-2.37390375 0.26005733 -10.19802570
-1.10613644 2.76423502 -9.44222641
4.28185749 -1.75245941 -17.13668633
4.45603085 3.45254850 -9.65177155
-4.21429348 1.69321775 -14.95582962
-1.14693415 1.28632545 -9.96698761
0.47753277 -2.71639633 -16.37759209
4.02799129 1.70615637 -16.32312965
2.06949043 -3.83147502 -16.49226570
1.74902141 3.84668207 -12.27864647
2.30477715 -1.26614130 -8.95981407
-3.21929359 3.86796713 -14.65702534
-0.65145367 2.73148179 -9.42383671
3.53487706 0.97525656 -8.85017395
0.79888952 3.20631099 -9.04977703
3.21519065 3.98289275 -14.64982224
-1.72694707 4.27599716 -14.44779968
1.39878547 -4.11762905 -11.78154087
2.76108241 -0.23839337 -9.25948620
4.13765049 0.21500264 -9.68441105
3.13326526 4.03927231 -14.66851425
-3.32764626 -2.52871323 -16.59214592
-2.80754375 0.38920259 -9.00956917
-2.58499122 -1.66171193 -16.42620659
2.05535769 4.09611607 -10.85379124
2.79060483 2.53649735 -11.97089195
-1.66541255 3.46757007 -17.34391022
-4.02232170 -2.30121160 -15.69299603
3.13170052 0.48386937 -9.02517891
-3.15647578 -1.77234900 -14.18662643
-3.74585509 0.41142309 -15.54692554
4.04485273 0.26320496 -16.03652191
1.26920891 -4.01345253 -16.31394958
-2.06289816 2.12095189 -13.69431210
-3.23117518 -4.08591795 -16.55024719
-0.28548041 -1.09864855 -15.66741467
1.69328856 -3.21078825 -16.82672119
-1.22486758 2.30548763 -16.14659691
3.23623896 -4.01598740 -10.19136047
1.92520428 2.08931732 -12.63436508
1.45921147 -1.10164559 -12.73177624
2.59689021 0.68011081 -14.99315834
-1.52568686 0.06764939 -13.84714413
1.21843028 -3.64865851 -14.54852104
-4.28117514 3.23980880 -9.34640694
-0.12629040 5.28480577 -13.20580482
-2.29978561 3.79255152 -15.34639931
3.93800473 0.02791566 -15.91022873
-0.73988849 -0.13265666 -10.39685440
0.20682354 -3.81929278 -15.53890419
4.06628227 -3.14698076 -14.31522369
3.75134277 -2.01385450 -10.96072674
-3.73118544 0.83148938 -9.12008286
-0.78374326 3.88782191 -10.01998043
1.18557954 2.36340237 -9.20224571
-0.33848417 2.49737644 -10.20930099
0.28899559 4.32694864 -16.34262466
2.21810460 2.24359918 -9.24470615
1.39010227 1.99311817 -9.23113155
0.42591053 -5.45252275 -13.54735374
3.63942099 3.76221347 -8.98576450
3.91701531 -3.26280165 -15.12207413
-3.36767459 -3.17423201 -16.83039093
3.53141522 1.60203028 -11.36953926
3.87984967 -2.49818635 -15.77870560
-3.10457516 4.21550989 -8.58201504
-3.31632018 4.04010916 -13.04559898
4.13054276 2.59389210 -12.67427063
2.52457666 2.90477943 -9.17667770
1.26295745 4.42450476 -13.04448223
-0.29074591 -4.90556145 -12.32892036
3.52603316 -2.28914261 -13.76140213
-2.30126500 -3.89466977 -10.13665676
-4.21106195 3.56568694 -16.28285027
3.14437771 -2.13824654 -8.74235916
2.65343213 -1.90849864 -12.36370277
3.93738198 -0.90141433 -16.76583290
-4.04292059 2.28094745 -10.60801697
0.16438816 -1.19770491 -15.15645599
1.74770451 -0.16765368 -12.68362522
3.31775570 -3.47781992 -9.00969887
1.18230271 2.67138600 -9.66320133
-3.66435456 -2.19272184 -14.29273415
3.92317557 2.59176230 -14.49145794
4.00052643 -1.77991939 -9.39724541
2.18412638 2.09260798 -17.06055450
3.79038954 1.89953458 -15.23098373
0.37509498 -2.96568322 -8.66451740
0.60503638 -3.87629962 -11.06822109
-3.18516254 2.35588741 -13.75039864
-2.04560995 3.79446840 -10.23565674
-2.66199994 -4.04847908 -10.58255100
-4.01909018 -1.19259894 -16.61629868
3.89657640 -3.47163486 -15.96832943
0.56544930 4.26930666 -14.21840763
-1.73896110 1.93723059 -9.50327969
-1.65972006 -4.06927109 -11.17138481
-4.02112436 -1.95839465 -16.15000916
-2.02177930 2.40884042 -8.73696995
4.19571257 -1.18969297 -9.84755707
4.06885242 -2.22674870 -9.83526611
-1.64630842 -3.24697423 -16.83145714
-3.66005135 4.05095625 -9.46519470
0.34840071 -0.31983340 -10.33984756
-3.80755687 4.03594303 -11.25435734
1.47105610 -4.23806572 -13.46665192
-0.52228874 -3.60468769 -16.38814354
1.42560899 4.35396814 -15.21597576
-2.52233982 0.31159857 -16.45149422
3.75582981 1.66208971 -14.81417561
2.29684234 -2.52526975 -8.90575409
0.92670983 -5.53755474 -12.66061592
1.84377742 -4.47913170 -13.73051929
-1.72655475 -1.07381129 -15.67117214
-3.62341881 -2.28701973 -13.92238617
-4.24453783 -1.45199871 -10.26774216
-3.12050819 -3.88117146 -13.05042839
-0.58026648 -1.57521617 -10.01027489
2.02886701 1.54975498 -16.82018852
0.09860242 -5.18909121 -13.67221165
-3.87093925 1.89134657 -17.24495506
2.36648917 -4.20818186 -10.52000809
1.86484921 -4.03867483 -11.81081486
-3.70511103 3.54201460 -16.97194862
-1.68520916 -0.30011922 -12.15343380
4.05212688 2.35240245 -11.18003082
-1.53161705 2.31502175 -16.33818436
3.41387296 1.24661577 -15.03049660
2.35037160 4.50279665 -16.37221909
0.00791465 0.82475066 -15.44692421
-0.74779075 -3.34351945 -15.33176899
-0.74657130 4.31929493 -16.37789154
0.14716832 5.04643726 -13.88164616
-4.10395098 0.98700523 -9.26744938
-2.57881808 -3.82277346 -9.49691010
-1.42756951 -1.02664292 -12.53985977
-1.30565572 1.26061261 -15.64458561
0.25685459 -0.66483587 -10.28016186
0.47898960 -4.58773613 -14.42807961
-3.91077232 2.97704077 -9.54148960
0.46856290 -5.35661030 -13.36985779
-1.70293427 -3.90333223 -17.12167740
-4.13415337 -2.46047211 -15.35113716
0.80096906 3.68706822 -15.76334000
1.66568983 -4.23853588 -12.96349525
-1.55125070 1.22529233 -14.64756966
2.49995446 -0.83314776 -10.74641228
1.88659501 -4.02897024 -13.76953506
4.09721518 -3.10430336 -15.41520882
3.92738962 -1.65404594 -10.18865204
2.54095268 1.37300551 -9.01261234
-3.57861567 0.77711350 -8.58131695
-3.47283101 -0.91385168 -15.40074158
1.39719260 4.31514215 -14.04314232
1.18087530 4.07304478 -15.00287724
1.20712996 2.41518664 -9.82559586
1.81933415 0.36480552 -11.05596352
-0.12372818 -5.46781445 -13.46795940
3.80159974 -2.94924307 -12.86095905
-3.22729492 3.92820621 -13.81348228
2.67274666 2.67652607 -13.35652351
0.73541921 -0.55562103 -15.59006786
0.53885800 -2.04299092 -15.96703339
2.98206019 0.40013105 -15.33150291
3.71278119 4.04171467 -10.74931622
-0.05029254 4.02069998 -11.09313679
-3.68623018 -3.49618483 -9.90086651
0.23438413 -5.36924791 -13.52699471
4.09981203 2.49407172 -11.02633858
2.26835680 2.18829513 -12.68181896
4.21602774 1.69119954 -16.11677551
-2.77534628 -3.71461582 -13.46491051
-0.14219779 -5.27628517 -13.34425354
4.37916708 -1.96577609 -9.61756134
1.93818545 3.02514744 -16.56298637
1.49566853 4.24469185 -12.14329243
3.02694368 2.48127127 -12.74648285
0.07290616 5.30558252 -12.41295528
-3.89776540 4.08837795 -14.48993301
-2.54618359 -1.30324447 -9.23919773
-0.09553462 -3.14796519 -16.63179207
3.96783853 -1.89302802 -16.19656563
-4.24587727 1.51328135 -8.57603645
1.53676808 -4.01090288 -13.54938793
-1.93222499 -1.56593835 -14.38188362
-1.67402053 4.00875807 -16.46722031
4.18114185 -1.05052674 -16.27695274
3.33670926 0.61172295 -10.24104786
3.00854683 3.92122889 -10.89821529
0.38137648 1.01331830 -10.00612450
-4.04969311 -2.61422276 -15.56868553
-1.48199725 -1.92307973 -16.10315895
-2.07324004 -1.14894760 -14.96020222
1.59758592 1.77713799 -13.65835762
-1.42566800 -2.55344772 -16.82359314
3.98854566 3.61361933 -13.95056057
3.32555008 0.71738130 -8.97679138
3.95601916 -2.32578492 -11.83531475
1.58128667 -0.23361170 -13.23161888
1.59875000 -0.43253639 -13.28295708
2.72454762 4.07586193 -16.56099129
-4.11587334 1.87861037 -10.02746105
4.19174814 0.77228630 -16.89489746
3.72606015 1.95043170 -15.37676811
4.12124825 1.26326680 -10.62045479
1.66883397 1.61625874 -12.13622570
-4.05621624 -2.93245459 -12.15160942
-3.99814987 -2.89823413 -12.48611355
2.42415690 3.99842501 -16.66034126
-0.94704783 -3.95611835 -16.75636864
2.04419947 0.19240925 -14.18424892
3.35494757 -2.56723499 -9.00221443
-3.61811161 -2.66353536 -12.87752438
-1.72826934 0.55271959 -13.96534348
2.72696900 2.18762136 -13.17123222
-0.59827995 5.34490252 -12.91060257
-3.87480783 -3.41325951 -15.74164391
-3.28883529 -1.62517142 -9.07858753
3.47287226 -2.70122671 -12.10942745
-1.40344036 4.04048872 -14.43035030
1.93096662 -0.76944661 -12.11388397
-3.64454341 -3.69177961 -13.74369144
-3.69986200 -4.34077454 -15.34031105
0.73163003 -3.90983391 -15.34417343
0.94851148 -1.81778085 -10.36017990
1.63305151 0.96815813 -11.87564373
3.79737949 4.14633703 -10.99618721
-1.23228145 1.40679312 -15.67584229
-3.94037294 -1.28920841 -10.46644402
2.97438073 1.81679189 -9.06422997
3.89442897 2.56095576 -11.61638260
1.79066861 0.92273504 -9.97414398
3.42405128 -0.75391698 -16.68089867
-3.80137277 2.72196317 -16.91114616
-3.90667057 2.44507623 -10.20855904
-3.84516311 -2.94401264 -14.01178741
-3.58752966 2.55816698 -13.93117142
2.84866524 3.69992137 -16.71606827
4.09393454 2.86969829 -9.28042698
-4.00650215 0.43549594 -16.70183372
0.19979949 -4.20705509 -14.82723331
4.23315620 -3.22620010 -12.06457996
3.86178160 -0.73207414 -8.55619049
3.86831689 -3.62120295 -12.71420860
0.42604980 -5.40137005 -12.10200787
3.88395190 3.32534504 -13.26282310
3.03015471 3.48910642 -9.10221672
4.00375891 2.59868860 -11.53531361
-1.77691710 0.37712184 -11.82091141
-4.05883312 -1.13435817 -9.04873657
2.42158914 3.84967804 -10.14895058
1.75289154 -2.91546392 -9.17960453
-0.64274287 5.44363976 -13.73372269
-3.98477721 3.80027747 -9.40666866
-1.07149518 5.55437756 -13.37718964
1.33599043 -4.53662968 -12.43173885
0.78626502 -2.77795601 -16.95939445
3.48347616 -4.03246832 -8.72741222
-1.86180341 -1.53764725 -15.48919582
-1.45390141 4.07888651 -13.64659405
-3.94850802 3.33419991 -16.56268692
0.29194474 3.04619503 -8.96245289
-3.53057718 -1.08805633 -14.98441601
3.68128300 -1.91029096 -11.25323009
0.21070270 4.16193533 -16.90652466
-3.32419515 2.75821233 -15.49854565
-3.99865508 0.84959948 -16.83307457
-2.10268998 -4.10824394 -16.44743347
3.63719487 -0.39447632 -9.00112534
0.57476747 -0.85941321 -9.98939323
-1.17069936 -4.69986963 -14.15164566
-0.24348216 -1.20813310 -10.49765778
1.78085291 -3.93998313 -12.00129986
-1.67091274 1.28418863 -9.95174503
-1.42468584 4.81740904 -12.07553101
2.97349405 1.12601054 -16.84510612
1.11393678 2.33317113 -9.10462761
1.79102981 4.02195787 -11.66061783
-4.22007322 3.15482140 -9.07754040
2.37626529 2.80691576 -16.47076035
1.65199292 0.72646165 -11.53300285
4.32466459 4.12039614 -11.38591385
-4.23476219 -1.16072142 -16.32927704
1.79019439 0.98150903 -13.44319439
-4.12729645 -3.41703868 -13.42740536
-2.03873634 3.92806339 -12.97872829
2.82845855 1.97000968 -14.03851700
-3.61257172 -2.46489549 -12.21035576
-3.23954606 4.35990238 -12.98713589
-1.27423096 1.76513815 -15.28591728
-2.02506638 -1.17518592 -14.83024597
0.31655666 -1.10749924 -10.22720242
2.96199870 -1.26463997 -9.36378288
-3.84132886 -3.63413191 -14.61590004
-1.53875029 1.36202133 -14.19095230
1.55641973 -4.34813595 -13.69730568
0.61117446 2.40945578 -10.09023285
1.83043075 -0.66332877 -11.25464535
2.51200199 2.55881047 -13.69671440
1.69329691 0.66854531 -12.02445412
-0.07350300 -2.11443281 -10.08770180
3.61037278 0.74947727 -10.76719475
3.87788677 2.18047404 -9.66122055
3.26498628 -4.36550760 -16.06555939
-2.15197539 0.29406986 -16.36193085
4.11013556 3.27248287 -15.37081528
1.29317224 0.84535825 -10.30786610
3.49365616 2.88863945 -11.27228260
-3.57273841 -0.04550802 -16.63345718
0.86013204 4.03055811 -15.56183243
-3.95328093 3.66423869 -10.56325912
-3.76814985 2.27237654 -15.96907902
-2.81905651 3.86375499 -14.94661713
-3.83812380 1.23679101 -15.60654640
-3.22778511 -2.72975850 -16.83264923
1.01774168 -4.45559359 -14.15598488
-1.70257974 -0.17186481 -13.63255978
-0.28021580 5.26351929 -12.45895767
-1.88668072 2.47552109 -16.45806503
-2.40182209 3.91081238 -13.76083660
-2.71762395 -0.36735028 -16.72485733
-1.97798085 3.95717454 -16.32156372
-2.51512933 -4.26538134 -14.60876274
-1.48291898 -0.51633793 -10.44531345
-2.65497184 1.39204037 -16.01297951
3.90439701 1.81397200 -16.91659546
2.84642148 0.40252090 -9.07187653
-2.20258403 -1.79616797 -16.68341827
1.73032629 -0.97212952 -13.06758881
3.79051352 -3.90773225 -12.35166264
4.13652611 -3.70032239 -15.13192368
2.06316519 -2.20074654 -16.62141037
-4.22835112 2.35364842 -15.50520706
4.12426805 2.72763348 -16.06299782
2.16050696 1.97651196 -9.19945240
2.69315171 2.06985140 -13.02637005
-0.52951235 0.67667401 -15.34223366
-1.99335325 -0.65999353 -10.10852909
0.56223154 -0.15652166 -10.13173103
1.23525715 -0.88481152 -15.54296684
0.36698213 -5.06436539 -13.23264408
-0.54101205 -2.58605504 -16.41390610
-3.52738833 -3.26319361 -11.16104889
-2.98202205 3.97535443 -12.66961288
-2.13729668 3.89180708 -14.10623455
1.88962793 1.68034744 -11.69531727
-3.70350266 1.22599614 -15.04497910
-3.53149605 3.31827855 -16.22412109
-1.75617981 -3.69536805 -12.59369946
2.19282222 -0.86528558 -10.04137897
-0.54918438 -4.08129644 -16.19444466
3.84950590 -0.06254105 -10.00499344
-2.99221730 -1.46459460 -16.98206329
2.99897575 -1.79696703 -8.97263908
3.75987673 -0.85608816 -9.92218113
3.90125656 3.56970930 -11.11879253
-2.97489452 0.33465409 -14.89518929
-2.15808868 0.15451482 -15.89419651
2.33962321 0.68802643 -15.30990887
3.67173076 3.22452617 -11.93120956
3.28164244 -0.41463697 -10.57388496
-0.23482661 -3.11137629 -16.67286301
-2.75354338 -1.36619663 -11.06647396
-1.57612181 -0.28747892 -11.52162552
-2.10166526 -1.39946723 -14.35669804
-0.93027818 -3.95348787 -9.12214088
-4.14126492 3.64733315 -15.56934261
-3.72616196 -3.05596590 -16.06144524
1.36661768 -3.76209998 -14.95052624
-0.34600818 4.02017117 -9.00775623
2.92504025 -0.43077478 -8.94737434
0.75951147 -4.86879587 -11.64564323
1.41222894 -3.98961687 -16.19521141
0.16710833 -4.37488222 -15.71158028
-4.00010633 2.85791779 -9.01927853
-2.34915352 -2.06123304 -12.04831600
3.97567391 4.11683798 -9.86255264
2.92587566 3.79032493 -13.73623657
-2.03071904 -1.59321308 -11.93019485
3.77023625 1.78915489 -15.88589573
3.70343709 -3.05711579 -13.93200970
1.11353135 5.25852633 -12.44235420
2.25996280 3.78054357 -16.93595505
-4.12027216 3.27430820 -11.77192211
4.21205950 1.00000989 -16.48688316
3.71600032 2.46297979 -13.63830376
0.50718993 5.33867216 -13.09897518
-1.00283575 4.33125782 -12.97087097
-3.13355231 -2.18223739 -12.10615158
0.20049170 1.09785664 -10.29044342
3.80507731 3.34218597 -9.41600895
3.44168115 -0.80637127 -16.68471336
0.05737993 -2.34147096 -16.12051010
-1.51042700 -3.60147715 -8.74846077
3.80762577 -2.80722427 -12.68119907
-2.17768741 -4.20383120 -16.36883163
-4.11375856 -2.79465818 -17.07639503
2.49275780 3.18742681 -16.80949020
3.96155667 3.74804950 -14.72047615
0.38764569 -3.91203785 -15.95871735
-4.42252588 -2.80688453 -9.48211670
3.95291758 2.35899329 -11.29381371
2.88995361 -2.28775024 -16.87882233
-2.73975945 3.96679091 -10.85217190
-0.52370989 0.02963599 -10.09627533
-0.81704462 -3.78348351 -16.90384293
-3.86300397 -1.09689999 -9.49080467
-2.79851985 -3.51244617 -9.54220867
4.40070438 2.67775917 -10.95918655
3.11717629 3.79182959 -12.65352917
3.57217669 -2.50492048 -13.34062290
-4.40232944 3.37330747 -10.41965771
1.11144805 3.58650208 -10.25216675
-3.46958971 2.19328833 -14.14657211
1.48494434 -2.13667703 -16.27375031
-3.72566032 2.34898424 -16.26374626
3.83989811 3.08099484 -16.06778526
3.91691351 2.78409100 -13.77186584
3.06196475 3.79498935 -9.31788826
-2.89636660 -4.18828869 -9.17351913
-3.94180775 0.73390007 -15.48624802
3.03272295 2.20342445 -13.49807167
-2.49208450 3.42160726 -9.12039948
-1.75546122 0.57681262 -13.89007187
2.83572555 -3.88467622 -11.92032814
2.08417153 0.80411679 -12.48187923
3.04409575 -1.95860839 -16.86351395
-3.86618471 -2.65418386 -12.95605183
4.18700218 -1.74225271 -16.04251480
-2.47261500 3.01408601 -16.58784103
