-0.69598597 1.48433638 -0.11580800
0.44785044 0.01363289 -0.35901415
0.28626826 0.95346045 0.30442861
-0.82375628 1.26096630 -0.31821242
0.92122293 1.13209915 -0.75800067
-0.96211284 0.39954478 0.05389350
-0.78370547 1.42375159 0.04011339
-0.43221584 1.53382385 0.07796773
0.17195827 0.21952960 0.57351375
-0.09152126 -0.41321969 0.10893545
-1.07797897 0.86254692 -0.12583832
-0.75424176 0.94683343 0.41330078
0.55264974 0.82592404 0.37350062
-0.73321009 0.60257345 0.25101617
-0.85628271 1.24675202 -0.74120837
-0.47601676 1.25424457 -0.39458597
-0.43743658 0.20341212 0.75669163
-0.73296112 -0.54623175 0.05348756
0.36515608 0.20278391 -0.54603153
-0.91177732 0.25466496 -0.44133580
-0.53221023 -0.54420352 0.61373115
0.31553087 0.57610279 0.67259920
-0.37790802 -0.47111261 0.60159451
0.47634166 0.32046264 0.39500296
0.21907374 1.42351437 0.72903657
0.47468331 0.08494380 -0.16057120
0.50868601 0.57094705 0.52777439
-0.98796487 0.18433449 -0.23568052
1.03400850 0.99949992 -0.09067988
0.24037887 -0.39347565 0.18204120
0.22694986 0.34885722 0.49829692
0.24312258 0.17613134 0.48034745
-0.78279597 -0.28157663 0.01938358
0.67608786 1.19309342 -0.74237913
0.13975529 0.20400587 -0.77061832
-0.78699785 1.26574159 -0.26574525
-0.66346365 -0.33388603 0.47461963
0.21006255 0.36716998 -0.59443969
-0.71807671 1.12159014 0.74471164
0.14765483 1.05401218 0.80579472
0.15585671 0.63529235 -0.78290588
-0.36294186 1.49353480 0.51396424
-0.84215367 0.61996555 -0.73063123
0.36156848 1.20931220 -0.06640087
0.78824580 0.82611442 -0.75090176
0.57449859 0.72397023 0.24941684
0.01518815 -0.52690339 -0.17079780
-0.66844368 0.49811307 -0.77908725
0.29203972 0.33436018 0.71438289
0.87738913 1.20582557 -0.33725700
0.23243859 0.99783373 -0.77918983
0.29955402 1.08425450 0.51272070
-0.15452354 -0.00080878 -0.41285887
0.08199675 0.82137096 0.72821194
-0.19307986 -0.01864612 -0.34197134
-0.69103879 -0.48800075 0.64113885
-0.76775950 0.32007748 -0.11152843
-0.12685318 -0.18640476 0.85556972
0.19715479 -0.10598820 0.10753699
0.31574741 -0.12309241 0.45356965
-0.17422920 1.27154958 -0.29083416
0.58580738 0.96247399 0.28683862
-0.74072433 -0.38453907 0.12711778
0.17452562 -0.40995872 -0.25705522
1.03876746 1.20652008 -0.33305427
0.77075917 0.34229299 -0.68742526
-1.08552837 1.26685941 -0.16473190
0.88377839 1.23750639 -0.25662589
-0.72427016 -0.30448443 -0.11400904
-0.97930306 1.09409463 0.26599085
0.99336153 0.43611619 -0.71371168
-0.07559936 0.05721855 -0.40378189
0.50038147 0.48117131 0.24809079
-0.07766318 0.39786035 0.78307819
-0.56577247 -0.21760654 -0.27341983
-0.18160999 1.56789958 0.62608439
0.21102487 -0.18437093 0.70654219
-0.78979391 0.53835934 0.30611596
0.63026035 0.21616301 -0.75461739
0.48641860 0.48666435 0.54055285
-0.98957795 1.30314231 -0.70221221
0.54961944 0.81042790 0.39031702
-0.80768353 0.24257872 0.19049922
-0.71492869 0.04012984 0.55905646
-0.90600437 1.10517550 0.28153259
0.21637578 -0.54723573 -0.15032102
0.01397587 1.50623906 -0.14819637
-0.05140009 0.36328050 0.80711824
-0.74049872 -0.23228401 0.04638625
0.97524005 0.95415723 0.20771940
0.66849190 0.23226669 0.07437567
0.47385371 0.07529974 -0.49357402
0.70763898 0.30152529 -0.05547804
0.87313193 0.56021267 0.27018818
-0.25702521 1.29114914 -0.47519270
0.25367823 -0.48894972 0.52778375
-0.59544444 0.00728664 -0.21305862
-0.23033664 1.20063853 -0.61835188
-0.54219341 -0.41773659 0.18469606
-0.41961598 -0.55657136 0.66259640
0.24762158 1.40082073 -0.06728886
-0.73204494 0.42271531 0.65649837
0.65409470 0.85813665 0.25310099
0.18125193 1.26080012 -0.22160287
-0.01103340 1.48408175 -0.17331472
-0.82873374 -0.51706374 0.55169243
-1.01876342 1.11979628 -0.20856240
-0.63549864 -0.36900592 0.70495909
-0.50134575 1.24691200 -0.75709742
0.97837704 0.60782450 0.16845159
-0.97672588 0.34688810 -0.75450373
0.10211168 1.53421772 0.51955050
0.31508613 0.93866283 0.31533951
0.22183573 0.51246017 0.66657782
-0.06030981 1.24843323 -0.34241626
0.38483688 1.28588915 0.04928972
0.12387287 -0.26196277 -0.16751768
0.44055977 0.58478367 0.50674230
-0.63452244 -0.59672976 0.62642992
-0.20019412 -0.07730693 0.75114989
-0.14471683 0.10845336 0.69003212
-0.65003735 -0.45875657 0.26892078
0.19429724 1.43143249 0.75286031
-0.15900373 1.28543568 -0.42555851
0.39325652 1.30855417 -0.49119762
0.97445494 1.02639771 -0.33690491
0.23454487 -0.04602087 -0.16647637
0.94681901 1.22055435 -0.59029549
-0.65743005 0.69154179 -0.67825663
-0.85397142 0.19388983 0.04995321
-0.10245094 1.20935893 -0.56531572
0.75120628 1.19461179 -0.08463580
-0.31302682 -0.52963555 -0.13264704
0.38604012 0.01261950 0.20291440
-0.92213494 1.05701613 0.28310212
-0.80694824 0.42393267 0.42598984
-0.94687474 1.24344850 -0.60385495
1.02112758 0.27615064 -0.09475135
-0.36372763 1.34030020 -0.36776558
-0.66693878 0.66971529 0.47347939
0.47113070 0.10775718 0.19540080
0.62943608 0.64097023 0.21638614
-0.53849167 0.26100677 0.70911932
-0.81852329 0.74255925 0.25667253
-0.75606495 -0.19410539 0.36050862
-0.75811648 0.34692794 0.41943872
-0.73692012 0.81505400 0.64085490
-0.70642024 1.28320360 0.18104337
-0.41401455 0.77515638 -0.78466737
0.52363074 0.11208919 -0.26998979
-0.07088419 0.98995942 0.72070068
0.08259846 0.30073434 -0.60102886
0.22286008 1.17129338 0.47462466
0.98656464 0.47337413 -0.48636207
0.10074504 0.28058523 -0.69833767
0.10092002 -0.07150263 0.76442522
-0.77952623 0.00471002 0.47726020
0.98907715 0.31752485 0.03297410
-0.76102805 0.58144218 0.77507710
-0.64851308 0.47135913 -0.79682195
-0.37005299 0.11696792 -0.39303556
0.26512000 0.12403134 0.59317756
-0.98834521 1.10145652 -0.22734235
0.58864832 1.29565382 0.27414498
-0.79231173 1.22972989 -0.46764484
0.44442695 1.20233524 -0.69981730
-0.99763131 0.40567502 0.17195366
1.05657148 0.58076018 0.09023879
-0.12435334 1.24001372 -0.58707726
-0.98612797 0.59367383 -0.47941598
0.62237674 1.24605083 0.01564587
-0.83913481 1.15356874 -0.16338241
-0.39048404 1.49258804 0.53714252
-0.24630573 1.15069675 -0.70084202
-0.40411949 1.48563457 -0.20323493
0.34702978 -0.22656083 0.48256999
-0.61380285 -0.53812206 0.74042577
0.23397934 1.10647726 0.39109263
-0.81309325 -0.37910020 0.17627184
0.78289115 0.63906246 0.25784159
1.02855051 0.66489750 0.26524669
-0.55982232 1.40187979 -0.16358061
-0.31261203 0.08612984 -0.42228127
-0.53074241 -0.34918749 -0.25272137
0.09767109 0.76536137 -0.84606349
0.18985797 -0.11573058 0.69307148
0.98840094 0.76426387 -0.73560679
-1.06474972 1.09204721 -0.52377933
0.05668586 0.05852586 -0.50860459
0.30609399 -0.21493441 0.28503317
0.07582440 0.89295816 0.71601331
0.54411846 0.06370899 -0.39479190
-0.01414970 -0.57064354 0.65231758
0.05035700 1.54547966 0.24431638
0.94357121 0.36058140 -0.53543180
0.11097395 0.90397811 -0.67916876
-0.98519552 1.12921560 0.10296545
0.02587686 -0.39767963 -0.31560645
0.22535950 0.62806040 0.77307981
0.51978576 1.31112504 -0.14707120
0.32288998 -0.41828239 0.44369271
0.21998677 0.10462466 -0.46675909
0.49971259 0.42827553 0.22713612
-0.54109401 -0.46861410 0.02449660
0.02420434 1.07214046 0.77098387
-0.16170244 0.28251860 -0.77718675
0.56328958 1.19888079 0.07223675
0.16980988 0.10065398 0.73722500
-0.76529580 0.04198927 -0.29678631
1.01433349 0.59091347 -0.22890617
-0.56652743 -0.44517642 0.46916798
-0.70327640 1.20703852 0.59834057
-0.72424835 -0.07912093 0.15835056
-0.47482643 -0.43105721 0.74187678
0.80206734 0.25460654 -0.34342638
-1.01526845 0.28294018 -0.37829494
-0.95001274 0.31581536 -0.72793150
-0.93402761 0.95726883 0.33504143
-0.52305198 1.28648567 -0.38611719
-0.72424358 0.68134832 0.25541660
-0.53034192 0.09718469 -0.21901380
-0.25432718 1.24192405 -0.54618937
-0.23580953 0.50345212 -0.68932992
1.00921094 0.44655675 -0.15271781
0.76700765 0.79478925 -0.68120581
-0.64674276 -0.11093336 -0.23329166
-0.71765625 -0.26008159 -0.23337947
0.63830435 1.25478888 0.13628647
0.57626635 0.23213431 0.34930727
0.23221090 -0.22800106 0.12701806
-0.67512536 1.46510220 0.68216521
0.22859532 0.46899533 0.70524132
0.45287976 -0.04011691 -0.34362334
0.64772511 1.32696104 -0.43935949
-0.59730631 1.56727278 0.50183904
-0.49768966 -0.43967324 0.71004629
0.29161039 0.49019882 0.64585680
-0.85742688 0.25314218 -0.75459170
-0.66616398 0.42252547 -0.78103858
0.41776788 0.77816868 -0.75802064
-0.51901871 0.80572951 -0.79350835
-0.99317861 0.80579311 -0.73199815
-0.76271117 1.07256079 0.54049855
0.43972626 0.13589394 0.47598174
-0.42094940 -0.46342111 -0.05659531
0.60379958 1.29169643 -0.19788262
-0.22962265 -0.50941038 0.17295863
0.08438112 1.21786118 -0.73953342
0.75048780 0.22480103 -0.04279608
-0.12619023 0.50880969 0.74807364
-0.20775437 1.14013410 0.72987711
0.16647641 1.30511141 -0.75579578
-0.10727791 0.27630422 -0.50844973
-0.76677424 0.06689173 0.33977571
0.46998647 1.32069159 -0.26178008
0.24669459 0.67681992 -0.72757131
0.22628540 -0.44971144 -0.03581280
-0.16828935 -0.48916650 0.46037871
-0.10617914 0.58017826 0.88182515
-0.48441526 0.37551838 -0.78009671
-1.01875615 0.80576456 -0.26451036
-0.77285498 1.43084097 0.52623296
-0.77989227 1.11028719 0.68234664
0.10027002 1.50275779 0.38117823
-0.81022638 0.10167381 -0.11950207
0.34251928 0.04882008 0.54950839
0.65518767 1.18539000 -0.11773316
1.01834202 1.15265036 -0.30599216
-1.03453934 0.37705010 -0.25160423
0.88577569 1.25754833 -0.48994771
-0.24710056 0.43647850 0.79113376
0.99538255 1.22490430 0.25350982
0.21266253 -0.21863985 0.57108384
-0.17029488 -0.44894457 -0.17052977
-0.46358153 1.24848080 0.71517241
0.25239143 0.92994130 0.65481681
0.06535616 1.28646994 -0.47896558
-0.05360678 1.10567808 0.77942926
0.84718847 0.32389835 -0.45263591
-0.91045010 1.26085091 -0.03093626
1.00283253 0.64318645 -0.05681698
-0.39284611 -0.52421391 0.09527074
0.28062826 0.40441951 0.49627972
0.47321698 0.02331969 0.29473245
-0.40013954 0.40449989 0.70690531
0.10420575 0.59239674 0.80042255
-1.00285745 0.75038826 -0.11107908
-0.74286091 -0.46239769 0.38853574
0.44806358 0.92095965 0.23899166
0.70295864 1.24885201 -0.36632448
0.09450909 0.96766257 -0.77499008
1.05075979 1.06807327 -0.69127566
-0.96872348 0.80557001 -0.81276178
-1.04355931 1.17440808 -0.69124055
-0.77431554 -0.32310838 0.70906842
1.02517045 1.21708488 -0.44550726
-0.92322731 0.81529266 0.24966429
0.32626137 0.22016209 -0.57615155
0.20897578 -0.29456735 0.72727513
1.00494874 0.68874592 0.07958780
-0.04831987 1.52034080 -0.26192769
-0.12601759 1.51761079 0.33969721
0.72770387 1.27457631 -0.45688999
-1.01446116 0.30070591 0.22293377
0.16273323 1.45267034 0.42728487
-0.60647738 0.20302290 -0.41369736
-0.91745520 1.16344237 -0.70041603
-0.77979118 -0.25738716 0.09033262
-0.82696420 -0.46692127 -0.09190698
0.47783291 0.09648836 -0.24993823
-0.03663515 1.47206402 0.54976147
-0.49178764 1.54020703 -0.00714777
-0.57004368 1.50437701 0.56063873
0.44239515 0.22822362 0.52651268
-0.92130238 0.31514162 -0.18884188
-0.79666591 1.41719234 0.47515553
-0.57563597 0.31105116 -0.47931552
0.11104425 0.44506255 0.77487832
-0.76209641 -0.31953257 -0.20026633
0.91456240 0.67573571 0.18294817
-0.01206752 0.17884719 -0.41172954
-0.56453663 1.02080369 0.74723321
1.02163231 0.44708854 -0.17377724
0.69764209 1.28204644 -0.11573888
-1.05512118 0.59136593 -0.53712523
0.59415752 1.25158107 -0.65573382
0.32333109 0.87092239 -0.78665805
1.01252329 1.19308603 -0.16025303
0.93343019 0.25769281 -0.44165975
-0.37432450 0.32722050 0.72768658
0.63478976 1.05657530 -0.74703604
-0.97768158 0.19053960 -0.65854979
-0.76149470 -0.04147756 0.15408650
0.81653857 0.34247583 0.24840400
0.52555871 0.26204205 0.07241707
0.22198528 1.51090229 0.01612557
-1.01147401 1.09339511 -0.60694379
-0.32213104 0.20351839 0.66846001
-1.04067898 0.79192686 -0.00697336
0.55134404 1.19732153 -0.69189131
0.24742076 1.21268129 -0.44285721
0.42431211 0.11636633 -0.44000068
-1.03744125 0.68406951 -0.37572166
-0.98405802 1.16829610 -0.68225139
-0.04429936 -0.50360286 0.28885224
-0.35566753 0.52837646 -0.72955155
-1.01693213 0.90443575 -0.35692969
-0.26543954 1.44707108 0.24532536
0.15248501 -0.52923012 0.18264042
0.27884209 1.10349131 0.25441900
-0.72998387 1.45024180 0.48023024
-0.98362100 1.29235697 -0.00341496
-0.16200539 1.26709127 -0.51914471
-0.09119929 -0.52713871 0.15984471
-0.98594785 0.28836754 0.11414944
0.27484757 1.19077432 -0.33755210
0.20435622 0.02334839 -0.43216762
-0.70892268 0.84725296 0.71671450
0.43620750 1.10601282 0.27388430
-1.00399268 0.67097998 -0.55223560
0.22676726 -0.10197514 0.55823976
0.16204174 1.13475943 0.87041008
0.12376862 1.29016685 -0.68096149
0.12296414 -0.29117751 -0.27291441
0.03154132 0.64959604 0.72900760
-0.99866283 1.20931840 -0.19533539
-0.73416340 0.70172745 -0.78743005
-0.59627777 1.52884126 -0.01020805
-1.00501788 0.47679624 -0.01752607
0.31928632 0.64770138 -0.73753119
-0.02160366 -0.01187235 0.76108778
0.32688174 0.99853861 0.76275361
-0.38145411 1.51218128 0.16149163
0.53435147 0.40945047 0.28445834
0.23766458 0.80916822 0.61000520
-0.47044399 -0.13736892 0.74804121
0.22936414 0.38915175 0.78357863
0.50823057 0.08408973 0.25073215
0.11985785 1.11038744 0.77642316
-0.54062521 0.13771215 -0.29774150
0.88060492 1.33666468 -0.66506350
0.09926304 0.02736029 -0.25723603
0.21101651 0.21372080 -0.75022036
-0.35043633 -0.34130788 0.79444593
0.46050039 0.67383289 -0.70203304
-0.74211383 -0.18020135 0.27798814
0.48072854 0.58354616 -0.78855640
0.48846164 0.06431797 -0.35185730
-0.09099121 -0.03709763 -0.47655085
-0.97758508 1.14810824 -0.20244241
0.51438624 0.25488019 0.02848437
-0.28474110 1.24346328 -0.25983348
-0.47383025 1.50351965 -0.02957824
0.29196313 0.36734557 0.71878135
0.95317245 1.09136927 -0.41802725
0.78023767 0.38029647 0.22930445
-0.14862393 1.50473034 0.06037991
0.49896654 0.20946756 -0.27146271
-0.76508212 0.01456624 0.23517899
-0.55341399 1.13384628 -0.73439896
0.25738832 1.47278988 0.28930157
0.04801013 -0.36583477 -0.19025673
0.18385197 -0.13361639 0.26079810
-0.39970854 1.48658872 -0.28494227
0.23138303 0.06555697 0.59811538
-0.60500997 0.27222377 -0.43243334
-0.61948532 1.25173688 -0.49782845
0.84361792 1.15681767 0.26294020
-0.34921005 1.16721082 -0.71680164
0.61165404 0.76992559 -0.75224429
-0.59925914 1.51849544 0.31583238
-0.98207486 0.61553705 -0.71800250
1.06872606 1.17669797 -0.36229551
-0.73946279 0.80331159 0.35021323
-0.74905980 0.69386387 0.29669532
1.03758204 0.54543853 -0.48440409
0.96788722 0.34128183 0.06701116
0.26560163 -0.40517902 0.56325924
0.95084155 0.56050241 -0.53958648
-0.36058775 0.21902561 -0.49459541
0.18867959 1.48318648 0.09260394
-0.15117429 0.41472459 -0.73742765
0.58887678 0.06881905 0.02769225
-0.69849867 0.44927189 0.55544031
0.99192089 1.09057021 -0.02520494
-0.22448900 1.47621036 0.49210238
-0.54399955 1.48271894 0.03313094
0.07954318 -0.52097797 -0.02432066
-0.39578050 -0.51833820 0.66674602
-0.81005031 0.78120947 -0.77370197
0.18906017 1.55162311 -0.05825523
0.62095565 0.71724844 -0.75064594
-0.34050462 -0.01722348 -0.30879995
-0.09956679 -0.47736096 0.73282164
0.88090694 1.28843260 -0.74164945
-0.82566977 0.42908239 0.50284231
-0.85341763 0.41031843 0.25998154
0.57101220 0.18029389 -0.13680853
-0.61437386 0.21784028 -0.61241865
0.11114632 1.44581366 0.71906775
0.24132310 -0.33612573 0.71134162
-0.20996699 -0.34864992 0.78156757
-0.76300204 0.22152486 -0.62010801
0.75728625 1.27236843 0.10438048
0.73740906 0.81867909 0.36402690
-0.19263414 1.36897969 -0.21063747
0.17181733 1.39919496 -0.25915825
-0.61950624 0.87432885 0.80026114
-0.56212938 0.17351976 -0.40047559
-0.76928133 0.25047213 0.42571783
-0.73236132 0.06895417 -0.07504676
0.44611961 0.22051856 -0.41770673
-0.76988530 0.36502826 0.30929253
0.51859069 1.30233788 0.13599998
-0.75664604 0.46031412 0.32807833
0.68035418 0.59753311 -0.73157525
-1.03338945 0.64653623 0.09131129
0.55182534 0.61169386 0.22249435
-0.14006519 1.46107006 0.62957901
0.58740872 0.85623729 0.30701119
0.09316494 0.78163040 -0.79926497
-0.48255801 1.34340703 -0.44357985
-0.54395813 1.47290695 0.25980672
-0.36350349 1.21598148 -0.39688748
-0.63103318 1.47816575 -0.20761889
0.52992064 0.24409133 -0.38385960
0.52156508 0.50931633 -0.80670089
-0.93128586 1.14191198 -0.21962026
-0.80231905 0.25216776 -0.38296038
0.79112327 0.72747880 0.23482710
0.10453314 1.26133478 -0.73571038
-0.71128362 0.16482231 0.55528313
0.78727454 0.40093502 0.21040642
-0.61429203 -0.46272200 -0.23441367
0.21288885 0.21898425 0.77413124
-0.09366138 -0.05361992 -0.15563884
-0.62953764 -0.49177951 -0.03868043
-0.30009776 0.34337208 0.72074109
0.03280270 0.96055520 -0.74484044
-0.38632110 0.03203905 0.72899288
-0.34213680 0.43175387 0.71845043
0.48118201 0.78226233 0.27636230
-0.51259065 1.13053393 -0.75355279
0.19117922 0.31430352 0.69501668
-0.31118739 0.61315876 0.78863782
0.03537230 -0.32361597 -0.31931633
-0.05037163 1.15589237 0.71253175
-0.81718403 1.21511483 -0.74186158
-0.78320724 -0.21179497 0.30565566
-0.65283614 0.31601167 -0.83287597
0.25188893 0.92670226 0.72086328
-0.67782974 1.07819343 -0.78808266
-0.14572373 1.47890770 -0.16029559
0.16934881 0.39877620 -0.73458195
0.97188532 0.56233186 -0.50130916
-0.43879524 0.93827653 -0.71132421
-0.59867871 1.21301818 0.73867792
-0.31569472 0.04150626 -0.33850664
-0.74553722 0.01283315 -0.18923633
-0.23565274 0.21649334 -0.51822567
-0.82258207 0.59983361 0.39863643
-0.73505473 -0.00789821 -0.17298767
-0.69085878 1.47773552 0.48628306
0.09641093 1.12725377 0.75302839
0.97642243 0.27815169 -0.37000388
-0.05298165 -0.52143872 -0.25215298
-0.49608871 0.82186985 0.76606929
0.39180112 -0.00146937 -0.16426553
0.18834026 1.27544188 0.70722359
0.98996711 0.86737335 -0.71289527
-0.30041769 -0.49635637 0.66850317
-0.45622167 -0.45985305 -0.24183944
0.86289775 0.94465339 -0.69672352
-0.73298401 0.88922417 0.50537974
0.60641724 0.26546425 -0.75780267
0.72093707 0.59753102 -0.71037304
0.15884158 1.15716958 -0.63568616
-0.22867981 0.87214923 -0.76431996
0.30481985 -0.06575650 -0.19912679
-0.40311491 0.04364800 0.69192445
0.59752011 0.24981460 -0.47237274
-0.06183894 0.74504280 0.74304157
0.27118924 1.11250329 0.26263529
-0.23138593 0.86353588 0.72356349
0.66338062 0.78288341 0.29710618
0.43103829 0.10277092 0.55266678
-0.51329583 -0.35132462 -0.22470601
-0.77449220 0.02790523 -0.08480188
-0.77310467 1.06943011 0.25006080
-0.69394159 1.41552901 -0.04482831
-0.07300869 1.14334607 0.79215318
-0.22681284 -0.48298621 0.68847948
-0.98375446 0.73109293 0.18178254
-0.28550327 0.17802539 -0.60009670
-0.77001584 0.12232268 0.49189743
0.96504498 0.33357009 -0.60226232
1.00680387 1.08614349 -0.71853471
0.10678805 0.97032058 0.79710037
0.87179333 0.95735586 0.30120784
0.47358686 0.09079176 -0.22512107
-0.77344853 1.31795239 0.02392871
0.18981393 -0.40533769 0.28218949
0.16984415 0.21833372 0.57755554
0.99148405 1.05569053 0.22383499
-0.97934097 0.26000392 -0.56297272
0.90700924 0.22374970 -0.17096324
-0.56066722 -0.33731568 -0.25532383
0.96371621 0.72025079 -0.76834613
-1.00072396 1.24082732 -0.74938905
-0.77862924 0.46714273 0.23422399
0.07170272 0.02808914 -0.52486205
-0.67796725 1.53808570 0.64412081
-0.72205621 0.55863619 0.27819210
-0.33708012 0.67266560 0.82192743
-0.76127559 1.16353941 0.57006490
0.08444844 -0.11981517 -0.23565216
-0.44065160 1.48215723 0.78167927
0.18045208 1.09415150 0.75634462
0.95533705 0.68123448 -0.55664569
0.49650574 0.10569796 -0.13891713
-0.09430623 -0.51555574 -0.03940363
0.24963328 -0.12630218 0.51911670
-0.71128327 0.03176650 0.10448028
-0.63414812 0.73939550 -0.75518501
-1.03535450 0.93548858 -0.15043084
0.30010170 1.01356053 0.42236966
0.47264758 1.25273252 -0.57047427
-0.07513583 1.46765673 -0.25229725
-0.20980771 -0.48136729 0.77158284
-0.68514353 -0.45779723 0.40897050
-0.74570578 0.30336699 -0.72420931
0.58005673 1.22996330 -0.16435061
-0.36609882 1.49361789 -0.25290132
0.64934033 1.29383016 0.16722158
0.66843414 0.23610213 -0.41352466
0.95529336 0.53818476 -0.46529037
1.04949653 1.16295528 -0.03492999
-0.93195915 1.24368215 -0.76721531
1.02109277 0.99644744 0.10571431
-0.37449574 0.34332246 -0.73853636
-0.22545330 -0.04394960 -0.47750413
0.58279991 1.17426753 0.16303824
0.26778334 0.99045098 -0.69314587
-0.88258851 0.97256154 0.26194862
0.01714281 -0.35472196 -0.32389513
0.30076873 0.78447545 -0.68213588
-0.42664430 0.57492650 0.73474222
-0.95027399 0.23165503 0.21371728
1.12147474 0.32249218 0.06033073
-0.17964479 0.45516667 -0.77503496
-0.19595082 0.21763000 -0.54308587
-0.66804177 0.71600729 0.73071665
-0.78740424 -0.31220520 0.33459634
-0.80847508 0.91051430 -0.69731325
-0.22422063 0.17722559 -0.68743467
-0.16039887 1.29808307 0.73862606
0.52808541 0.25724390 -0.23830503
0.03590206 1.45124698 0.77740377
-0.66912276 0.73598778 0.75231439
0.07031955 0.99528003 -0.75129241
-0.03533522 0.07127014 0.78838575
0.96393263 0.34563807 0.19739881
-0.56446916 1.50653994 0.72034383
0.41181123 0.00732246 0.00482331
0.36250970 0.41651392 0.46867484
0.60977334 1.12583458 0.22057702
-0.06758173 0.57009006 0.77152753
-0.58186960 -0.47946507 0.71667230
0.77675509 1.24306750 0.12792215
0.92879677 1.00567007 0.27309185
-0.34779179 1.26417303 -0.72197360
-0.82233328 1.27205670 -0.41298005
1.04809439 1.18177104 -0.32446834
-0.75232619 1.02962995 0.46510330
-0.14567786 -0.01421624 -0.25747567
-0.69148237 1.26925564 -0.54827374
-0.95119518 0.52204567 0.12951879
0.94156039 0.95869792 -0.66920072
0.33249769 -0.14925140 0.14300349
0.00858328 1.47048569 -0.25538206
0.51168936 -0.03488588 -0.33622923
-0.56609505 0.66157579 0.79757351
0.51941288 0.20320871 0.15764534
0.22846797 -0.21584260 0.57133734
0.98458320 0.67093837 0.08732712
-0.97030866 0.42347616 0.00243035
0.03128180 1.38953495 -0.26112106
-0.17153679 -0.51247430 0.17125699
-0.79989892 0.18554178 0.20454447
0.27800342 1.40209460 0.41602004
0.39852062 0.27471757 0.04545889
0.71952701 1.28466177 0.08945239
-0.59437078 1.44608283 0.19423112
-0.63474405 1.11368179 -0.75232118
0.05904202 -0.49834651 0.41051626
0.28572553 0.75682843 0.49831310
0.35237986 0.83514345 0.45569101
-0.02730446 1.51617944 0.39400908
-0.68163502 1.49577355 0.65688676
0.47640970 1.30504203 -0.40296260
-0.25006586 0.46087140 0.73880696
0.23566917 0.28353012 0.70278287
0.40297118 -0.01426482 0.29629171
-0.02166758 -0.34731984 -0.31296042
-0.86282039 1.22495770 -0.30855924
-0.11826109 1.19721460 -0.73455405
0.14031579 0.72362375 -0.76296800
0.14094785 -0.46960878 -0.06141030
0.47959280 0.19725171 -0.51744527
0.85508764 0.22850367 0.14360362
0.28620839 0.46559837 -0.71409303
-0.78251255 -0.33542144 0.56038731
-0.55496192 -0.52155817 0.16618647
0.79551649 1.10848665 -0.75269330
0.06310120 -0.41447836 0.04483876
-0.66388249 0.37808552 0.78204781
0.25726548 0.41909692 -0.67830908
-0.55465239 0.23991057 0.74933696
-0.79351366 0.25323886 0.08375977
0.23507664 0.97465402 -0.73766035
-0.75449455 -0.47256464 -0.22523300
-0.75402319 0.81115961 0.52855104
0.25171354 -0.33730936 -0.16729696
0.85232639 1.32310975 -0.29911426
0.46355715 1.30172825 0.05178770
-0.77858013 0.15624589 -0.04424445
0.11492455 0.56646359 -0.78184849
0.43922326 1.03543091 -0.76476938
0.99848217 0.57416564 -0.25493693
-0.86152029 0.59326500 0.72778273
1.11801696 0.65529686 0.04944605
0.44303784 0.24780020 -0.46968648
-0.15412673 1.39592421 -0.32268691
0.25804520 0.43002188 0.65784395
0.82841980 0.96726072 0.24740380
0.58270335 0.84258747 -0.79365277
0.28007561 0.85347629 0.56717139
-0.69507498 1.48065042 -0.24007416
0.93339300 1.26793504 -0.53775382
-1.05992568 1.09538186 -0.69066274
0.73721343 0.23927912 -0.73387039
-1.04707754 1.06242371 -0.19484371
-0.56206501 -0.50915861 0.48288661
-0.03162995 0.28880426 -0.63393891
0.48997220 1.15785599 -0.81903005
-0.70247751 -0.42865664 0.73454452
-0.83510286 1.30033469 -0.65307695
-0.77998239 0.26168185 -0.35487971
-0.99433064 0.91873682 0.00452612
-0.09165420 0.80284345 -0.78834862
0.26118031 -0.07110739 0.29511350
-0.01384932 1.44329250 0.70199192
0.46969223 0.03107688 -0.17512016
-1.02234304 1.18341017 -0.04109191
-0.45912811 -0.62727213 0.53275734
0.53881836 0.41211808 0.24084836
0.92616087 0.32771564 0.20952189
0.48612356 0.01675999 0.19377264
-0.77850443 1.20804489 0.48839539
-0.05257345 1.45171785 0.09399048
-0.22866219 1.50028074 0.71796870
-0.23828836 -0.18450660 -0.26653177
0.51521331 0.08109298 0.18362013
-0.74358040 1.46693647 0.55174208
0.32911041 -0.37713790 -0.21645725
-0.85804063 1.04870117 0.28849947
1.05424678 0.45687684 -0.66698730
0.09770742 -0.47073674 0.41475919
1.06509018 0.54282278 0.04377112
-0.57713819 0.23840889 -0.52206296
0.31386045 0.81060576 0.52515191
-0.75033313 1.44485819 0.45324993
-0.18748495 -0.49417681 0.59899437
0.68346632 0.97502935 -0.73789519
-0.68185741 0.25439858 0.14388168
0.28364712 1.09570050 0.44090191
0.36741760 1.49304080 0.14180952
0.90810722 0.41050178 0.27485460
-0.80080104 0.74115896 -0.71496087
0.03002856 -0.42805392 0.71340436
-0.47546434 -0.35651720 -0.29499131
-0.17054574 0.78579259 -0.73328722
-0.72984594 -0.29767966 0.29334065
-0.30602443 1.31730199 -0.43893361
-0.09035636 1.17963696 -0.36798820
1.00986540 1.19405472 0.04799127
-0.75343668 0.17845339 0.32300058
-0.09489173 1.45010853 0.67628151
-0.74140275 0.78219247 0.72035193
0.42756146 0.20482010 0.04272552
-0.27330378 1.06604934 0.73419803
-0.72757673 1.24067187 0.49203324
0.07665925 1.36356807 -0.21611542
0.96492147 1.02576113 0.28567687
-0.74482781 -0.46192664 0.66789174
-0.04467955 -0.50377512 0.15556711
-0.68271172 0.41578302 0.56964695
0.25598609 -0.44398522 -0.18817095
0.26725712 1.39608216 0.16529565
-0.68521750 -0.36783397 0.64167523
1.00708997 1.13459802 -0.39096245
-0.44341469 -0.49179614 -0.13560498
-0.43601900 1.46736860 -0.30413535
-0.19039786 0.36803159 0.70908892
-0.52099574 0.73254377 0.65615875
0.27974626 0.86537528 0.45761529
0.87368959 0.69925195 -0.72075003
-0.89301854 0.24633202 0.05988608
-0.59679669 0.27918372 -0.76431346
0.18935704 1.40423322 0.52296847
0.52372748 1.25156581 -0.07569678
-0.53778195 0.73897922 -0.79525048
0.22400196 1.43322444 0.42739198
-0.23699300 -0.49513298 -0.24403155
0.52537763 0.41521162 -0.74786359
-0.07789408 1.48010683 -0.19463877
-1.06270230 0.29459608 0.02064080
-0.89597809 0.19798702 -0.58669364
0.54863113 0.19426221 -0.30754915
-0.70710105 1.28338337 -0.69095242
0.63907254 0.61028814 0.27345574
-1.00196052 0.71179676 0.21455921
0.87346256 1.28704143 -0.55197871
0.22566977 0.72128832 0.55210942
-0.98082465 0.77437776 -0.49607274
0.33924663 1.16600108 0.27971077
0.90377027 0.27492011 0.23158687
-0.52919263 1.28588057 -0.60346538
-0.06799616 1.50182295 0.69895780
-0.07839201 1.52111661 0.43914181
-0.78427494 0.86250359 0.71773696
1.00739408 0.43180022 -0.11197514
0.22891372 -0.48653293 0.01217918
-0.83868587 0.19577414 -0.41575658
-0.46569106 -0.43163651 0.74093866
0.24119049 0.62309998 0.45872265
0.49517611 0.21431604 -0.03989711
-0.56792670 0.08393580 -0.45174903
-0.46531868 1.51046884 -0.28171241
0.30716231 0.90006959 0.79510963
0.70409131 0.87087196 0.26548162
0.41123748 -0.00190455 -0.27257207
-0.19591479 -0.06707281 0.72948241
-0.48765844 0.10945129 0.79864705
0.80502558 0.96372223 -0.65816224
-0.19112417 -0.53930616 0.21703099
-0.90352213 1.16866469 -0.71714610
0.79028922 0.29234833 0.15779831
0.18152800 -0.48777175 0.72624284
-0.84474659 0.90984643 0.28063616
-0.36911225 1.29152954 -0.75731021
0.86684388 1.26632798 -0.39810288
0.22091156 -0.25941604 0.70609045
-0.95555234 0.22528777 -0.28763074
0.53718328 0.24220160 -0.74068213
-0.74892807 -0.14793617 -0.03347468
-0.16914643 1.48672378 -0.13022856
-0.58558112 0.29455990 -0.35304123
0.24417746 -0.31998742 -0.15021315
0.29487264 -0.20003808 -0.27635074
0.09958154 0.77344626 0.75255507
0.24562983 -0.21421981 0.72233433
0.79960763 1.18592417 0.24940434
0.03886281 1.47759175 -0.18037252
-0.06966184 0.20984805 -0.60072303
-1.00254273 1.12275136 -0.54896718
-0.47917768 0.38466725 -0.79590410
-0.72015858 0.92600340 0.60811585
-0.11436632 1.17184162 -0.72596556
-0.76385397 1.47185719 0.58228654
-0.69300944 0.93675470 -0.74645841
0.25961939 1.32700062 -0.17904176
0.80320001 0.67159724 -0.72931141
0.03424051 0.30695483 0.77595377
-0.17404738 0.25123855 -0.57220274
-0.73722112 -0.37392473 -0.23873442
0.07490198 -0.03870314 -0.45342472
0.32983863 -0.02305633 0.07538708
-0.67771077 1.18965268 -0.59217250
-0.79369187 1.25597143 0.09620094
0.89303857 1.13873172 -0.75098747
0.25598681 1.06564808 0.30611733
-0.96926665 1.31909466 0.00546371
0.80054879 0.23154789 -0.45533031
0.14905939 0.48660123 0.77517176
0.77200031 1.38259077 -0.22811624
-0.42114007 0.90778267 -0.77364165
0.12674484 1.21737921 -0.34520185
-0.69141251 -0.49843174 0.48897752
-0.97162670 1.09102416 0.01870278
0.30267337 1.29610229 -0.13201025
-0.53968436 1.47088814 0.68137175
0.54323810 0.18983591 0.31173864
0.36316425 0.72132391 0.46791148
0.54351741 0.76438892 -0.75339180
-1.00903320 0.97968197 0.04894879
1.02365410 0.67980194 -0.63727081
-0.34965664 -0.53652966 0.15381142
0.53893173 0.20108193 -0.16576609
0.26790345 0.81181836 0.50790638
0.89368039 1.20373249 -0.15317850
0.81398731 1.25948977 -0.16989221
0.24455371 -0.21568006 0.28130507
0.62406665 1.23193955 -0.04000462
-0.76182574 0.89389312 0.22501467
-0.76280266 1.43701041 0.32348600
-0.79346442 -0.34312749 -0.12990582
0.91647416 0.78437352 -0.06173950
-0.98670077 0.49078691 -0.63213199
-0.97405922 0.31343520 0.02494850
0.42829940 0.55752349 -0.69985455
-0.30904788 -0.00714725 -0.27907056
0.16575314 1.52252197 -0.10281864
0.52179253 0.35694316 0.37082919
-1.06478226 1.19339263 0.02964927
0.06621350 0.80495054 -0.75169986
0.76310134 0.38758633 0.23964708
-0.68299216 0.78455973 0.61254513
-0.07239635 -0.52415121 -0.03730290
0.27134678 0.64217037 0.52722251
-0.29766753 0.22673938 0.72217083
0.80323464 0.96048307 -0.72595632
-1.05681598 1.11924314 -0.64078259
-0.06765291 -0.44423950 0.68981588
-0.05409094 0.85543036 0.69740587
-0.84457010 1.26541591 -0.10833274
0.82157826 0.44952905 -0.69108653
-0.29771304 0.42813399 -0.82033068
-0.51798475 -0.53079271 0.57322925
-0.38445979 1.53864038 0.59551871
0.12844367 1.45992923 0.20473287
0.08776423 1.51104057 -0.09973747
-0.75976437 0.68522918 0.46343338
-0.60194492 0.27881628 -0.44981414
-0.85804534 1.18391573 0.26316053
-0.33974865 0.74459469 0.79836148
0.27724019 -0.45684326 -0.17258118
-0.17149924 1.30800784 -0.72865343
0.80454230 1.20111775 0.29467228
0.46165255 0.25843722 -0.24070407
0.12434869 0.14599946 0.65926039
0.99632323 1.06015038 -0.77273160
-0.68718725 1.22370982 0.21236558
-1.06848252 0.44188741 0.32095999
-1.00592291 0.90472120 -0.12764892
-0.51055259 -0.58968794 0.54405445
-0.95272005 0.83681595 0.26098269
0.20008639 0.89466226 0.64301986
-0.65822464 0.44596052 0.75125062
-0.25869438 1.48540378 0.45301107
-0.75833946 -0.27224654 0.65661412
0.91933453 0.99872279 0.22937261
-0.03348340 0.56210393 0.74869245
0.95238018 1.07081628 -0.39617881
-0.11166462 -0.57186937 0.27727804
-0.28965443 0.15724948 -0.56983560
-0.08491769 0.32340395 0.76625156
-0.97185844 0.57254845 -0.08939191
0.11117997 -0.49142671 -0.20331977
-0.73894602 0.71871543 0.63073736
-0.04935498 -0.14372295 0.76107997
-0.86363935 0.23884207 0.21988605
-0.70160103 0.07706252 -0.06814815
0.29046193 -0.25947517 0.38707066
-1.04118967 1.00471115 -0.04211151
0.83485019 0.77732491 0.31876197
-0.28538102 0.95102811 0.80676436
0.16734928 0.03746781 0.49187103
0.60797316 0.21117017 0.03808489
-1.06574023 0.31153306 -0.52119720
-0.71750289 0.54747093 0.40433908
0.20377140 -0.48379171 0.29652244
0.29495251 -0.46875960 0.64249188
0.02725506 1.18843055 -0.76767087
-0.48653826 -0.44615179 0.13097514
-0.78277016 0.52460128 0.26644367
-0.71005762 1.24808502 0.86477077
0.04913880 0.04824066 -0.41064721
-0.80526972 -0.23697436 0.15177020
-0.74649948 0.59617084 0.47500455
0.26239863 -0.14952856 -0.10195941
-0.57547849 -0.50518894 0.53969651
0.34202176 0.92481774 -0.67669737
-0.14097603 1.35765982 0.75883192
-0.52683073 0.01822236 0.72928089
0.09236714 0.69034582 0.76331937
0.12633888 1.33117855 0.71090889
0.57874852 0.90571719 -0.75657433
0.88824618 1.38313198 -0.43803516
0.60195482 1.22147763 -0.53849095
-0.57525867 -0.56369233 0.44332635
-0.12415919 1.48667312 0.22903228
0.40093860 1.22207546 -0.57255399
-0.30335471 1.57584798 0.71578360
0.14113966 1.44233871 0.41809794
-0.77449471 1.00772476 -0.68808937
0.47095689 1.18404555 -0.68058479
-0.86102790 1.27069533 0.40001366
-0.73352522 0.96117002 0.23040412
-0.72932088 -0.29406542 0.71956575
0.29532856 1.27153492 0.54482985
-0.33025563 0.50763375 0.74809885
0.34680748 0.30938762 -0.55635369
-0.54060888 0.05290508 -0.24213839
0.37993541 1.32037187 -0.68154263
-0.74209005 1.42523742 0.68033528
0.23684482 0.13302374 -0.48497784
-0.69167173 -0.00098562 -0.26461962
0.44766897 0.02479893 -0.43063205
0.47896111 0.87654698 0.50549918
-0.21116221 0.63396662 0.73334163
0.02674687 1.45719171 0.26512673
0.22585814 -0.00854933 0.72690839
-0.12461521 -0.55105269 0.73917550
0.44487047 0.67569101 0.50867385
0.50167525 0.60777384 0.34034732
0.43218142 1.31751406 -0.00035708
-0.72811770 0.12162217 0.37758189
-0.29095027 0.75224292 0.69231325
-0.59145445 -0.39711446 0.64676553
-0.98010808 1.17823732 0.20656180
-0.86065668 1.39180672 0.43683004
0.08713900 -0.10990709 0.74560064
-0.71885961 0.60286999 -0.71931732
-0.77067220 1.27663517 0.23498803
-0.56747961 0.09687412 -0.18490532
-1.03469956 0.73705900 -0.66989142
-0.57333297 -0.52808225 -0.04801952
1.01877201 1.29268694 -0.74839807
-0.84060723 -0.09908736 0.46176839
-0.73227042 0.97562099 0.30274013
0.89812917 0.57821584 0.32321420
0.07227013 1.52695107 -0.03552173
-1.00625265 0.31697571 -0.29976532
0.25418991 0.77786553 0.76406682
-0.95296401 0.97009659 -0.13938271
0.58039832 1.00071752 -0.72853535
-0.80509061 1.43568492 -0.04997071
0.65235645 0.25158042 -0.04443802
-0.71314675 1.50087762 0.20823441
0.34681824 -0.08041364 0.30479154
0.41570404 0.99766397 -0.76989841
-0.09755511 1.20950270 -0.44761750
-0.59435743 -0.42488980 0.28128535
0.81998760 0.28784263 -0.22212921
-0.82862526 0.30373311 0.75620258
0.11634739 1.40000510 0.80565715
0.80407226 0.24273553 0.18218409
-0.39982677 1.56852305 0.00467456
-1.05999553 0.75690901 -0.04626845
-0.40406796 0.69751567 0.75169069
0.28619963 1.05975699 0.45089272
-1.05583012 1.06264520 0.16252540
-0.02342448 0.93610400 -0.73250419
-0.25392169 0.01026517 0.71343601
1.02683413 0.38261974 -0.14706422
-1.03181696 1.02423215 -0.78649157
0.34389353 -0.00824630 -0.02426694
-0.16693461 0.64738780 -0.67466301
0.89994466 0.28455091 -0.71552944
-0.16311519 0.76606417 0.70022863
-0.48296580 0.12542903 -0.47151047
0.79234171 1.10311174 -0.69492626
0.50563282 0.31989226 0.28916466
-0.06283942 -0.35670465 -0.30685812
0.70768958 1.30171776 -0.50368124
-0.25030589 0.30036533 0.74142170
-0.55366749 -0.25580317 0.76036352
-0.88467741 0.33898276 -0.69264036
-0.75146037 0.25996071 0.26269689
0.22142069 1.45541441 0.63810402
-0.78358382 -0.04376179 0.31398639
1.01852655 1.10563946 -0.37698796
1.00670600 0.92003059 -0.53985465
-0.50251514 -0.49911922 -0.22374386
-0.31838390 -0.57136142 0.74491507
0.23976651 0.83619332 0.56509423
-0.04483618 0.69164902 -0.78370607
0.65974414 0.38761374 0.34645498
0.56974810 0.05992433 -0.10962041
-0.79079181 0.12952304 0.48713475
-0.40698162 0.88264763 -0.69377410
0.22970809 1.32217717 0.65744263
-0.04048241 0.35534260 0.79125345
0.44210756 0.39319968 0.57626635
0.42459401 -0.00171667 -0.27146068
-0.79147488 -0.33614624 -0.12168720
-1.04563534 0.68956405 0.19011807
0.21218994 0.22716689 -0.74775469
0.12159690 -0.49832147 0.59978759
-0.82404882 -0.05737036 0.66830999
0.51508719 0.75607955 0.37402883
-0.48210502 1.40097404 -0.09659412
0.23594095 0.24681750 0.73034573
0.12252650 1.47932768 -0.24298041
0.94087744 1.20669198 -0.23136760
-0.37699720 0.26538882 -0.57069468
0.47136340 0.77664995 0.27818009
-0.77309304 0.65693057 0.39180699
-1.02027464 1.24437189 -0.14782791
-0.96145266 0.52367091 0.15164490
-0.71567649 -0.03615016 0.54774541
1.01275396 1.14958692 0.15263373
-0.25874177 0.17382389 0.76811266
-0.94922966 0.34580308 -0.25813919
-0.06373744 -0.56209409 0.05173400
0.20935333 -0.52446163 -0.22201847
0.14574003 0.49887729 -0.71166068
0.65339571 1.21019912 0.25798365
0.27874267 1.31500196 0.71597505
0.37434494 1.01425374 -0.71856886
-0.97265309 0.31482947 -0.30874214
-0.72116613 -0.49226475 -0.28620014
0.49295717 0.49215254 0.33704272
1.04127455 0.67609620 -0.11162656
0.78862906 0.98904061 0.27335471
0.60106641 0.28418940 0.18328433
0.32971978 0.24548551 -0.82179266
0.19784772 0.25570476 -0.57535630
0.42195982 0.95220476 0.45202300
0.08650796 0.33678174 0.70868850
0.35531625 1.11573339 -0.73809177
0.81865150 1.21005034 -0.08577208
-0.90414155 0.80725491 -0.63053912
-0.55578142 1.51526487 -0.14871636
0.02884587 -0.10648638 0.72160918
-0.71833307 -0.44439667 0.01999235
0.58675373 0.70757133 0.24002738
0.87453103 1.27548862 -0.27376983
0.31416076 0.72844148 0.67506444
-1.03034472 1.11415505 -0.57349432
0.10907752 1.47918844 0.00638280
0.60349697 0.91241550 -0.68739063
0.31504220 1.32957792 0.42111591
-0.39542753 0.29504251 -0.64543080
-0.55489182 1.55461967 -0.23298417
0.56761521 0.59088093 0.30955020
0.54534167 0.29269290 -0.78901702
-0.53629595 1.08904743 -0.74869430
0.01413216 1.47745824 0.56711513
-0.58213961 1.54113412 -0.21262686
-0.20327380 1.48277593 -0.12539785
-1.05390739 0.56235957 -0.17377087
-0.49118137 1.44176149 0.39666733
0.89355266 1.11590958 -0.41088226
-0.60786146 -0.25582361 0.76840061
-0.44521335 -0.41743916 -0.16033995
0.55495650 0.65389067 -0.76823699
0.13082409 0.69104654 -0.77933240
-1.01038504 0.34424323 -0.30742663
0.22607899 -0.41982257 0.36860242
0.03464483 1.14168894 -0.29373133
-0.76275659 0.46759453 -0.75706625
-0.66758817 1.27895296 -0.25975257
0.78664219 0.59295928 -0.70502770
-0.56002825 0.24964619 -0.42789367
-0.37510532 0.17811435 0.74684870
0.17471758 -0.49421054 0.43287075
0.54130852 0.30081093 -0.69864970
-0.10357439 0.71575123 0.71788579
-0.79227656 0.52219361 0.55296266
0.98180193 0.75181007 0.23786625
0.92022675 0.29020682 -0.69644010
0.26972818 0.01304388 -0.50741255
0.26042321 1.38797259 -0.11442418
0.22337167 0.73162305 0.48607695
-0.48421308 -0.43009526 0.05870029
0.25833929 -0.42830652 -0.25816637
0.28085288 -0.24458402 -0.22457258
0.21885978 0.26644063 -0.65449315
-0.85549760 -0.05108684 -0.29643437
0.37721059 0.49829209 0.58785677
0.09915160 0.65438414 0.75400907
0.17510365 1.24543929 -0.09706413
-0.30341902 1.19675779 -0.72334915
0.31556943 0.21341091 0.52043289
-0.69612783 0.25785166 -0.51463866
0.30410087 0.79490012 -0.78250176
0.35565135 1.09389126 0.21406808
0.01920358 0.47198373 -0.64144909
-0.34538701 0.60300446 0.71166831
-0.82001156 -0.43109941 0.56841314
0.77780998 0.28817892 -0.10403123
1.05750763 0.67389715 -0.47666445
-0.87326717 1.30781436 -0.21709043
-0.52368730 0.22818694 -0.25053847
0.30100918 1.28957486 -0.23041859
0.89857119 1.36066747 0.20794825
0.94385773 1.12514925 -0.50206381
-0.44768846 -0.25496227 -0.25294459
-0.42626664 0.86229217 -0.76046056
-0.78904283 -0.37452412 0.17057037
-0.17978314 0.13393518 0.85838902
0.44757038 0.95179713 -0.75683796
-0.95807600 0.49573019 -0.80432892
-0.97423512 1.30469394 -0.49883363
-0.92578435 0.54110336 -0.48343092
-0.84116691 1.06013346 0.72636014
0.17465803 -0.19237620 0.22715363
-0.98868513 0.98760235 -0.80239272
-0.36247119 0.29246044 -0.79777580
-1.01342845 1.01437151 -0.60237509
0.23436993 1.35463119 0.11225700
-0.54710579 0.72680652 -0.73630345
0.04454030 1.52706170 0.30663708
0.24318765 1.22644842 -0.29011041
-0.29377002 1.26210499 0.73292786
-0.80583954 1.29778337 -0.40829793
0.22431920 0.66714829 0.64345670
-0.26544791 -0.39168078 -0.32419848
0.36438102 0.13976407 0.45943266
-0.11308486 0.10650325 -0.55824465
0.97206223 1.15394509 -0.35011411
0.75939405 0.81856060 0.22312535
-0.30000269 0.25951099 -0.56637084
0.31737396 1.31387401 -0.04774742
-0.85530043 0.47569567 -0.72640312
-0.39381054 0.29937857 -0.83973628
0.40101290 1.18962049 -0.84093130
0.01624663 0.27052230 0.73644972
-0.87089187 0.47220534 -0.76279074
0.58506006 0.97758603 0.21829630
-0.46710822 0.52567583 0.78195810
-0.37878823 -0.31497294 0.73485154
-0.99784923 0.63067466 -0.21097662
-0.28723419 0.01246709 0.78062630
-0.16311170 0.00095466 0.74962097
0.03768335 -0.24655467 -0.16315132
0.17744067 1.45058608 0.28694797
0.93602604 0.50575858 -0.62906283
-0.43088955 0.25873226 0.75943345
0.32109654 1.28509116 -0.34189662
0.26712939 0.99307227 0.73691738
0.25581688 -0.00683939 0.34149769
1.04939008 0.45930278 -0.49320140
0.86812454 0.60416698 0.23822562
0.77013427 0.60631281 -0.74064237
1.03251493 0.96424627 0.03263662
0.51253837 0.17981374 -0.06507242
0.53160065 0.17769441 0.04128042
-0.34773567 0.54210776 -0.74233693
-0.46534309 0.51770192 -0.74058944
-0.42477724 -0.09366482 -0.30730093
-0.76730430 0.26398990 0.41171697
-0.25041169 1.49667859 -0.08472810
0.62842363 1.15202522 0.26773769
-0.12659669 -0.53941643 0.78500253
-0.22559106 1.19210815 0.75715411
0.84753937 0.77242494 0.23898564
-0.06679823 1.42559576 0.54434592
-0.84504533 1.14538026 -0.74041200
-0.74953806 0.12887031 0.44838700
0.18825294 1.57794356 0.47868353
-0.32136187 -0.45465189 0.40641060
-0.72721314 1.36414337 0.68063998
0.77293408 0.66865313 -0.69559681
-0.15078121 -0.13764662 0.68607360
-0.57333064 -0.29344362 0.76888502
-0.15502554 1.47338748 0.42430079
0.33202612 1.16122770 0.26831305
-0.74673676 1.34912682 0.68906170
0.29389465 0.11159587 0.46624333
0.19905092 -0.39852244 -0.20188677
0.23953111 1.25358224 0.14361365
-0.58659339 0.38214689 -0.73333913
0.44567508 0.11317277 0.24091415
-0.35912648 -0.53102541 0.15155739
0.19354637 -0.32684064 0.06196455
0.24998768 1.34638500 0.45753777
-1.04987133 1.18800664 -0.60017520
-0.70762992 0.62257046 -0.70933539
-0.78200477 0.12466392 0.69131428
-0.73450893 -0.46373492 0.26943597
-1.01150250 0.60579699 -0.25749591
0.63605523 0.80251527 -0.73051649
0.45589536 0.15466452 -0.31117702
-0.53135890 -0.43318272 -0.16559838
0.24504615 0.26290005 -0.48895311
-0.89495909 1.05711842 0.15120293
-0.01165329 -0.53759694 0.08246790
-0.00845809 1.22278500 0.71992630
0.25042868 -0.14053559 0.01647206
0.77335000 0.22699404 0.14213689
-0.37677562 0.17758822 0.72770709
-0.98276496 0.22643390 -0.48370129
0.51162195 1.23063135 0.17847748
-0.65871656 -0.29631120 -0.05578295
0.84151149 0.65665531 -0.73653007
0.23588975 1.07091665 0.52231157
0.48780006 0.15633285 -0.40793070
-0.77029419 -0.49997395 -0.15044855
-0.41843688 0.89044386 0.69531733
0.23830171 1.26705241 -0.51282531
0.27346319 -0.01221371 0.07365680
0.14177842 0.03686565 -0.19853845
1.03728116 0.73526704 -0.53837168
-0.27323216 -0.26648688 -0.21376389
-0.00341644 0.25446957 -0.53407085
1.01948822 0.42314744 -0.15157373
-0.27848321 1.04232097 0.82093281
0.02197545 0.92681772 -0.76350731
-0.97010475 0.38771018 -0.68258804
-0.77331275 0.20085657 -0.60865122
-0.12397285 -0.10707712 -0.17058700
0.20866083 1.13484383 0.53011334
-0.82089889 0.28155118 -0.53160650
0.30781808 1.21839905 0.38889036
-0.09353149 1.48790932 -0.24357966
0.02635766 -0.43760926 0.19761862
0.41372478 0.13909024 -0.46924481
-0.19431512 1.19856882 -0.21852259
-1.01621425 0.96896881 -0.76266223
-0.42815050 0.59757876 0.78522903
0.00364448 0.13699293 -0.51565558
-1.00884771 0.93883121 -0.29102036
0.26399764 1.34275162 0.38090417
-0.77521032 -0.39196062 0.59558469
-0.05423029 1.18190956 0.70807278
-0.75569087 0.68851686 0.43343276
0.21461494 -0.53411114 -0.21614169
0.21487597 -0.42752570 -0.10351720
0.98206913 0.58565801 0.15535067
-0.04585038 0.03892815 -0.45935535
-0.11054809 1.19978690 -0.59154898
-0.25075331 -0.47598660 0.60382289
0.21203293 -0.10460520 0.69110185
0.17793764 0.73969316 0.81147146
0.24432300 -0.24051374 0.49940154
0.99159610 0.18317285 -0.61486143
-0.72842014 -0.05684191 0.32643273
-0.70354104 1.33308172 0.29628038
-1.05335009 0.44586152 -0.20249036
0.81424785 1.09623051 -0.73434973
0.30277026 1.09728456 0.20555241
0.97523582 0.54681379 0.05350885
-0.10757197 1.52289736 -0.03030450
1.05054915 0.63640076 -0.00483221
-1.01513863 0.64884102 -0.70774740
-0.59291506 0.22075728 -0.56255400
-0.25422376 1.49715316 0.19727060
0.80633092 1.23588848 -0.71880430
0.82366747 0.61036122 0.21618977
-0.35802656 1.51289868 0.77089143
0.69162774 0.39575559 0.30473280
-0.17677212 0.84038770 -0.82760930
1.07530975 1.20543027 -0.06839699
0.51931041 0.11357185 -0.32931507
-0.10420818 -0.55362236 0.14486605
-0.81771010 0.35422206 -0.76829624
0.82661706 0.23034179 -0.74956226
0.44139904 0.27727970 0.30770567
-0.14575884 1.55634630 0.45923844
0.09795541 -0.24533677 -0.19534178
-0.44783708 1.50472105 0.53649682
1.01037788 0.57132971 -0.36541846
-1.01349020 0.72889841 -0.51400101
-0.29526192 -0.52468204 -0.08565247
-0.68469650 -0.15522093 0.12718178
-0.54214102 -0.52699792 -0.03696703
-0.08558486 0.00767282 -0.44938451
1.01107156 0.32598433 -0.18064865
0.47509316 0.84162092 -0.79632229
-0.39945811 0.61863863 -0.64246231
0.47654915 0.88565111 0.33349022
0.06486422 1.20138597 -0.68587482
0.27207565 -0.34875232 0.70014608
-0.45970747 -0.34873670 -0.28532749
0.22676659 1.07815933 0.67925978
0.21863148 1.17122483 0.67427188
-0.49690259 -0.31574237 -0.29131967
-0.68893111 -0.49569011 -0.05262204
0.83885413 1.21130395 -0.09325665
1.00013399 0.70709443 -0.41362345
-0.74025929 -0.07937944 0.25151005
-0.59100276 0.24206024 -0.50828648
0.90917766 1.20032179 -0.45463708
-0.70931959 0.32789356 -0.53976876
-0.90576375 0.95581967 0.27961043
-0.78754926 0.25724739 0.57295567
0.05100013 1.46507692 0.56263572
0.78140342 0.22058028 0.24390371
0.75506532 0.53114378 0.30713263
0.85050726 0.45225212 0.27097195
0.99357921 0.72214389 -0.22517775
-0.19925010 0.56652325 0.67671901
-0.72236949 1.05428052 0.25684112
-0.15971842 1.55853295 -0.24026580
0.73972964 0.68398774 -0.73903376
-0.92718995 0.67756617 -0.75374800
0.25520983 1.35496807 0.49158278
0.29675859 -0.37808573 0.06840318
-0.81752467 -0.13847625 0.62496912
-0.38994348 1.35409546 0.73943925
0.51977086 0.10000399 -0.33608747
-0.97640187 0.73270929 -0.13576125
0.79364723 0.32501245 0.25577512
0.54234606 0.87118411 0.49134973
1.03435349 0.95540929 0.22214475
-0.96698964 0.45177603 -0.16453323
-0.76301759 0.37095618 -0.71136576
0.12299393 -0.48268628 0.64033049
0.47094586 0.45092034 0.42818925
-0.53646851 -0.29907894 0.71695107
-0.23294222 0.50821179 -0.69930792
-0.02291691 0.57782853 -0.75403523
0.19494967 -0.32080078 -0.18647923
-0.47705305 1.55000091 0.24599761
-1.05218291 1.25340986 0.18295790
0.99102914 0.45281118 -0.31484726
-0.69473797 -0.49850792 0.62097782
0.24081689 -0.19645309 0.33527219
-0.76241237 1.00720334 0.54657191
-0.35232565 1.47369504 -0.12315267
-0.78742272 -0.21635872 0.44939360
-0.13981345 1.45116091 0.72367239
-0.39155370 0.28134140 -0.62218887
0.14861624 0.15314108 0.64764202
0.02442008 1.33118510 -0.54288948
-0.57709235 0.05196950 0.71965396
-0.55614942 1.19160771 0.81262660
0.02013354 1.22811437 -0.38113755
0.88693601 1.21295261 -0.16557311
-0.35389990 1.20048058 0.80947441
-0.80328441 -0.19759119 -0.26708174
-1.00230014 0.79282725 0.21771355
-0.04263590 1.23424387 -0.56276834
-0.77330619 0.43162119 0.27180532
-0.37881011 1.03817546 -0.73590535
0.04249344 0.33827934 0.78143108
0.65141863 1.25483584 0.09301566
0.94900334 0.25630894 -0.05173574
-0.14642571 1.29999518 0.73088551
0.96099854 0.28869629 0.24481910
-0.76731151 0.21967003 -0.06692404
-0.88773233 1.25879610 -0.39141670
0.97822094 0.73459053 -0.09486301
0.21680604 0.81017244 0.50280625
0.97242212 1.22944474 -0.75280970
-0.33514386 1.53154671 0.48868412
0.17450312 1.24764526 0.81551176
-0.01813073 1.00633311 -0.78570539
-0.15936455 -0.21823949 0.78292358
-0.62510085 -0.37335110 0.41565621
-0.16964960 0.37032884 0.69928408
0.63245064 0.24228379 0.23703107
0.22594102 0.71885198 0.58498490
0.53104311 1.08614874 -0.69815731
-0.16710477 -0.08165872 0.77441835
0.55600047 0.21531424 -0.59369594
0.08917032 1.53619146 -0.13194439
-0.44173580 0.11946350 -0.48320961
1.01559460 0.52047247 -0.67086643
-0.39356622 -0.44849694 0.05363721
0.79523289 1.12594676 -0.79599756
0.12433828 0.17427838 0.78019851
-0.60684109 1.47219276 -0.17558195
-0.19879857 -0.32512307 0.71039855
-0.91838896 0.75892627 -0.21485481
-0.34494326 -0.47836399 0.64844501
0.00486637 0.33812833 -0.75225693
-0.78128868 0.11933899 0.16261433
1.00528610 0.88210601 0.16963519
0.56941861 0.79713178 0.51078814
