6.81654215 73.98785400 3.59271431
-5.03851032 75.34230804 1.74318814
-7.73846245 77.89363861 -3.72391295
-3.37135053 72.61653137 -6.39292812
2.52683806 77.82460022 -4.83393240
1.12547886 80.76524353 -2.58070540
-2.94073987 68.13048553 5.08077478
-2.25087833 63.92727661 -0.44283518
-5.86919069 70.28906250 2.86756325
-8.39326191 73.28843689 6.54370070
5.82763863 77.58495331 2.40909123
-4.83439112 71.58312988 2.38486362
-5.26813936 81.38223267 -1.70219016
0.47340649 80.36380005 8.37543106
-4.96957636 65.44972992 0.03569510
3.23372674 77.13333893 -5.67494059
-6.04837704 71.44318390 0.34748647
-8.19526386 80.10466766 5.20901394
8.19357014 81.54044342 -7.42647171
4.52106619 68.24164581 -3.52705860
4.61889505 77.54901886 5.30494261
-4.78046989 63.17586899 0.86297774
-8.53374863 80.18435669 -4.46870947
5.16921568 80.58064270 1.54663706
4.30209017 70.00222778 -5.97860003
7.55498457 78.49626923 -1.13703322
0.97067833 77.74588013 7.23282480
-0.77586520 77.94879913 -7.80344772
3.71687651 80.50532532 -4.09214163
-4.39389133 72.17720795 5.79708481
8.51667881 79.22362518 0.28896555
-7.84572124 81.09970856 -8.56810188
-4.33876371 75.61406708 6.91016483
-1.27117062 71.33659363 6.05702734
-6.04588985 80.94277191 -1.49045169
0.89370894 75.75841522 7.08075666
-4.07762909 78.37237549 7.70692205
-1.20978642 78.03240204 1.27223921
7.78940964 74.82813263 -5.57073307
8.92866993 81.09356689 -2.99995780
-2.62818360 78.29779816 -6.52246523
-6.19364882 68.48207092 -0.28018525
-2.36458349 64.64935303 3.17400980
-5.98502445 80.69494629 -4.02761221
0.29345864 63.70605469 3.10163403
1.12095904 80.77241516 -6.33477783
-5.27145672 74.19818878 4.35338593
6.38198662 69.01409912 -1.40753627
-1.71392107 76.75885773 -4.43851852
6.20397520 78.39118195 -2.91389561
-1.99230683 74.98915100 5.49939013
-8.53287792 81.52798462 5.31669521
-4.81419086 66.71665192 -3.46894813
-4.53259420 78.22379303 2.30362129
-3.27902126 64.41634369 0.18104011
6.58203220 73.81009674 1.15912688
-1.49485016 80.97817230 -4.55254650
4.92603302 80.65444946 -7.90609121
-7.78058386 76.18058014 8.34426022
6.06264734 80.12928009 -3.56434894
6.80765581 80.71076965 2.20789552
-1.42228067 73.77811432 6.24951172
8.60090923 78.62756348 -1.67892385
-5.67685127 72.32421875 -3.93703961
-0.24244118 79.24253082 7.64123154
-2.58526826 80.41456604 0.39897600
9.07280445 79.24741364 -6.05009413
2.22306538 75.63459778 6.64296198
8.39275455 74.96737671 6.48467350
6.40039015 69.57762909 3.21813130
-5.38072062 67.93921661 3.72033763
7.79517078 74.47869873 -4.69216967
-4.63955212 64.64303589 1.37551963
3.40695715 74.44193268 6.97079611
-4.74519730 80.45700836 6.14084148
-7.94657803 80.78988647 -7.17250824
1.28779125 62.81473541 3.20831108
7.06163883 74.27600861 -6.68750620
4.00974703 75.00156403 -5.34771156
7.74112415 74.55844116 -7.88418388
4.37824821 77.56911469 7.92006731
-0.86960566 79.85221863 -8.89355469
-4.65035009 73.49781036 4.21955252
7.65528345 76.47035980 6.49936247
5.76074743 78.09564972 5.91613626
-2.70543671 66.87839508 5.93284702
-7.90509748 73.87023926 7.08002234
5.94736767 80.37837219 7.24192142
-4.53847456 67.35670471 3.67323041
7.83269501 75.32926941 6.19551754
5.00116539 76.71240234 -3.89155602
2.99169016 70.34204865 -5.42457056
5.43761301 73.45187378 -5.38662577
-5.90418768 66.87824249 -1.92691994
-0.75761300 73.29372406 -7.31833029
4.04214525 66.91966248 -0.11394871
4.80000353 74.47888184 -5.30197573
6.17378426 77.44358826 -3.86082220
5.44001293 79.98085022 -2.57698631
3.98144960 70.51736450 -4.66459846
-4.81078053 64.77861786 0.96613455
-2.58177876 70.50082397 5.65072107
4.60165453 76.92462921 -5.15094328
-8.21845341 76.50273895 -5.55429554
-7.42466211 71.24634552 -0.00856004
0.52209419 81.13098145 2.87732959
4.76507425 73.36019135 -4.92449665
0.86361057 73.96282959 7.42583561
-3.59632516 70.35571289 5.73135948
0.98583907 73.79863739 6.06236172
6.26559925 74.74168396 0.37098861
6.14715290 80.46288300 3.40315533
-6.57406092 78.35195160 -1.94567609
-1.80353773 77.58800507 -4.56346846
5.96862221 72.16981506 -0.54830891
0.30349362 77.59223175 6.72626591
-3.49751639 77.19774628 -4.52259016
-5.32418633 67.04096985 -5.36488438
-7.41529703 80.52450562 -1.66311634
-5.12166834 73.81589508 4.86804867
-2.73292303 75.92754364 -5.95264673
-6.70103884 73.50802612 1.93613529
2.29962659 66.44321442 -4.74151468
3.22312212 75.26025391 -5.53284931
-2.89395642 80.22450256 5.77902365
-2.23859048 80.25585175 -7.79518127
4.32738018 64.22061157 1.44782913
5.21800518 77.57476807 -7.78618050
-4.19899178 63.92078400 3.65737128
-3.04039645 77.27194214 4.72324562
-3.23618627 69.31529236 5.89588022
-2.33028388 67.73789978 5.44161367
-5.05368996 71.65943146 5.06398344
2.00915718 67.46560669 -5.43858051
-4.21239567 72.90913391 -5.47601461
6.63882303 73.56792450 3.76142120
-5.31929827 77.09746552 1.77038479
-0.70884174 79.00413513 -7.11753845
-0.70218635 80.29712677 -0.55963081
-8.59926033 75.04307556 -5.13449621
1.58310223 74.45472717 -6.01900053
3.00661707 78.16106415 -5.55558586
-2.76935959 80.04432678 -6.87291718
-8.12935066 74.20135498 7.16864681
-6.49127293 71.50273895 3.39765048
-0.47981119 77.32537842 0.28976363
-5.46892548 74.36781311 4.89860535
-3.48704576 78.05412292 3.17440653
4.27695656 74.28330231 -5.36578226
-2.00243664 65.88753510 4.16298628
2.90942526 63.98981857 -3.06715393
6.55102587 72.66016388 1.77266324
8.52372169 78.30931854 3.54489660
0.22147481 64.01455688 -3.21911001
-2.94453263 68.56208801 4.90022373
-1.00214410 80.51723480 -0.07255626
-4.20969963 80.79431915 -4.44674301
-6.88102770 70.54885101 -1.43558681
-4.55407047 68.41004181 4.01683426
-1.89000487 80.55400085 -7.89830351
5.52712154 71.73197174 4.91193628
-2.45187712 69.67450714 5.18885326
-0.35206121 69.35588837 6.41031933
4.33012009 77.56645203 -6.85895729
7.25090361 75.60794830 -0.49013716
-3.13200593 73.42778778 7.17328310
-2.49916577 76.29574585 6.96040344
-6.48439121 78.99675751 5.16581821
6.02407694 67.86505890 -1.75689375
-5.49939251 80.30514526 6.83879089
-1.91177964 73.40609741 5.91442251
-6.41061926 72.04148102 1.36027622
-3.01124930 77.71372223 8.09055233
-0.13260722 79.73311615 -8.28325462
0.70885700 63.55389023 -0.38333958
-0.12508079 80.85375214 8.12369919
1.02317667 72.89358521 6.98251438
-5.68340158 74.13085175 8.05736923
-5.82476807 72.41077423 5.16971922
-6.51363087 78.98207855 4.97268867
2.70513463 77.93807983 -0.62222010
2.21521163 78.05332947 2.39127088
7.89908504 76.94846344 -5.90974045
-1.28200912 80.56356812 -7.47329330
-1.54726517 66.34389496 4.95186424
-3.15138435 69.90480042 6.05606270
-0.76968163 80.01864624 -0.74515355
-4.52934790 65.46416473 2.19220448
5.20024443 72.98281097 -2.70163560
4.23758984 67.38381958 5.33468485
1.90481341 74.55138397 5.69381618
7.42698050 79.22063446 -2.21320629
-4.08828545 70.72753143 3.71217251
7.55363274 80.50566864 -1.59632969
-1.47865605 66.20551300 -3.79512954
-6.46401501 75.21085358 4.94965029
-7.16297722 75.14405060 1.76592135
0.08940760 64.82271576 -4.46347189
-4.55137920 64.54809570 0.87308598
3.86709261 77.45150757 -1.14991927
6.70788670 79.83059692 8.67174816
-4.84960222 71.56058502 5.09542704
6.53958464 79.64145660 -3.48914576
5.98053694 78.15527344 -8.39216518
0.59092587 64.72623444 -0.70187724
-3.82429504 63.82124710 0.66114712
-0.96149868 80.35239410 -4.71696663
6.26045990 77.70515442 -3.92483568
8.03329468 79.81388855 -0.99677110
-5.80792332 75.62287903 -8.44245052
3.58546329 75.32951355 -5.82304621
5.28082085 69.84579468 3.64105034
-10.01209450 76.53414154 5.88525772
-4.77595043 78.12233734 2.60253954
7.66329241 80.75266266 0.82257539
5.72020245 77.62124634 -4.13756847
-7.61411381 78.25874329 -3.37149906
3.00946569 66.64727020 6.19492531
6.59827137 75.41695404 -1.80214882
4.43486834 78.42245483 2.76964307
1.93582213 80.18266296 -4.53941584
-3.15783501 73.83309937 6.38487053
-7.48562956 77.86710358 -8.67445469
-2.82551169 67.12489319 6.31813812
-6.36239147 77.94456482 -1.77489793
6.67023754 80.27913666 -1.30322719
7.27234030 76.95462036 4.22421646
2.53311944 64.46788025 -4.10599136
-1.85734844 67.14487457 6.29760170
9.49090481 79.65004730 7.30196238
-0.31202084 73.44269562 6.37538052
7.96687984 77.22100067 -7.13125277
0.08701022 65.00096130 -4.75363445
2.94013476 68.74298096 -5.76368618
8.79120445 75.52780151 -7.12608576
3.29082942 66.98709106 -3.70823908
2.23702168 64.27972412 -0.91360432
2.69866300 63.97081375 0.56817931
-1.67918766 74.59150696 6.56366491
2.67931485 63.58420944 3.46923971
-1.83019793 80.83757019 -5.51613665
3.52472854 80.34219360 -6.34288359
-5.99522543 71.69751740 -3.68732452
-2.90159798 80.53596497 7.54333162
-4.61935091 74.31159210 -7.24963856
2.91498089 75.19458771 5.82566071
6.63779640 75.68322754 -4.25589466
-3.13420796 69.52263641 6.16316223
-0.85661763 81.11350250 -8.05755329
1.53200793 72.14883423 -5.65560770
-1.61159468 78.67782593 -2.97405434
-5.31976175 77.66555786 0.69028342
4.90649986 75.93381500 -4.11900568
5.33616638 69.91078186 4.18799496
-5.42413235 71.76555634 3.53478146
-9.72548199 79.48133850 -5.48351479
-8.57453060 79.88807678 -4.55507469
-5.05129814 71.93993378 3.31168413
-5.97200537 70.37868500 2.74197054
0.60150659 71.05230713 -5.25370455
2.45773506 80.80280304 4.57218790
5.62997246 74.53815460 -5.24809790
6.23392963 67.69388580 1.18312252
-5.99894667 73.37786102 -7.83343410
-8.03638649 74.94152832 -5.98456240
4.52350330 76.45322418 4.69095993
-3.22211146 71.41883850 5.95255375
8.17673397 75.50065613 5.96741915
-3.95319796 70.87319183 4.64906454
-6.87784243 80.41886902 -1.20154381
5.16422939 78.48632812 6.76752663
-4.30988312 74.90052032 7.64028311
4.96123314 77.33464050 -6.56765652
-1.78228462 77.49554443 3.00225592
1.94828200 80.79822540 -0.91978467
0.42673543 63.61969757 0.06916758
-7.63633966 77.66522980 -1.51286471
7.20551729 77.94168091 -0.69379127
-7.62424469 76.40227509 -5.25703716
3.83748531 68.58840179 -5.72678232
5.40070152 77.24095917 3.64181280
6.85442495 77.90141296 6.56413364
-0.24304411 64.67896271 -4.69839621
-6.53687382 81.05783081 6.36643124
-5.19153595 71.61759949 5.28408670
4.24577951 67.09625244 -4.64369154
1.54826963 73.27985382 5.96186304
4.17240667 77.94705963 2.85970545
4.67338753 80.25678253 8.58053207
5.77306223 77.52476501 -4.53769684
2.33891654 73.92247009 6.92184830
3.73910332 63.26676178 -0.62522578
-6.41284609 71.56864166 2.70583034
7.42360830 78.41782379 4.79226732
3.41083050 77.74908447 1.39586079
6.25973272 74.29847717 -2.15936780
0.79815668 80.53565979 -2.73269272
-5.50484610 67.80310059 2.98736095
-4.64339733 76.51232910 3.17855382
-1.06781900 72.34893799 6.75626802
8.27326202 79.98010254 -6.03657866
1.65268099 76.86405945 -6.73781252
-4.03066635 77.34220123 0.95032072
6.52777243 79.44650269 7.25088596
-3.86093736 79.78469849 8.68403053
-5.06676054 68.40127563 -5.09534311
-4.69354868 74.92047882 -7.50190592
1.32487285 77.89458466 -7.79983044
2.59503436 77.70796204 5.73457050
5.54063368 71.75020599 3.23507476
-6.32139921 74.39194489 5.82528639
8.43061256 80.21372223 1.59882474
-1.78530061 78.81643677 7.58232784
-7.35569191 81.16532135 -9.42534161
6.47196293 76.16825104 -0.33257595
-4.79688883 67.25282288 -5.09472799
-5.29291105 78.82234192 -6.24487448
-6.69267845 71.47019196 -2.58324766
5.68272066 69.61652374 -3.05997300
6.51385164 71.70652771 -0.57549918
-1.27491629 71.63093567 -6.46793985
-6.60757780 78.30655670 -5.41692829
-2.98454118 63.66553497 -2.01408792
-5.74371862 75.80818939 2.45627427
7.14654493 78.51942444 5.18928766
3.94598651 64.76982880 3.02394819
-8.72402954 78.75248718 -7.71077728
-6.96771288 76.06270599 -7.85403156
-7.01306915 74.78205872 9.17970943
-1.55579841 80.42625427 -4.60190392
-5.37264824 76.80263519 4.89982319
7.77367544 74.87807465 -8.83280182
5.34437466 78.00876617 -6.00017929
6.35812235 77.31024933 -3.92250586
2.55945230 74.14656067 -5.70589113
0.03740507 64.30036926 -0.16598986
0.48445028 71.20982361 -6.13936996
-6.83599520 74.84999847 -0.39313492
-4.79539156 72.36978149 4.07237387
-2.13749194 77.14146423 -7.02701187
5.41567850 71.39419556 -3.36862993
2.73398972 77.90120697 -2.59441805
-2.45118546 76.74787140 -5.52128506
-5.92968512 80.71849060 -3.26064205
4.61661339 78.18536377 5.91817045
-8.38766098 77.48511505 6.18038416
6.10560083 74.54792786 -5.60132408
1.43845057 79.39830017 7.75735283
2.91149330 63.84148026 3.43623090
0.11995199 71.70949554 6.40140724
2.71142840 77.70985413 6.18238831
6.14300013 80.04461670 3.59643865
-0.33446681 80.64100647 -4.48249483
7.89147758 79.82646942 1.32983160
-6.71023989 76.94181061 3.70487356
5.33650684 77.03459167 7.90341806
3.86081457 63.80877686 -2.13256192
5.54671001 80.84291077 -2.49098539
5.62847900 72.27037048 -3.71510816
-8.21505070 78.59489441 -0.41481239
-5.70903635 69.75884247 -0.80737948
7.68276596 78.90373993 1.24804926
-4.26476336 80.14795685 -5.17459011
-3.12348199 73.11555481 5.07274771
-3.69343376 68.94058228 5.95792341
5.55616617 75.77317047 -3.18302917
-0.95047039 77.36434174 3.22539234
0.76490563 67.95013428 6.13768482
5.33238363 70.16359711 -3.64412618
2.04561996 68.50354004 6.51865149
-6.76516533 69.60718536 0.13125516
8.00985622 79.00827026 8.91207695
-2.28713894 77.62921143 -3.74267387
4.68523502 70.93839264 -5.26127100
2.78512573 74.01003265 -6.20941782
7.26196146 80.54882050 -2.78694344
-5.73087549 77.31124878 -3.66424322
8.17301750 79.46126556 3.69778848
-7.69478226 75.32096863 -4.32542467
8.17641544 78.00879669 5.71973228
-4.56746054 74.19465637 -5.88021183
-3.61126399 67.08605194 -6.40944862
8.14925575 78.15531921 -5.27213573
3.32699680 77.62583923 -7.38052559
-2.71799541 80.14978790 -5.90121984
-4.78796148 72.51671600 -4.71335793
-7.49436378 76.18921661 -6.06998587
4.08617783 78.03690338 2.84876823
4.55226898 66.75541687 -0.56872922
8.06977272 81.12712097 6.24515724
-1.70982635 79.85712433 -8.00975895
-8.76469994 79.85729980 -5.89927959
8.78851223 79.99404144 -5.11619282
2.79486084 67.70674133 5.72390938
2.87936568 64.20677948 1.75224435
3.24827003 79.92380524 -2.21771598
2.74030161 78.10920715 2.85173059
-5.91264248 73.53813171 -6.35037851
-5.89847374 76.91250610 3.83112216
-5.54961681 77.56845093 1.82454813
-2.23722839 69.71208954 5.55019283
-0.16935155 76.49024200 8.35393715
-0.45595267 78.11415100 -4.79922915
1.03553581 71.09352112 -5.51087999
-6.18832302 75.42262268 8.58778191
-5.84787321 68.82855225 5.03053284
-3.88183761 77.64887238 -5.90085173
6.22094774 76.99554443 4.50433493
-1.82439065 79.23875427 -7.09673262
-6.99745750 80.08387756 8.13327503
1.34072852 73.14163208 -6.04372740
-7.06572342 80.04663086 -9.42525673
-3.50341582 73.37887573 -5.50968313
-3.89528871 78.01354218 2.85173941
5.15122414 70.44667816 3.96338463
5.72497034 80.78127289 2.45601368
-7.57837343 78.75903320 -6.97226810
-1.83200026 74.87644196 -7.34063148
3.09652400 80.79554749 -7.01292086
-6.39125443 80.75901794 0.15774550
-1.00078607 79.79914093 3.30659008
-7.15100622 80.38697815 -1.09211433
-4.25080490 80.54903412 -6.05471277
-7.78786373 75.06285095 -5.75668001
6.73514366 77.53372955 -3.01563048
0.66481763 71.60684967 -5.83594322
7.15942717 79.09482574 0.55788779
-1.84658015 80.26485443 2.48216581
-3.30776405 70.38577271 5.74310112
-3.78065920 75.82659149 7.10556841
-0.72754908 63.85505295 1.21857989
-5.53214693 76.80546570 8.32185173
2.55927348 77.28244019 5.24263954
5.08661938 72.02381897 -1.05610025
7.86770582 77.71478271 -7.41870165
7.01564884 79.07052612 5.61411667
-4.68681049 64.10407257 0.01885005
-0.10538627 81.12022400 -4.97610378
5.54156446 77.99942017 6.72099352
-4.41950417 78.94932556 -7.47127438
-3.93171930 77.69752502 -5.88498020
-2.85765052 70.12878418 6.87356520
5.03543663 73.38688660 -4.96905708
-6.95261526 74.38217926 -0.66160178
1.12045169 77.77625275 -3.68932176
7.21359110 80.35048676 5.66054869
-0.88749701 79.92405701 -2.66494703
-7.91124964 79.87762451 -7.93005896
7.12931156 77.05612946 -0.44794670
-2.33676004 63.60189438 4.68509388
5.09653425 81.26918793 -0.55793411
4.03125811 72.96325684 5.86643267
5.51139975 80.55157471 -0.56476021
2.67216015 78.26432800 0.03249644
-0.02569566 69.46031952 -6.82427406
-6.38312531 70.95352173 -4.24304676
-3.67738390 71.90216827 -5.65446663
-1.10282588 64.20219421 1.62525725
-3.81019616 65.17567444 3.19705915
5.30969906 79.76200867 8.79545307
0.01261937 70.93390656 -6.24688387
-6.42865372 68.77741241 1.60997069
-4.74294519 77.33057404 -4.70199585
-6.00149107 80.59187317 6.54822540
-5.96603012 66.94399261 -1.14006507
3.98598909 78.10935211 -0.73445207
2.68419957 64.43115234 -1.10125411
-3.18600059 68.69780731 -6.03933716
3.25103998 69.49739075 -6.22292662
-6.68232441 77.39813232 3.90602660
-4.61963415 71.92058563 -3.72937012
7.90284491 77.83134460 8.19881535
-9.26589203 80.20515442 -4.96169996
-0.29422966 64.50997925 -2.87104845
4.21126795 80.81989288 4.05678511
3.88524771 74.75995636 6.42148209
4.11799431 74.70162201 -5.56463575
4.26387691 65.96073151 -0.40126929
2.78980470 78.72634888 7.24145889
-5.42751265 72.10142517 -2.38438201
1.11244726 67.83229828 3.90537024
5.86028337 74.73558807 -2.45116210
5.46126556 81.11727905 -2.99708796
-3.61923289 63.75725174 -3.36772346
8.24339676 79.97092438 -6.46772623
3.92134452 81.33299255 -0.70141971
-6.81190872 77.80874634 6.37912321
-5.74413633 68.11344147 3.30615664
7.53790998 71.02079773 0.95040274
-1.36027527 75.64229584 6.50674915
-5.11655998 66.68079376 1.55969799
-0.29164487 71.07897186 -5.49006653
-0.22107489 66.12123108 4.35627699
4.69005966 64.66550446 -1.79127872
3.30123806 80.33201599 1.37366951
9.15982151 79.71183777 6.75459003
3.92733526 80.86970520 6.67669678
-2.26395249 77.97512054 7.20412588
5.86703300 80.59436035 -5.00548506
1.51156378 63.58365250 4.33064461
6.88442135 73.47240448 -6.77658987
6.37246370 68.20993042 0.85564893
5.93118095 80.49712372 1.56998646
1.79918838 78.23456573 1.87653542
-6.60194111 74.22878265 7.60237265
-1.99879885 80.79061890 -5.74507618
-7.06703281 71.70654297 -0.02409201
-6.86625910 73.70043945 -7.24090958
-4.28166485 67.04660034 3.08912134
-6.20911360 74.58681488 3.11070800
-3.96801686 64.53302765 3.74303770
-7.93398142 77.92691040 7.35725927
5.46985531 68.56934357 -2.78238559
6.59674883 74.12911987 -3.38014960
-0.55260992 76.84424591 -4.89205360
-6.22651196 74.14044952 1.03561902
-6.25012302 81.03219604 -8.17811012
8.07931614 79.64715576 7.55763388
-5.57895660 77.07820129 -3.94746399
7.49645853 78.30778503 -0.39480713
-1.88458455 73.29301453 5.62851381
1.47640908 67.82991028 -6.38035870
2.51039243 69.49711609 -6.35693312
5.74618196 73.70002747 -1.70712352
7.37544680 80.32286072 -7.43484926
3.08559608 64.13904572 -1.09240341
-9.29523563 80.80696869 -8.30757141
-6.55187798 73.23136139 4.96645021
-5.11798859 68.38151550 3.29649949
-0.81541622 78.62332153 7.03877831
-4.20883417 63.28878021 0.31004149
4.30936718 67.05376434 -1.21932507
-1.11938345 70.87894440 -7.17522001
5.33766794 80.40254211 3.98323035
-4.42174053 80.73758698 4.41052103
3.53815579 67.21331024 -2.99362373
-7.34730291 73.68212128 0.57986438
4.01217508 70.57511139 -4.02601624
5.89412165 68.55013275 -5.40987682
2.26702690 69.72386169 -6.04516268
-0.87427968 78.73500061 8.33933926
0.46200627 78.19995117 -4.40814018
0.21693210 77.50891876 6.99968147
4.97827148 63.58736420 0.10090344
-5.28306293 69.98792267 4.00004816
-4.85004520 72.16901398 5.76347303
-1.27686191 72.70886993 6.26537323
3.14414668 67.07404327 -5.47440290
7.50827074 80.11460114 -4.21848965
1.99113953 79.81182861 8.26614761
5.58350706 68.53839874 -3.92625618
-3.06817865 80.03617859 -3.20383787
5.43351650 79.96932220 9.19322205
-2.93241024 73.56660461 5.69051409
2.21936369 75.56684875 5.36073112
-6.49387693 68.60368347 1.54898453
-3.16361475 81.10912323 -3.48103213
0.51216805 78.04543304 -2.26163793
-2.10936022 75.46340942 5.81966877
-0.99717408 75.06359100 6.67566013
4.37250185 76.69670105 -6.51502752
-3.00359797 80.80888367 0.52834094
2.20721078 74.56892395 -5.89190388
7.97248268 79.73679352 2.99024153
-2.82331967 72.99100494 4.95836210
3.60966802 77.72570801 -6.88228130
-0.51190591 63.87555313 2.90254021
0.19605309 73.36059570 6.44585562
2.00102997 80.73048401 7.75906754
-4.23348331 78.74939728 -8.25394726
4.92237902 70.71286011 5.24497128
-0.48160270 64.26151276 4.35524416
-5.22470570 74.52510834 -4.59864902
-8.26328564 75.78298950 6.99959278
7.36187077 75.50154114 8.36151981
-1.49247789 70.24723816 6.31385565
-5.70840693 76.51278687 -2.91816401
6.38104725 75.54878998 4.30901051
2.59662223 78.84777832 7.58316898
-3.90466690 77.84692383 -2.45022941
5.38860703 70.88518524 4.34629393
3.09300232 66.75888062 5.03711224
-5.93819618 80.94946289 3.77267838
6.81201744 72.61064911 1.65121067
4.35096741 78.06957245 -4.62276888
5.27486372 76.62117004 3.31274581
-6.40172577 80.74230194 -6.64597797
7.49622059 75.35295105 -4.53678846
4.64246464 67.74208069 4.57446480
3.78775692 77.88082886 3.99200416
-3.47475195 75.17821503 -7.13649130
0.70221871 78.98489380 -8.20076275
0.52889532 78.38658142 7.96995068
1.91950786 75.96826172 6.18286705
-0.09321652 80.58971405 -6.52742338
-9.26311493 79.23625183 -6.32948351
-7.10128164 80.84756470 -5.60000277
6.50409317 80.62046814 -0.23155029
4.58503675 67.24861908 -1.92533696
5.35904408 80.32375336 -7.75568628
-7.26406050 74.91425323 -3.40146685
3.62527585 74.98363495 -5.93628979
2.84689116 68.73802948 6.01422358
0.03014981 80.00770569 7.23253727
-0.19506852 68.58968353 6.57808447
-3.71282554 74.31209564 -6.58013821
5.24988699 72.00363159 -4.63725281
-3.30942488 78.52335358 0.51624662
-3.69022846 76.01790619 4.99218559
1.22006953 68.15712738 -7.22825241
-7.82154131 77.49889374 -6.19672155
-7.77852249 79.97076416 8.89919853
-3.60571527 79.32914734 7.21104479
5.71929312 72.01043701 3.37943578
7.93731403 80.58847046 -9.11694717
1.74973774 68.07460022 -6.05791807
1.13781869 76.86142731 6.88468838
6.85774469 77.10425568 0.37896308
-3.67850041 74.08784485 -7.21163893
-5.28320217 73.45745087 3.56494641
2.56384706 78.10121155 -7.27102089
8.58003616 80.09176636 3.96494651
-6.44047689 80.62308502 -1.17644536
-2.15547490 72.54747009 6.52436686
4.79255724 77.61322021 4.26741505
-3.75000787 77.31159210 3.99809527
-6.14682055 77.62877655 -7.12303400
-4.44962025 78.13135529 -0.94783127
6.92990017 77.37730408 0.84234291
-0.28506839 74.06659698 6.92313766
6.53868723 69.65834808 -3.37498641
6.71025753 77.72346497 -2.28540826
6.01907539 72.00079346 -1.68311262
6.29338837 75.72552490 8.36117840
-4.51491547 71.36164093 -3.76722288
9.01517487 78.28720856 6.63264799
-2.67722702 77.34373474 -6.77596617
1.25042081 70.43860626 -6.03385305
5.88072109 80.69025421 -3.14758825
-3.45160007 79.59095764 3.28032780
2.55055380 80.32349396 -2.82274914
4.81824446 73.32121277 -4.09088707
-2.89097118 77.44869232 2.86841869
5.79292393 73.69171906 3.14647651
4.35134220 72.50224304 3.54182005
0.43925020 78.47583008 6.99691582
3.04130268 72.53759003 -3.83026791
-4.81237602 69.49487305 -5.01614380
9.64582062 80.36843872 -6.28873777
-2.75420022 77.24990845 1.89046168
2.52370262 70.15557861 -5.69724417
6.31175184 69.40714264 -3.01974964
-8.78714371 80.59996033 4.33572006
-2.69362903 78.16091156 3.26241016
-0.17446436 76.81104279 -4.07753849
-6.28363562 67.41949463 -3.25483060
-6.09080458 78.53990936 -7.90354156
1.21710074 80.07286072 7.75999069
6.07824469 70.29336548 1.24192953
4.21742439 76.69084167 6.16324234
-1.30900204 77.73661804 5.93916559
1.58731127 80.85150909 6.88774776
-6.33365917 77.60341644 -8.19065762
-5.31342030 78.62857056 5.48707294
1.16285741 80.45314789 -8.02665329
8.09482574 78.59748840 -0.93456483
7.35658455 78.34578705 4.39761448
4.96668816 80.42378998 5.86842823
0.51765919 77.39665222 -7.08643341
-1.61303687 80.65394592 0.56145442
-8.69807053 78.94311523 8.62019157
-1.25717843 75.15839386 6.34151411
4.18470526 65.78774261 -1.25371873
-3.04145551 78.70729828 -7.33876991
1.94464052 80.50568390 -8.15407848
-5.69014120 69.73473358 4.26923943
-3.13201547 78.63295746 1.35113871
5.56768274 80.65354156 7.11412907
4.30553913 74.48296356 -7.62719107
-0.36661848 63.69470978 -1.60865641
-2.03196239 81.06902313 -1.30667591
-8.61142445 76.92607880 7.13570023
5.88713837 74.93849182 -1.27381516
-7.52270794 80.92912292 10.05141354
3.05630350 76.48924255 7.01042032
0.07068221 64.71056366 -4.21639967
0.28505409 78.44320679 -7.13451624
6.26823378 75.88837433 -3.88403058
2.53008962 80.50392151 -6.11766768
-7.24087954 80.79608917 5.01385021
8.49042606 74.52764130 7.16482687
2.59797263 76.41758728 7.51806164
-6.40124655 81.14914703 -5.77024555
-0.05455976 77.96253967 -3.78998590
6.01058245 73.80315399 2.15241551
4.72125912 81.19641876 -8.35426044
2.67482257 77.13739777 -7.43668175
-3.73383808 65.42109680 3.49987197
2.30507135 80.90846252 1.10246205
-4.84415483 75.30359650 8.76880169
0.77058184 64.50752258 -2.58439875
3.78528881 77.41487885 -6.90617514
1.21526575 71.34010315 -5.01405811
-3.93336082 70.55512238 5.75927114
4.15263128 64.19271851 -3.36287045
-2.91429138 80.28119659 -8.23889542
4.07088900 67.92086792 5.49898911
7.86143112 75.64939880 4.14947557
-1.92975295 75.50055695 5.55734015
-3.55480266 74.51488495 -7.12277126
4.17363262 80.13133240 9.49447727
-8.39178467 76.72325897 8.44039154
-6.56870127 80.61557007 4.45702410
3.74243307 74.74023438 -5.26380777
7.92603397 80.27651215 7.46446180
-7.25094557 75.22258759 3.37746358
5.99664450 68.27391815 -3.38713360
-5.96618366 75.09543610 8.33098507
1.59038949 70.00259399 -6.04261351
-4.41338634 76.42704010 -6.40364313
-4.32862568 80.48978424 -3.41093254
-6.25790739 79.71455383 -8.66923237
-6.42845678 80.18697357 0.57263029
-5.29989338 69.09372711 4.59940290
-1.44886982 71.59696198 -6.32988071
6.09508276 71.51346588 0.43214080
4.98385525 78.17523193 -2.02202892
2.55366683 70.35266113 -6.19586945
-0.53481585 75.65887451 6.58664465
-0.19938852 80.38362885 -4.82834435
1.68372202 72.81827545 -5.47645330
-0.92786109 80.00086975 1.83561134
7.40903616 80.59950256 -9.56242275
-2.36428285 80.49163818 -1.03421211
7.42346764 74.40761566 8.05518341
4.62102556 78.18352509 -6.38861513
-0.08265109 69.97660065 6.00212812
-2.18821669 75.28167725 6.50323248
4.16025496 80.66627502 -0.54851604
5.81750727 73.75714111 7.39877701
-6.65986061 70.74523926 2.42572761
3.15395403 78.31510925 6.84416533
-0.22253275 80.92294312 -8.27904892
7.98219728 73.61522675 4.99146843
-6.96090221 78.86521912 6.46754217
-2.88373923 63.79730988 -3.50480461
-1.04129589 66.91294861 4.22275352
-6.66999340 69.86196136 0.61174035
3.72901416 76.13652802 5.85728979
3.35497952 78.40688324 4.72978020
1.17113531 80.14146423 -8.08950138
6.59725809 80.68519592 -6.85144043
0.51340652 73.42825317 7.31193733
7.89537716 75.20322418 5.65146542
3.32092786 69.95418549 -6.04211187
-5.63028145 75.62056732 1.09820402
-7.31562042 74.21288300 5.20986891
4.96280527 67.80843353 3.64359069
-7.31815052 80.11767578 7.15131092
1.12135184 75.65285492 6.77956867
-2.52153826 77.67498016 -0.97526866
4.21807003 69.14402771 5.30517578
1.70275259 72.48644257 6.21998358
7.95329523 76.20738983 4.05488491
4.24247837 74.94102478 7.14626598
4.17655754 65.84677887 -3.20983171
5.52099752 78.22036743 6.98729753
-1.84432006 74.14410400 5.11220217
-1.41108441 79.31036377 6.96990538
0.78522301 63.83835602 2.09541798
2.15274429 76.51368713 -6.48962355
-7.14683533 76.07318878 -4.33855581
8.16114998 75.35694885 4.96786785
-5.93489218 76.59680939 -7.86737728
4.99345112 67.77117157 -3.64993548
-3.98897696 74.56943512 5.27061462
3.50204515 78.00823212 0.45923042
3.69185185 64.66727448 -3.59853983
7.47549343 79.26996613 0.39806435
4.77160549 65.46617126 -0.78441596
-8.77779102 79.96963501 6.89410973
0.96803349 79.77036285 -9.14420986
-1.86125994 74.86386871 6.09172535
1.33694327 78.02245331 -0.27402830
-8.64424801 74.24523163 6.72144938
5.38094664 70.42838287 -1.82084751
-6.33885050 74.90695953 1.61655760
8.10155296 79.61575317 2.66338229
-1.92028189 80.87065125 7.26587152
6.13561773 71.49017334 -1.18510544
4.80968571 78.17858124 -6.33234167
7.30571747 76.88452911 -0.08123340
-6.40218067 70.07614136 2.52171779
4.20826960 68.88908386 5.61128330
-6.90154266 76.45349884 -1.18347156
6.54518175 70.31659698 2.69136000
-1.32105052 80.85382843 1.12442935
7.77420378 78.94210815 1.33241045
8.08179283 80.83255005 -7.70810032
2.34228253 80.69207001 -2.69633484
5.59564543 78.47748566 8.19838715
4.09900713 72.00754547 -5.30215454
4.55389118 80.44757843 -6.72601986
-4.12054157 78.01615143 -0.61606199
-4.67987823 69.02706146 4.03367233
-0.79981840 65.67535400 4.64218187
5.26914978 77.69897461 7.70690060
3.91450405 80.56813049 -8.47055626
-7.57092142 73.50118256 0.73949927
5.72442770 72.36163330 -1.40720487
-0.29030433 63.78714752 -2.73426557
6.19530487 79.74308777 -8.94500351
4.31760883 80.35065460 -5.40509748
-1.96171200 72.54139709 6.15985394
-4.11828947 77.72763824 -6.89994955
-0.06941325 64.35930634 -4.18808603
7.32983637 75.25950623 -4.12673569
-1.91076052 78.05207062 7.58829117
2.29739428 63.65279388 -3.67431760
5.44728136 80.99600220 -1.76896131
0.85343331 78.19075012 -0.00157663
-7.74125814 81.34762573 4.13922548
5.43049908 74.21176910 5.14261770
-3.22148085 70.25737000 5.06593704
-5.37320232 80.60025024 -8.63600540
-1.89727294 72.97746277 5.54169178
5.87299252 69.48458862 -1.74301565
0.82815355 78.54656219 -6.21718121
4.79410505 77.72877502 -7.90566540
1.83225179 69.39751434 -5.90745544
-3.03784394 68.34152985 -5.93610430
4.54817677 78.07109070 5.17144108
4.98678637 76.28934479 7.74379444
-5.23814726 74.57329559 1.62122035
-7.67818117 74.47329712 -5.47707605
0.63060570 72.73384094 -7.17008448
-3.87838078 67.31030273 3.88034749
-5.89297199 67.88270569 -0.98846436
5.43668556 69.06935120 -3.52102041
-5.94970083 76.77750397 4.17587090
0.59809428 80.61729431 -1.60004485
1.90802622 64.55317688 -3.70197177
-0.89651442 76.06009674 7.04074192
8.49139214 74.99346161 -8.05480194
6.35908604 77.44770050 -3.08517981
-6.00783968 75.66354370 -2.03541875
1.74541557 77.15269470 -2.44861364
6.42416286 69.63320160 1.59289467
1.34790695 74.21484375 6.40960503
8.15655422 74.51348877 -7.73845196
-0.91306478 81.31787109 -6.68485737
4.91855526 79.11899567 7.89489746
-1.04046845 70.35415649 -5.87754869
-1.80116177 81.67693329 -5.71815729
-7.07375145 75.11075592 -2.08206201
-8.04369068 74.70904541 4.16525030
5.28305578 67.88153076 -2.73194027
4.91334295 76.33158112 3.10400295
-8.42141438 76.68595886 7.69107008
-0.26799089 78.02988434 4.62015438
1.99831605 80.89457703 0.50884444
-0.01081461 74.20446014 -6.86276054
-4.32482529 78.27649689 -4.08516455
-8.56091690 75.68243408 -6.41665983
4.53912926 78.20903778 -6.13554764
3.43780041 64.72121429 -2.69527864
-4.06168747 67.68540955 -4.31824112
-6.71342897 76.11763763 -0.40336984
6.71032619 76.47622681 -2.68041134
6.46869087 80.75452423 4.55418825
-6.22247410 77.54791260 -6.92756605
-1.40507185 74.24728394 6.90093899
-6.99370050 80.44647980 -2.53453183
-3.74407101 69.77957916 5.44266987
6.54721308 80.56858826 -8.11844063
5.14993477 78.24153137 4.11950827
9.54318142 79.44654846 -8.15120792
3.97322559 81.12560272 -6.76066923
-5.55931520 81.06300354 2.95254183
1.41771579 72.94837189 7.29757357
3.69175696 70.13513184 -6.41327810
5.26725101 71.27433777 2.15168810
-0.18183762 64.71822357 5.84840250
3.00114632 77.40668488 6.24475241
6.31401396 70.67340851 2.66061258
-5.37101412 78.14840698 -7.64660311
-4.56001329 79.26796722 -8.82297993
-3.47537088 73.81431580 6.08782005
3.52738929 66.31819916 -4.15644836
8.32401180 79.44269562 -3.90882301
3.98343992 66.98183441 -5.90548897
0.53357780 74.98519897 -6.34610605
6.93567085 72.96596527 2.18780804
4.97273874 81.20159149 -1.14431238
0.98739779 77.79848480 5.63013649
-6.97500324 77.59959412 -5.84755945
-7.69472361 73.97257233 5.59072447
8.14847088 76.35208893 -5.36967993
7.01523542 76.98677826 -0.69198036
-1.13071775 64.51906586 -0.76924026
-5.25564480 80.40295410 -7.24469709
-7.27947760 76.45123291 -8.70456314
1.53381276 71.92672729 -6.22026873
0.17072722 78.72070312 6.61316681
3.86205578 66.28116608 -1.65533447
-4.10131025 64.15655518 -0.58172721
-6.39113092 71.05224609 -2.43497205
8.11404896 73.23214722 3.43856525
5.30582952 69.04366302 -2.56893015
1.78302944 81.07234192 -2.45893788
-7.31369495 79.49758148 9.39723015
6.23323488 80.73904419 -2.70460892
-4.39327526 65.30814362 -0.06424499
7.07720566 81.03758240 6.79619408
-7.17680407 67.53869629 3.52104974
3.43354988 80.33849335 6.46426249
7.86877346 75.67108154 -7.96808195
-6.63209248 80.09400177 4.41592598
0.54478657 76.76237488 3.34259224
2.88937569 80.36467743 -6.94370508
-8.00765038 80.06502533 -0.27159116
6.89641476 75.61199951 2.52669597
5.97796106 77.66322327 -7.45135069
2.87665606 78.16417694 -7.21542549
-6.07077932 74.35229492 1.74387920
6.78943825 77.61521149 -1.48439837
-4.75429487 73.81305695 6.06581116
3.43386197 70.97893524 -4.57738543
0.82296634 78.62306976 -7.38164711
2.16550756 80.52180481 1.05209970
1.23570561 77.82700348 -0.98495853
9.57902908 80.62279510 7.36536264
-3.60747933 80.13530731 1.72250569
-1.32799613 78.13050079 -0.36444858
-7.89414597 74.60069275 -6.21358204
4.84977722 77.48477173 -4.16715050
-4.72830534 72.99930573 5.46529865
-4.02665710 80.56860352 -3.63671970
1.66315854 66.11142731 -4.46099806
-4.56940079 77.81446838 -2.56095219
4.40802336 71.23034668 -3.63470650
6.38714123 77.24743652 2.80498719
2.34097052 77.51555634 7.58557510
-3.03471398 79.68773651 -0.57326174
-6.98093987 74.69071960 -5.12576866
5.71786451 78.57533264 5.73687553
2.23620653 63.98083496 -2.49095893
-6.21338749 77.57247925 4.93398619
1.50173914 71.18825531 -6.18766451
-5.58088350 73.46405029 -6.38107443
4.34566259 65.64075470 -2.72341061
5.88386583 73.52828979 5.24976826
4.46300220 73.38603973 -2.78736186
-2.51414752 63.85847473 -0.69319838
4.49253416 76.73281860 6.67738676
-7.38745022 78.75597382 -0.66283125
-4.02840328 77.28907013 -6.84292984
-6.33124447 80.79297638 -8.31315804
0.99213696 78.03425598 -6.36780214
-2.14408278 64.03976440 3.18501472
3.80019712 79.79336548 -5.45133305
0.59975320 79.21260071 8.24151707
2.99109697 80.17673492 -2.68740726
-2.42725062 70.44106293 5.39135742
6.08364058 81.38623047 -4.45223713
-6.33333492 70.24194336 -0.02165741
3.33454013 73.85214233 5.89574528
8.16138077 79.85492706 -9.85378075
4.45307064 64.75045776 -0.18275835
3.74313974 69.17364502 -4.50663853
0.38483429 78.45419312 -2.76175666
6.98334646 80.79933167 -9.30048275
-1.29276574 80.62277222 -1.33976424
4.97756672 73.73735046 7.60939646
-6.12151384 74.89098358 1.70877385
-2.86546731 75.50268555 -6.79247236
8.59883022 80.47975922 -8.46563530
-2.44606185 71.64027405 -5.96558905
7.63474131 79.41822815 9.36044502
8.36302567 74.25856781 -7.65258551
-6.24824429 80.62471771 1.37873137
-2.89988279 76.07108307 6.16894245
-5.17555571 80.16950989 -4.07343674
7.71454716 79.49135590 -4.23574877
7.82362318 79.95809174 0.88145489
-6.31473541 77.25456238 2.87885261
9.11498260 80.50080872 7.44002199
3.96718526 69.06887817 -4.66660786
-1.51625693 72.91808319 5.91575670
4.07884073 80.71847534 -3.99498177
-7.97662592 76.22347260 6.88309193
2.01515388 66.93981934 -4.45896149
5.01013517 72.09619904 -4.53381729
6.22578001 80.64792633 -7.76837349
0.40193462 79.31385040 -5.91611385
7.78932428 78.30650330 -7.76851511
-6.11433363 73.28147888 1.42632556
4.33246374 80.58772278 4.41548109
-1.74347806 72.92082214 5.67106485
3.64219952 74.67689514 -7.02762222
2.31955695 72.42838287 5.69769335
3.24920940 78.15956879 -4.51743460
-7.99709129 77.27306366 -6.80183172
8.96448231 79.03839111 -5.00513124
-7.75482512 78.60884094 1.19673848
8.83771229 78.90004730 -3.94690347
7.21275330 74.66302490 -8.10999680
1.62750947 70.11973572 6.95713472
6.00492144 72.94785309 -2.90964246
7.47060633 77.01339722 0.66169131
-5.39350128 78.02478790 -7.51215506
2.91810513 76.91933441 -6.57023764
-4.76000404 77.94419861 1.40883088
3.16655660 77.86891174 4.54287481
-7.93749189 79.09682465 7.61956644
5.59676886 71.52977753 2.67276359
-5.53190422 80.84378815 -4.22290516
-0.04407856 69.71855164 -6.63646936
-7.02989817 77.99658966 -5.93696928
6.76115751 75.78369904 0.61535025
7.01699495 73.09655762 -2.24592066
3.71794486 64.63827515 -2.85145593
-0.17450181 79.66283417 8.65377140
5.73988247 80.03596497 8.78043270
-5.88556147 74.10230255 -8.59973717
-6.01774979 68.86560822 1.10944271
5.10213423 80.56953430 1.99604046
-4.30304480 67.61487579 3.75879502
-4.28141356 80.84682465 4.65288067
2.56171656 64.45126343 -3.18676543
7.49181223 80.06110382 -11.00522518
6.36252546 75.78021240 1.35767210
-3.97537351 80.70017242 -5.16940975
3.10802293 79.99198914 9.02943039
-5.42479134 73.80065918 -5.40678883
-6.16189098 77.33358765 -8.94418240
-6.19479036 72.87437439 0.46975109
4.87231827 74.71656036 -6.79323387
-4.89610243 77.40688324 -8.13553143
0.01112135 64.54692078 2.18526769
5.78381968 76.54841614 -3.80893087
-5.80842686 77.97755432 -3.04037523
1.08047390 79.36700439 7.85941792
-3.91370320 77.74095917 5.30956459
6.06012201 74.15530396 -2.28923869
6.47732162 78.39760590 5.38665628
8.55550385 76.18296814 -7.49039507
3.40925765 68.74267578 -6.01272631
3.16751432 80.49645233 1.65665650
-8.09262848 80.53730774 1.03072870
-5.77412319 71.85606384 2.02255988
0.90796345 75.54326630 -5.09099531
0.78571981 70.97504425 -5.21528053
5.07663441 75.01763916 -3.62912107
1.91205823 78.16568756 7.56433249
6.99346304 80.05250549 -2.56424022
-6.40738297 76.61406708 3.95676684
3.81444144 74.44357300 -6.52534771
6.28592253 77.38537598 -6.36024094
-5.07896805 73.59609985 6.85904551
-8.33487606 79.46999359 -4.36798525
4.37219715 66.71218872 -0.85388565
1.70309997 70.35957336 -6.06421423
4.87853384 74.91337585 7.39671612
-2.23147249 80.89770508 -3.34738874
-7.10545349 80.49262238 8.33444977
5.69436407 74.01519775 8.66541672
-6.20439625 71.61797333 0.46904141
-6.72197580 80.55227661 1.89014697
6.96106577 80.37712860 -2.59646821
5.06058216 67.49758148 3.35331225
-4.62084723 80.25611877 -8.60425282
-6.66222572 70.35746765 -0.17493561
7.13826704 78.05229187 2.25307560
-5.64120007 73.42247772 2.44401836
6.23068953 67.63904572 -2.34472561
-5.81229973 81.10006714 -2.46337891
1.01986957 78.38538361 -3.30311275
5.22881031 78.16151428 -3.83259821
0.18908487 70.31982422 6.48956013
6.96851110 81.21525574 4.11626959
1.50842154 80.31260681 -3.20487618
7.89213610 79.61663055 -1.48310649
4.32544374 76.02564240 -4.80845881
-8.39238548 80.40519714 -8.74771404
8.49452400 78.99353790 5.43414688
-2.54927325 78.33386993 0.31064543
6.05623055 79.21868896 9.34775543
5.76389122 77.33652496 1.64314687
4.16455364 64.19399261 2.12304711
-6.23794985 68.75596619 2.78005195
2.98771405 63.81588745 0.95193887
4.98548269 72.44223785 6.20736599
-7.78774071 76.01410675 5.15154839
5.07186604 74.78357697 5.11134863
6.74430513 80.02310181 9.22623634
-2.97436690 79.16051483 -7.92716265
-6.69713783 74.10343170 -2.45001674
-7.69044447 80.68429565 -9.28183746
2.54458451 78.00518036 2.62839675
7.04541349 77.88822937 -0.34752288
0.28086257 73.64784241 -6.46596766
4.24021101 80.99461365 -4.12567043
1.29575706 77.87545013 -1.17381895
7.47499943 74.33100128 6.48164749
-4.75963402 65.94587708 1.80835247
-5.57579136 78.43952942 -1.21916044
7.65078926 78.78954315 3.60919857
-0.15396386 78.00228882 0.37573582
-3.91736579 70.46466827 6.29019499
6.04667759 75.43206787 -3.65406203
4.66091108 68.04722595 -5.88785172
7.19553518 77.79328156 -6.46252728
-5.38880396 72.72824860 2.82174182
2.46219802 75.87635040 -4.96608210
-5.70825529 80.77412415 -4.45736408
5.41149426 69.46553802 -3.33391428
-1.42368340 65.27577209 4.28331709
7.73056746 78.08502960 0.19242679
-4.60567760 77.21208191 -7.75114298
5.93951130 75.15363312 -3.31847095
1.76815510 69.22772980 -5.34955549
-8.24239159 80.44564819 8.81732845
5.82704592 69.17222595 -3.44261336
0.52654862 77.20187378 -3.99475145
-0.54106176 77.09258270 -4.34581232
-0.76137704 81.02639008 -0.73337632
1.60251176 64.21795654 3.10618782
6.34002638 74.35427856 -6.79905033
-3.07234192 80.31698608 7.67511511
0.50184858 79.09295654 -7.36485100
6.98638201 75.14362335 3.95227051
-0.88791680 70.92697906 6.25060987
7.28984213 77.47940063 6.57545757
-4.93529844 77.26119232 4.66327667
0.31525645 78.45352936 -1.50075054
-6.24199057 79.69108582 -9.36620808
5.73153353 81.08458710 5.87501812
-4.92105722 68.75479126 4.26680183
-0.11751226 73.10665894 -6.81771421
8.60629845 79.38809967 6.59588337
4.50842571 72.23182678 5.38948107
-5.97750807 77.97484589 1.72015095
9.06561470 77.45959473 6.47484684
-3.42289472 78.01945496 0.26496288
-7.30842733 73.85340881 7.43037558
1.25307536 64.56712341 2.48259234
-6.04916000 79.94592285 1.49246287
6.81092882 74.58065796 7.43300200
-9.66669178 81.13420868 8.07978630
5.30296087 76.23100281 -4.23549366
7.90656853 77.41072845 0.69287395
-6.84877634 75.12011719 -1.98552108
8.35405064 74.73419952 5.93967581
0.65515292 73.56212616 -6.37702990
0.77867419 81.29414368 -5.24596357
8.70914364 80.14200592 0.56121457
5.74882030 67.65270233 -4.58741140
7.35600996 79.16265106 4.14330530
4.67879200 77.98990631 7.90932083
4.60076952 68.88329315 5.07419634
5.80351114 74.18939209 -1.47626495
-5.16245794 76.54521179 4.58348608
-2.64934158 78.51092529 -7.41089010
7.10153484 74.45071411 0.35153908
5.43803406 79.24071503 -7.11253977
-6.96454430 76.28393555 -8.87911510
2.11358070 73.46651459 -5.39399433
-5.61895514 80.77378845 -5.25693560
-1.58754718 80.41304016 -6.43954802
-5.31218386 80.52598572 -5.37957335
7.07367086 75.43199921 3.42806315
5.85220766 66.72131348 -0.29030517
2.27969074 75.80906677 -7.02192640
-3.00020671 80.40275574 -4.51514101
2.54296017 77.86479187 2.57064462
-1.69980216 78.32408142 -4.08074474
-5.63473797 68.78836823 3.88081861
2.41644859 63.98825073 0.48884475
2.69977331 66.24293518 -3.44677639
-8.81927013 77.96978760 7.54581785
0.93139303 75.29518127 -5.98287582
5.05063534 77.63825226 5.69755793
-4.99193430 81.25606537 4.05765820
7.40645075 77.87057495 3.90659380
-4.92144203 78.52687073 -0.90293896
-5.53849030 77.44596863 -3.02227545
0.10139088 64.30625916 3.20647025
5.93658304 77.54728699 3.77090192
4.96007538 67.78637695 -4.51699734
6.73514128 76.74520111 1.76142991
-8.90902996 80.96646118 -8.03667641
2.98968554 77.78377533 -3.51936245
-3.93314385 77.59942627 3.68507910
7.72987700 77.57856750 5.94368935
5.47351599 71.71632385 -1.46452296
-5.89650393 79.13176727 -9.27683735
7.24251032 78.29280090 6.94039154
7.45414352 80.73682404 -1.08919263
-4.80466413 75.99919891 6.87168884
2.96637321 75.10151672 5.20159292
-4.62035322 78.26256561 -7.55649471
0.66244656 78.56478119 -7.35035324
3.01101446 79.05981445 7.58066654
5.56513262 77.28370667 -4.35103798
-5.16652679 74.17354584 4.23257446
-7.30515909 77.53359222 -4.68425941
3.95065022 79.68361664 5.98975229
3.40943527 78.24538422 5.18361664
2.92277694 74.11183929 7.08591318
-3.74566650 77.92330933 -6.08772373
-5.37766314 73.55888367 2.85990143
-2.04313922 80.33598328 -7.24882030
-1.97366440 71.11936951 6.39014339
-3.99423265 73.03574371 5.50520229
7.96403265 77.27633667 -4.31796980
5.52955198 78.61415863 -5.67288685
-4.96099091 69.56282806 4.13192797
-1.87567484 80.76845551 5.78903580
-8.70785618 80.86307526 9.03120708
-8.89126301 81.07928467 -3.67417383
-1.16599059 80.33359528 -2.06864595
2.95592356 76.02569580 -5.36090517
6.59191704 79.96621704 9.68584442
-6.00057697 71.28597260 3.57865214
-6.91139698 77.58190918 -0.69265920
-4.01786709 75.23179626 5.26642513
-8.12950706 77.91893005 -6.42245913
4.83159399 80.49464417 2.17933512
4.00890160 78.22920227 -0.24248832
-5.89038277 74.01656342 6.42481852
2.72675109 65.00052643 -3.87122822
0.89714742 71.61400604 5.70201921
6.04605532 77.81288147 -6.76371908
-5.86512089 75.54125977 -8.36031818
-4.42550850 75.50783539 6.81625748
-5.64907360 75.51532745 1.77117527
5.56172037 71.43011475 -3.33363438
-3.20329547 80.42625427 -8.40151215
-7.16378880 77.84086609 -0.63715887
3.51183367 66.42200470 -3.86489964
-9.34724045 80.25291443 9.53774929
4.62347937 74.66688538 -4.29499483
8.91050911 78.76739502 6.78754854
-2.92449570 80.42272186 -2.07774496
8.21007729 81.01281738 -3.75492048
7.61790991 73.79016876 6.39963961
3.08555722 76.90155792 -6.55014420
0.12056182 78.61615753 -7.60284901
-5.71450949 78.38085938 -2.32766485
0.37044466 76.22471619 7.41177130
6.44297266 76.92753601 -8.22765732
-2.19983602 77.09518433 4.08096886
7.85648966 79.56557465 1.62434089
5.67444658 81.00957489 3.24515724
5.33391619 70.62963104 -3.38412619
-6.35047245 71.34925079 1.33988881
8.48222637 74.12673950 -6.66258574
5.58288097 78.15726471 -4.08921480
6.92949152 80.84289551 -8.16739941
-2.14183998 80.27453613 0.46687269
6.01930952 70.74260712 -1.84524667
7.37429380 78.13093567 1.07499409
-0.05340195 80.27105713 1.19444501
0.73832995 81.29659271 7.66811514
3.14554262 71.36675262 -5.75387383
4.73934984 81.23472595 0.82021362
-7.12598896 71.23207855 -1.32957792
4.62344456 64.47483063 -1.42700112
-0.26822069 76.35476685 7.00514984
-0.14752553 71.98600006 6.73659515
-5.00681353 73.89932251 5.59248829
3.17224884 74.50499725 6.98626280
4.61912775 69.92298889 -3.28795552
3.31151891 67.45299530 -2.63927984
3.52300858 71.35545349 4.96221399
-6.64827299 72.18286896 2.02552581
5.48949623 73.39014435 -1.18163013
-4.88522243 73.13580322 -4.68909836
-8.69559288 73.73160553 6.94314337
-4.00073338 65.29626465 -2.13724995
-0.22159667 79.56983185 8.97568512
5.95929956 80.32538605 3.57379651
-7.99599361 79.44915009 -8.74192429
2.45910454 78.45009613 0.02138841
-7.73790884 75.30881500 -4.86318302
-5.66348886 76.54190826 2.48356795
3.07594752 79.98085785 2.52188659
-5.19826412 76.38511658 7.77685738
5.29663086 67.71479034 3.77937675
-4.36797523 70.66999054 5.21443129
-6.33926105 77.48815155 4.88926840
3.76008034 80.35429382 8.33840275
-1.51347375 78.01288605 -1.19772136
6.99034691 78.09527588 5.30906153
1.00438559 75.36532593 -6.38010645
7.83407259 78.68643951 -9.37935162
-1.62526846 80.29746246 5.11804914
-0.48040399 65.35269165 -4.29686594
-2.85764551 68.03447723 5.36244106
4.80989885 68.00374603 1.25564325
0.77696615 73.13732910 -6.63792658
-6.78493977 80.46590424 -4.25286913
-1.37553155 80.90670013 6.04818296
1.58458519 71.69556427 -5.72414589
-2.02220702 67.44721222 5.44503450
-3.33967352 63.80564499 -2.56430650
5.73559904 81.64220428 0.95208234
1.27289140 80.83089447 -3.79929662
6.18022871 72.83020782 -2.33211088
-7.77442265 79.96589661 4.31628561
-3.68212795 80.07471466 6.86259079
6.50239038 80.28951263 9.60472107
-1.96481276 64.01303101 -2.19725871
-2.66949606 81.66270447 -1.76682436
-2.86448932 77.63386536 3.38227010
4.80881262 74.93408966 -4.31311083
-6.52796602 73.45831299 -6.90599537
-4.91505957 68.74012756 -2.43166542
5.92297316 77.99535370 -6.73083258
5.00086451 80.92740631 -5.48163748
0.89940709 80.86648560 4.08129835
-8.43105030 79.47830200 -5.19499588
-1.46567047 78.76869202 8.68607140
-3.28727126 74.20475006 6.74027300
-8.42331409 78.72161102 8.28518391
5.14863110 72.38944244 -5.64483309
4.31869364 77.48211670 2.67105961
-6.12535000 75.52298737 -8.14837170
1.12955534 77.93642426 -3.63801003
-2.96695256 67.84477997 5.59903622
-7.79074049 75.02485657 -4.10838318
1.30062664 77.85079956 -2.40786314
-7.25837374 78.63914490 5.99684954
5.39893770 76.23672485 -7.66268682
-3.03545117 80.80060577 -4.32385492
-0.50050926 73.15756226 6.78415871
-2.61664939 67.69610596 -5.60064173
2.19309163 80.63050842 -7.41959810
-0.96363568 72.04905701 -6.37761021
-3.41763973 80.15752411 -9.24776936
2.30870271 72.41368103 6.57234669
6.30302906 74.43521881 1.46691453
-6.54564953 73.36180115 3.13703156
5.04569387 76.67125702 4.70756626
-4.09544086 76.97731018 -6.74549627
-6.78385687 79.94003296 7.01100874
-6.55412340 74.50715637 4.00185728
7.21018839 74.09259033 1.93591344
6.49093437 73.57451630 -1.01188278
-7.98382044 80.64016724 -3.21208453
6.65450859 77.22451782 1.34719336
-3.80352402 78.07009888 -5.98709202
7.50060892 77.12709808 -0.72968435
-2.46006417 64.20812225 2.37197042
1.76810515 81.02281189 5.40945339
-0.92376602 63.89742279 3.87245727
-5.58667946 68.77318573 3.33773899
-5.16740370 74.03659058 -7.90609646
0.51891232 80.22721863 8.50739479
0.92319125 79.84733582 7.96582556
-0.21845479 78.09269714 0.00128719
-2.54915857 74.61607361 -7.27085686
-0.28661820 77.02076721 6.59558296
-7.56672573 78.53771210 -3.00018072
-0.13806172 76.63269806 -7.35471344
-6.89465189 75.06595612 -2.61995625
-3.71737385 78.23335266 0.70606261
-4.31158447 68.64297485 -4.55507421
-6.50450897 77.73298645 -0.49837577
-0.46068412 81.53163147 6.57469940
