0.80771375 0.76576680 0.27694365
-0.97843039 0.03488997 -0.16833331
0.32830673 -0.70082194 0.99672699
0.93144441 0.89587164 -0.48568502
-0.55965567 -0.12617563 -0.81465554
-0.88648009 -0.32029551 0.50706446
-0.35317519 -0.98081970 0.47595295
0.79309869 -0.06161520 0.58345377
0.28948838 0.60659111 -0.93708527
-0.85523915 0.50217831 0.52065957
-0.28512725 1.01007318 0.77434647
1.00258219 0.22578993 -0.16963521
0.72492921 -0.93651235 -0.53829539
-0.53161514 0.12259877 0.80979228
1.00979161 0.82978821 -0.05873663
0.22221127 0.17836405 1.01153922
0.82351029 -0.76464772 -0.73530781
-0.45968437 -0.02371264 0.83069587
0.60095131 -1.05868399 -0.51409328
0.59064865 -1.03337944 0.79456532
-0.68890476 0.03902183 -0.72454894
-0.90223849 0.93543708 -0.38656110
0.12726033 0.99372083 0.25651786
-0.70626843 0.64009047 -0.74426007
-0.20714438 0.11195345 -0.98361456
-0.59091866 -1.02466393 0.72816610
0.21733212 -0.19352399 0.89806247
0.39089710 0.98157221 -0.84979022
0.74640214 -0.35450855 -0.74623394
-0.72357011 -0.92628795 0.63328040
0.91060174 -1.02805221 0.34603068
0.91597736 -0.83932078 0.39187047
0.10705630 1.03172719 0.24196047
-0.73456454 -1.04942501 0.12939385
0.89307106 0.93620068 -0.16068901
-0.35325181 -0.39191401 0.96940672
-0.09723731 0.97907251 -0.46521384
-0.94006836 0.90015078 -0.31735599
-0.65606546 0.04000487 0.80310667
0.89582968 0.55641907 -0.30645889
0.17646693 0.39554697 1.01246369
0.22696732 -0.67299372 -0.97301865
0.29444459 -0.44936886 0.90103483
0.97272193 0.62119418 -0.16555257
-0.16939090 1.01888037 0.62048316
-0.62402403 0.51384056 0.80766487
-0.05804601 -1.03489780 0.37260059
0.44422579 0.94352090 0.98099661
-0.37296450 -0.02142989 0.84073651
-0.34309819 -0.37562197 0.97948515
-0.68877065 0.42884225 0.78305161
0.69100428 -0.14664249 0.76881325
0.65606308 0.50052440 0.74197352
-0.77992773 0.98116827 0.02412336
0.47914016 0.98020262 0.74110746
0.38234818 -0.18729110 0.98773158
-0.52329814 -0.68282115 -0.87538564
-0.93907368 0.08378959 -0.17432015
-0.67594898 -0.95780855 -0.77008033
-0.67244291 0.57837659 -0.74572611
0.45480782 0.80325198 0.81247401
-0.36808929 -0.29216722 0.91402829
0.38696751 -1.02103341 -0.34743321
-0.07638086 0.30132112 0.96373045
0.93856192 -0.98698908 -0.00375643
-0.46688005 -0.97903544 0.35866931
-0.17316183 -0.98407012 -0.98204911
-0.24431223 0.94825470 0.87819719
-0.93316495 0.46939650 -0.36125311
0.03099448 -0.87683189 -0.94459760
-0.86100388 -0.63700682 0.49646416
0.65801489 0.99669546 0.05495993
-0.00001294 -0.11337758 0.95457387
-0.44151428 0.97192067 0.05856338
0.20997562 0.38331577 -0.98638558
0.54612648 0.93078256 0.96735382
-0.99235046 -0.86028022 -0.06082687
-0.88335061 0.29138526 0.39377749
-0.07516140 -0.93439174 -0.94888365
-0.29929259 0.05884736 0.99407184
0.42743611 -0.99379063 0.90611887
0.32563725 -1.04260373 0.48243576
-0.95945919 -0.59074956 -0.17874850
-0.99678910 -0.13061973 -0.07069184
-0.12259857 1.03971720 -0.34686464
0.54649150 0.75022513 -0.89896381
0.91981161 -0.56179887 0.33145627
0.92815042 -0.54722762 -0.05959366
-0.12030444 -0.07563733 1.10138738
0.70475674 1.05509865 -0.01087929
-0.05390681 1.00176382 0.02373553
0.90034437 0.98972660 0.25059140
0.42729920 -0.09536743 0.90841520
-0.49137735 1.04348505 0.59524119
1.02180946 0.10503826 0.02608260
-0.99334908 0.84790248 0.26060236
0.62851143 0.37571752 -0.78698421
-0.08196907 -1.06664670 -0.29406410
-0.98384345 -0.93262422 -0.52451742
-0.61226606 0.99008012 -0.22370143
0.97254860 -0.76619804 -0.13495556
0.65344071 0.96271396 -0.67137527
0.87969148 -0.57816786 -0.32597736
-0.90178323 -0.30814171 0.35522944
-0.88784909 0.70339864 0.40902224
0.39479238 -0.85870767 -0.92862487
-0.93472552 -0.81213152 -0.28742427
-0.44399053 1.06090736 -0.38811800
0.28608900 0.99593776 -0.87445879
1.01022267 0.66403395 0.41637477
-0.70351517 -0.11214827 0.67840850
0.58231080 0.95288640 -0.57034409
-0.84083641 -0.83210778 0.49734643
0.85327542 -0.26490870 0.57538116
0.10569659 -0.06457219 -1.04000032
-0.50511909 0.21171692 0.88896298
0.39026928 -1.03060710 -0.17165202
-0.55145717 1.02923298 -0.84002399
-0.40929422 -0.70537436 0.91025805
0.26691365 0.99753672 -0.47869924
0.50531232 1.05437744 -0.64358485
0.90850949 -0.05784775 -0.44607615
0.81986034 0.77490717 0.59154379
-1.01168156 -0.62660855 -0.12829860
0.59603596 -0.35354012 -0.75807011
0.14682183 0.96458298 0.51841879
-0.52985954 -0.93322361 0.78175128
0.36771503 -0.25682104 1.01913154
0.96422553 0.52604496 0.14708602
0.76553142 0.08123158 0.63182354
0.89265525 0.99182004 -0.12945035
-0.16149496 -1.01080787 0.22738840
0.94926190 0.41651002 0.24496399
-0.14657131 1.02497709 0.73196042
0.86802185 0.72719014 -0.30214295
-0.64483821 -0.73957664 -0.79342616
-0.43997025 1.01742351 0.29321927
0.69215739 -0.22537546 -0.70125270
-0.06457352 -0.48986545 0.94501674
0.90369117 0.72160411 0.50302362
-0.69407809 0.56816250 -0.76548636
0.42814428 1.03620517 -0.56010497
-0.91918921 -0.29959205 -0.11588268
0.27547669 1.04168451 0.77095306
-0.24464329 0.96140254 -0.21737231
0.13753751 0.95240945 -1.03620946
0.47112200 0.88610017 -1.01914382
0.76501644 0.47805232 0.60919321
1.03419399 0.54400396 0.14027196
0.57882512 -0.74269116 -0.79038596
0.95705342 -0.57401007 -0.23001143
-0.92345488 0.99151260 0.30387542
0.39362663 -0.94917798 -0.41942707
0.77674627 -0.40370321 -0.69569612
-1.05074847 -0.75028545 0.05496703
-0.60000265 -0.92013586 0.12258357
0.55077159 0.90955585 -0.24718678
0.84832215 -0.00735941 0.51138115
0.96750355 -0.21089804 -0.03734482
-0.47349876 0.99282318 -0.73586142
0.86589086 -0.25931782 -0.24965446
-0.70082867 0.37981999 0.76211107
-0.33313876 0.39831221 0.91080022
-0.24619633 1.07660735 -0.14364225
-1.10939312 -0.60194451 0.20646358
0.46094850 0.78411967 0.83154440
-0.11546231 -0.65697473 -1.00610960
0.95145285 -0.22010437 -0.47016895
-0.64393568 -0.01104488 0.77836049
0.80125892 0.10411572 0.59967566
0.18912801 0.91767770 -0.25967324
-0.61180532 0.75565028 -0.83382511
0.33383155 0.68803823 -0.96775770
-0.34086034 -0.39713275 0.97290123
0.19946675 0.96369267 -0.11969300
-0.10225305 -0.99053490 -0.79163301
0.62802076 -0.97719061 -0.76244199
0.01874894 -1.10541141 0.53691447
-0.64855814 0.99253660 0.05410900
-0.12466192 0.93668365 -0.28486437
-0.25354275 1.04971182 -0.26756838
0.64138544 0.98047101 -0.37091613
-0.91392851 -0.76083839 -0.44303319
0.29011604 1.01639128 -0.82295084
0.42920876 0.26262134 -0.90781724
0.21125691 -0.36560717 -0.99629843
-0.64883709 0.39000693 -0.75606680
-0.41393250 1.01358283 -0.22080770
-0.68544483 -1.01478481 -0.21036462
-1.06061006 0.50475627 -0.07490782
0.13319874 0.81500560 -1.05516219
-0.94725835 -0.47079161 0.51039064
-0.78432727 0.39387912 -0.53473818
-0.99808204 -0.57114124 -0.22082128
-0.57451177 -1.15362573 0.27816540
-0.47504845 0.23357268 0.90304136
-0.89497244 0.59515303 -0.46560290
0.69074249 -0.17449869 0.74814141
-0.93291175 0.21844691 0.26920414
-0.40431514 -1.00016618 -0.17612326
0.22425270 -0.99419278 0.12355230
1.06293392 -0.93606663 0.05804243
-0.56901705 -0.72391820 -0.83911264
0.87267101 0.46484792 0.49323222
-0.96787393 -0.77502406 0.35203657
0.57638955 1.07170081 0.15606377
0.26851088 0.76111901 0.89404619
0.42900780 0.89714700 -0.94164634
-0.77387488 -0.14610457 0.55573165
-0.03591006 -0.94354433 -0.78253758
-0.10427548 0.95670968 -0.71793354
-0.08808640 0.68551385 -0.95824373
0.03352175 0.20707098 0.96582210
-0.97020650 -0.18876621 0.15518303
0.30947840 -1.00428760 -0.39210999
-1.02758598 0.09821198 -0.21003649
0.66774940 1.00573874 0.58026397
-0.08126780 -0.78837216 -0.94926453
0.83798969 0.87236160 -0.45519048
-0.74770725 1.06500006 0.27361220
0.92640364 -0.65844810 0.49181193
-0.50380814 -1.03882492 -0.00467357
-0.43039107 -1.03041089 0.27886721
-0.66516614 -0.94677263 0.29935226
-0.59183455 0.20010163 -0.81074321
0.12554292 -0.05094283 0.94781566
0.50237787 -0.03396485 -0.95412135
0.99443495 -0.66973573 -0.02975450
-0.42864555 -0.55156225 -0.94258022
-0.89915299 -0.71384919 0.41922429
0.48159429 0.47586495 0.97048748
0.86981070 0.97078490 0.42222852
-0.92067277 -0.08562173 -0.16191508
-0.14100446 1.01986349 -0.02863487
0.13939488 1.06653440 0.93619359
-0.65388441 0.52008480 -0.68547332
0.45828104 -0.99470413 -1.02434123
1.02677202 0.00678677 -0.21655042
0.22803135 0.52449620 0.95893657
-0.17516570 0.17896646 -0.96704769
-0.44805482 0.48042580 -0.86678958
0.67789006 -0.88428515 -0.64864135
-0.82050335 -0.94277751 0.43660951
-0.14120995 0.06495532 -0.97291303
-0.60713434 -0.91145670 0.71826315
0.87003803 0.95102584 0.33765098
-0.63745654 0.98885798 0.74067557
-0.23925382 -0.97603536 -0.40508074
-0.13033229 0.99467319 -0.76224935
0.85355449 -0.86510211 -0.39329895
0.87913871 0.41325068 0.48031747
0.92122233 0.98249847 0.46550685
0.14753740 -0.96222383 0.37884173
-0.46177080 0.72665066 0.89188814
-0.71175671 0.90575790 0.48739123
-0.00459508 0.65098459 -1.02397132
0.11507300 -0.28599072 -0.97843671
0.33591896 -0.35696980 -0.95302296
-0.32511401 -0.24807259 -0.93601513
0.50931799 0.83579993 0.90083241
0.46214372 0.70446199 -0.87313104
-0.97473097 -0.31956854 0.04505109
-0.65630233 0.49237794 -0.80720377
0.67719734 1.03684735 -0.13838717
0.23376785 -0.19157375 0.98245525
0.50500357 -0.69676691 0.87728655
-0.01217664 1.01334381 -0.92882502
0.04304575 -0.38457373 -1.02289641
-0.22019066 -1.05429482 -0.88584566
0.43482351 1.02602077 0.64745092
-0.21134791 -0.95652211 0.91314173
-0.27195424 -0.55582833 -0.95268965
-0.77678335 0.64696890 0.56342161
0.26020205 -0.36465001 0.94537294
0.81064773 0.21103631 -0.56140590
-0.39545950 1.06170261 -0.31189868
0.76568246 -0.46068934 -0.62797987
0.34016907 -0.85813016 -0.94135022
0.14910693 0.71835220 0.98551261
0.48041314 -0.96413732 0.60688365
0.22716022 -0.91491979 -0.99472654
0.52278459 0.97212684 -0.38680801
-0.79726493 -0.46658978 -0.60368812
-0.50962734 -0.84016389 0.86809003
-0.93506372 0.35233265 0.17713329
0.96793866 -0.91787106 -0.11843757
-0.99065030 -0.75741291 0.05264241
-0.65888464 -0.40146366 0.70217168
-0.31034529 -1.02988505 -0.07427523
-0.82983577 -0.68045002 0.60619664
-0.75292861 0.91685414 -0.26091909
-0.19256961 1.08946776 -0.43200085
-0.67350209 1.02775896 -0.63000166
0.47105864 -1.06059229 -0.15565571
-0.23862280 0.91114670 -0.35172620
-0.82059371 -0.88429278 -0.69786847
-0.66033268 -0.87003976 -0.72375929
-0.51397669 0.92456007 -0.83481562
0.29858789 0.25176102 0.88631058
0.38529232 0.00417312 -0.99402165
0.99530351 -0.54516602 0.17164414
-0.19302501 1.03928924 0.37423962
-0.00855760 -0.99598229 0.54583395
-0.61660826 -1.01607645 -0.46869075
0.71460688 -0.93362296 -0.48425505
-0.10498080 -0.10695748 1.07431841
-0.65701866 -0.94628650 0.72161210
-0.04705600 -1.02799702 -0.75622869
0.36989933 1.07318187 -0.65869212
-0.50773990 0.48514456 0.79109418
0.30721900 0.92257047 -0.82210934
-0.65899205 -0.56597507 -0.66969371
-0.95909739 -0.58466792 -0.41544718
1.01066184 -0.12971519 0.08601014
-0.53147554 0.99838871 -0.60292387
-0.48550484 0.27052146 -0.82736909
-0.25121903 -1.02107942 0.48805663
0.91195834 1.00346577 -0.01062437
0.37310991 0.92950302 0.42533955
-0.30467367 0.49430063 -0.96793652
-0.93822074 0.10208593 -0.35483411
0.65023673 0.09127837 -0.74725509
-0.94292426 0.05069827 0.43939734
-0.01347946 0.73482275 0.92309356
0.40978974 0.81665808 -0.86430120
-0.87855113 -0.37759259 -0.56037247
-0.99835467 -0.07658622 -0.14904509
-0.48103070 -0.15601240 -0.91324699
0.39848763 0.29870677 -0.88635325
-0.77036130 0.60299569 0.59585428
-0.94745219 -0.74857819 -0.16091521
0.06038537 -1.00700426 -0.47137475
0.77569211 0.88582498 -0.46028718
-0.58173037 -1.06545985 -0.00719639
-0.17771760 1.05995417 -0.76284671
0.65402460 0.00647463 0.77221620
0.96267879 0.51284784 -0.02069500
-0.70037818 -0.30943862 -0.72541618
-0.96291792 0.29351667 -0.14634733
-1.01481605 1.02202904 -0.41073436
-0.98957872 0.26477513 -0.27884114
0.17033194 -0.75619984 -0.95376003
0.95132196 -0.70629847 0.35710695
-0.42358685 -1.04333770 -0.65417075
0.99998534 -0.16139682 0.07248420
0.29347387 0.57810301 0.94056797
-0.98288941 -0.66441435 0.01125637
-0.24680956 -0.99206620 -0.78772044
-0.26086253 0.92671019 -0.26844579
0.50704122 -0.95731437 -0.31379738
0.97645199 -0.64231586 0.14017133
-1.05200970 -0.36008129 -0.00344662
-0.11270384 -1.10645401 -0.96720576
-0.64822626 0.97699523 0.47633529
0.65212965 -0.55371749 0.78014863
-0.28637856 -1.02247727 0.82501376
0.92315137 0.41179022 -0.52904940
0.78765464 0.38553971 -0.71279168
0.21415809 0.99520969 0.89163697
0.10806457 -0.17846459 -0.98804438
0.74117839 0.97589612 -0.12968776
-0.04031675 0.55616432 1.07511818
0.04182937 0.87860447 0.96545184
0.39868447 -0.74486142 0.88368797
-0.97985542 0.23890872 -0.26359838
-0.77449644 0.35182464 0.73936367
-0.61498833 -0.99695641 -0.26654211
0.85727692 0.78671050 0.56854117
-0.29094145 1.01330817 -0.35700497
-0.97986662 0.41100070 0.21468125
0.38331255 0.27204049 -0.90966153
0.01702374 0.52479357 -1.00485277
0.79784584 -0.18782867 0.57444715
-0.18300323 0.99046469 -0.50443482
-0.03063704 -0.28132871 0.96787047
0.72372675 -0.71419424 -0.69508171
-0.66619444 -1.06538308 0.16986045
-0.15563804 -0.56694382 -0.92538047
0.06523678 -0.91363329 -0.06983766
1.00432801 0.22743052 -0.12636854
0.15724200 0.92698789 -0.96577609
0.58987844 -0.99601364 -0.13289244
0.95163584 -0.95802975 0.19458610
-0.66680968 -0.42937621 -0.65236199
0.26248941 0.99813938 0.88064003
0.94869804 -0.65988088 -0.31483272
0.93974340 -0.57581156 -0.39363715
-0.02452160 0.91163450 1.05448544
-0.56894624 0.49647599 -0.82519937
0.97950280 -0.97775954 -0.32668599
-0.82905912 0.99023706 0.10766497
-0.61849499 -0.60091037 0.84413934
-0.89721692 -0.44293845 0.52768958
-0.94981444 0.83564544 -0.03049644
-0.31398329 -0.99218100 0.88920534
0.34239325 -0.84465677 0.92817807
-0.99341536 -0.47413754 -0.06780498
0.90462220 -1.01515055 0.09491755
-0.30757231 0.98746580 -0.66143131
0.83681631 -0.57921314 -0.29297870
0.10117645 1.04662251 0.12825584
-0.72511244 -0.99548894 -0.45007485
-0.52773333 -0.10861994 0.92230380
-0.46896100 -0.21326482 0.84431422
0.94088817 0.48371124 -0.05253111
1.01098406 -0.56841660 -0.03984313
0.73185360 0.90816897 0.22316563
0.29507160 -0.88130546 -0.15629056
-0.63929546 0.93564421 -0.43907249
0.20671403 0.98985487 0.42687288
-0.88104081 0.96690816 0.16170593
-0.93218863 -0.74170876 -0.36951801
0.51915383 1.10058606 -0.44793883
0.10297765 1.03534448 0.68006277
-0.95653498 -0.94357646 -0.11875200
-0.29589316 1.05363190 0.20960225
-0.93495774 -0.74136156 -0.20003949
0.31058827 -0.54941779 0.96843433
-0.50056946 -0.83434433 0.82742333
-0.81027567 1.01124191 0.48704493
-0.03677471 0.96950102 -0.53279984
0.91252255 -0.80981296 -0.36110413
-0.84666395 -0.75666952 0.43173242
0.86311674 -1.06120634 -0.10576406
0.78283274 0.90878075 0.10033451
-0.03097385 -0.40317687 -1.08956885
-0.93071926 -0.87400699 0.07033799
0.06470598 -0.97945714 -0.03963402
0.07628972 -0.77248937 1.11437249
-0.25386369 -0.92333454 -0.92078495
0.86635101 -0.51699078 0.39809662
0.54006577 0.11215010 0.80187690
0.86993539 -0.20142524 0.61527896
-0.27040067 -0.97765386 0.98034847
-1.08451855 0.62882936 0.08906654
-0.38652134 -1.02629220 0.68944824
-0.36541340 -0.99204260 -0.67863452
-0.35428911 -0.65843737 -0.88879108
0.21546248 1.01468921 1.01682746
0.12695934 1.06736565 -0.85274184
0.24327892 -1.09994304 0.01021402
-0.43654436 1.09215891 -0.00665167
-0.00914316 -1.03566992 0.68370914
-0.71510673 -0.97564471 -0.45945024
0.15424466 0.36979988 0.93786669
-0.85126519 0.82618833 0.28307009
0.16861688 0.98756492 -0.70394671
-0.92210972 0.46086589 -0.32171696
0.38060236 -0.33580446 -0.93841112
-0.48948869 1.01100683 0.21038400
0.02023345 -0.75475949 -0.99709713
0.95654619 -0.54610884 -0.21345001
-0.50119507 -0.55700153 -0.88103759
0.77684796 0.15389688 -0.64134324
-0.82984531 -0.64726526 0.48575577
0.15657863 0.22059518 1.07022059
-0.80522728 -1.01882780 0.54319108
-0.44590601 -0.55412900 -0.89424360
0.62780344 -0.71001011 0.74898124
0.72317111 -0.28478858 -0.69542122
-0.04435614 1.05975103 -1.00099683
0.35952109 1.00789356 -0.39793968
-0.47047362 -1.03260326 0.11452349
0.76534975 0.05603512 0.74673903
-0.95527661 0.56469148 -0.43099853
0.26561046 -0.94417155 -0.90271866
0.20975107 -0.66242301 0.98302245
-0.67011762 0.76216418 -0.69014621
-0.48019004 0.47447562 -0.93507159
0.58468282 -0.46075544 -0.79197514
-0.05824192 -1.06260824 -1.05320776
-0.02533760 -0.70728993 -0.92065632
0.32994372 0.30617955 -1.01125431
-1.04747462 -0.88836342 -0.15292764
0.51652431 -0.98203558 0.22367738
0.83405650 0.90929508 -0.50432563
-0.79720592 -0.22259778 0.63004804
0.34870121 0.25254709 -0.97285402
-1.01197159 -0.83398491 0.26715392
0.05750379 1.01872385 0.91855216
-0.73418927 -0.84030533 0.72845292
0.72129107 -0.15186886 -0.71403158
0.08432579 -1.00499451 0.49402803
-0.38589221 0.96111721 0.81177688
-0.71183956 1.04607582 0.63127148
-0.80022669 -0.36025608 -0.56220055
-0.80679739 0.36856812 0.60557568
-0.16922356 0.86919707 -1.01931763
0.01851873 -0.55171686 -1.01141906
0.42853710 1.05966389 0.90168619
-0.94291818 0.70248532 -0.32016739
0.09553201 0.90960789 -1.02125978
-0.10400386 -0.99510527 0.39887062
0.45942184 0.34542486 -0.82605577
-0.37600145 0.54425991 -0.89145255
0.19548203 -0.30633610 0.95724487
0.77017355 -0.87413287 -0.60227931
-0.16928627 1.00386095 -0.65459812
0.37034839 -0.14583911 -0.88248348
0.99973905 -0.49520007 0.07318050
0.88347924 -0.35799327 -0.42781371
0.81120336 -0.39646617 0.69000471
0.95935261 -0.75543034 0.23022531
1.01176345 -0.90307957 -0.23099753
-0.31231239 0.44860530 0.89487839
0.33159798 0.95080417 0.90547085
0.09059905 0.35899597 -1.02332890
0.65108705 1.02191699 -0.18456620
-0.47252151 0.17621823 -0.80979264
-0.11292513 -0.69652009 -1.05807078
0.96886778 -0.96016240 -0.28010967
0.90073991 0.27002439 -0.58778894
-0.04719089 -0.90637249 0.32336915
0.02087529 1.06268775 0.14681555
0.41635352 -0.29355055 -0.93258882
0.81088901 0.64406097 -0.43030572
-0.01554524 -0.27713591 -0.87794101
0.17833969 -1.01400936 -0.57838142
-0.19854008 -1.00432789 0.07927874
-0.61340570 0.78896421 -0.75986469
-0.02760544 -0.51459229 1.02532625
-0.07566619 -1.02925181 -1.02326381
-0.23602237 0.98296106 0.70070159
0.47851154 1.00026786 -0.81740570
0.66138184 0.51990455 -0.84312963
-0.03376149 0.08331086 -0.98374689
0.90373707 0.17319277 0.36025867
-0.19935142 0.45836768 1.00835764
1.04200125 0.56149668 -0.08725897
-0.41956955 0.94114727 0.50601900
-0.15210114 -0.98108733 0.40665597
-0.92104387 -0.90233392 -0.08353409
0.14024734 0.32200214 -1.00098085
-0.79673946 -0.70305717 -0.59005153
0.81317508 0.98239744 0.66084862
-0.99616373 0.44222215 0.30656514
0.97886610 -0.17670377 -0.00741682
0.39234278 -0.42440432 1.01069486
-0.70386672 0.98741561 -0.27067965
-0.03161805 0.36426890 0.93726385
-0.02908275 0.60482329 0.97336698
0.74261796 -0.98068863 0.22076122
-0.55026340 -0.30835605 -0.78817677
0.71386826 1.00379598 -0.49416539
-0.97881043 -0.23348852 -0.13129799
-0.13593103 -0.93655241 -0.56577969
-0.89846921 0.47155306 0.36184591
-0.97627151 -0.06579637 -0.30581021
-0.39321432 0.14828905 0.89496446
-0.07436898 -0.93470639 -0.04829064
-0.11941478 -0.97942233 0.18586153
-0.50939238 -0.99041069 0.47860530
-0.40802166 0.13769756 0.94249618
-0.35737976 0.95716262 -0.36511928
0.63655138 0.96779931 -0.70701230
-1.00332844 -0.64083844 -0.07931628
0.95397520 -0.56852144 0.07875919
-0.53822803 0.43277639 0.78617048
-0.03209086 -0.37920317 0.93446612
-0.98639536 0.31321508 -0.14843172
-0.54188919 0.99981064 -0.16608368
0.48775846 0.94321454 -0.50219047
0.72789180 -0.04613429 0.61157250
0.83644605 -0.27245900 0.62665653
0.31655121 -0.96383220 -0.06233254
-0.39765880 -1.00883603 -0.64290917
0.84374690 0.36970374 0.48935568
-0.21369106 -0.94372380 -0.04360439
1.02249563 -0.42205718 0.10200299
-0.17768864 -0.02920023 0.98896599
-0.98520815 0.94960684 -0.16896559
0.55175614 1.02826643 -0.82650602
0.02359360 0.09912246 -0.95891559
-0.31389213 1.02121091 -0.69504189
-0.18534324 -0.98989987 -0.35399121
-0.75450575 0.62257832 0.63217139
0.88779223 0.42606074 -0.57739699
0.02187393 -0.08471713 -1.04157388
-0.89626634 -0.83370203 -0.49379933
-0.39922738 0.09289657 -0.94548905
-0.15574370 -0.91786408 1.01958680
0.39637935 0.74645245 -0.89342260
0.25921842 0.98816979 -0.95892060
-0.64408422 0.49226171 0.70153618
0.26904356 0.99084139 0.21350156
-0.78098965 0.94643301 0.22163820
0.73501408 -1.03976953 -0.04386262
0.92074037 0.96000367 0.26461217
0.54869413 0.40400735 -0.84123409
0.73360193 -1.05500996 0.45184216
0.22654226 0.28898683 -0.92006528
-0.95674992 -0.52304143 0.28648648
0.04869756 0.98344749 0.56476021
0.09133899 -0.97184581 -0.96132982
-0.68828249 0.98992896 0.22616526
0.72054982 0.92568386 0.74485421
-0.45166314 0.97430551 0.73770607
-0.54022801 -0.28447610 0.90958464
-0.13261954 -0.55819595 -1.04095232
-0.24332400 -0.99680424 -0.61036479
-0.50549603 -0.80666333 0.74562037
-0.42699513 0.00214888 -0.94435763
0.16383648 0.70309228 -1.09354258
-0.54296386 0.96079475 0.45692667
-0.46947554 -0.97536761 -0.09845002
-0.50428438 -1.02205741 -0.40392527
-0.77855170 0.46453363 -0.71937299
-0.36380070 -0.42209551 -0.89331138
-0.89294660 -0.08765766 0.49033031
0.58163631 1.03055644 -0.90994334
-0.53363919 -1.00063980 -0.34695554
0.00906559 0.29494795 0.99344623
-1.03129792 -0.88783979 -0.15021357
-0.47548488 -1.01792336 -0.11813489
0.54392207 0.99288565 0.82954681
-0.36595485 -0.99465990 -0.17606249
0.87146509 0.76715446 -0.39901772
0.77159786 -0.97951889 0.37589028
0.72104979 0.09508158 -0.63930416
0.16543444 1.04517555 -0.07025544
0.20960075 -0.46848780 -0.93484879
-0.73157918 1.02694201 -0.21644445
-0.25904933 -0.94259173 0.05842682
-0.55349624 -0.95436954 0.56365836
-0.43002585 -0.94298971 0.06823891
-0.71932650 -0.41907555 0.71571529
0.95064700 0.58825988 0.41638964
0.24238057 0.16252628 -1.00136638
0.87701297 -0.09590016 0.61948729
-0.80309057 0.38786191 -0.68984866
-0.39498079 -0.09506834 0.92230558
-0.20445754 0.98424351 0.25907075
0.20810542 0.91318119 0.68124092
-0.23813473 -0.46496645 -0.99228621
-0.93608129 0.12257849 -0.08497713
0.43275496 1.00187194 0.28270841
0.85838747 -1.08031523 0.37693492
-0.59333622 1.00046611 0.10130618
0.97711957 -0.94085354 -0.16907327
0.14384972 -0.99945384 -0.86532283
-0.91534007 0.74642032 0.46520504
0.69051039 0.52656639 -0.72773373
-0.73565376 -0.76530766 0.73472357
-0.01460510 1.01349449 -0.92919254
-0.04718328 -0.68226790 -0.92694032
0.15785281 -0.21849330 0.95768797
0.87662208 0.37269539 0.36372229
-0.21353041 -0.43925419 -0.98498261
-0.74699342 1.00661993 -0.26568115
-0.38390860 -1.00395632 0.59302306
-0.35316935 -0.96137303 -0.55013800
0.31773984 -1.09425199 0.62346601
-1.01304102 0.30434668 0.10506278
-0.36771449 -0.97344095 0.09759777
0.10615250 -0.99073040 -0.51078522
0.70077801 -1.05462861 -0.22572561
-0.64127564 1.03612459 -0.52130497
0.41387334 -0.84315151 0.86076713
0.37285966 -0.74830163 -0.94343543
0.30088043 -0.89551616 0.93489277
0.24688357 -0.92439508 0.28578910
0.06485584 0.07652759 0.99550414
-0.88771343 -0.91120541 -0.25035599
-0.96052957 -0.49560603 -0.40441999
-0.23876080 0.97888744 0.90509677
-0.59390342 -0.76008737 0.76099253
-0.92173362 0.43921959 0.06751470
0.57449484 0.28707948 0.75296640
-0.21566978 1.00333071 0.30577633
-0.07197648 -0.92500466 0.99727654
0.12214799 -1.03808272 -0.02675006
0.18276131 0.27649593 -1.02852929
0.30561557 -1.01326966 -0.91609991
0.95259440 0.98366362 -0.41244328
0.35694841 1.04615343 0.34439743
0.49725807 0.89906287 0.89235103
-0.11343549 -1.02126908 0.36698008
0.54149401 0.12460988 0.84305918
-0.13807768 -0.99863702 0.86163032
0.70100343 -0.68534154 -0.62552392
-0.84992063 -0.25757611 0.60329127
0.72610962 -0.02490322 0.64682889
0.31106606 -0.96484256 0.53396463
0.52951467 -0.95424962 -0.39869493
0.46925715 1.05170739 0.83339727
-1.03810906 0.66215491 0.09995679
-0.85961461 1.04378259 0.15801883
-0.91129196 0.19925754 -0.32551190
0.83633912 0.44706279 0.53124535
-0.55249143 0.36724022 0.85797977
1.08481252 -0.38928580 0.02829927
0.49331182 -0.97084969 0.69860661
-0.22556509 0.90697086 0.22273247
-0.17385194 -0.40631527 -0.98905528
0.66485822 1.02286601 -0.17051941
-0.24712734 0.99264061 0.34176269
0.05013857 0.92867738 0.19887425
0.85064244 -0.49093211 -0.61630893
-1.04552376 0.57786828 0.03180388
-0.24865320 1.02569366 -0.28397635
0.24969606 1.01348937 -0.59568143
-0.13819693 -0.99670011 -0.29508579
-0.93848193 -0.52214950 -0.41471872
-0.20215510 -0.92463070 0.90681136
0.31175229 -1.02164912 0.47632390
0.83987486 0.06160749 -0.58211970
0.48954263 0.94547623 -0.19980212
0.78795397 -0.44696599 -0.65613294
-0.91536927 -0.79220003 -0.27380452
0.91285551 0.28336978 -0.42916435
-0.92874229 1.08657444 -0.03362558
0.52060103 -0.99911845 0.36551759
-0.62414217 1.01438224 -0.01297759
-0.34098798 1.05846465 -0.93674421
-0.42126849 -0.04905957 -0.84920573
-0.81059647 -0.07663493 -0.50949180
-0.73242784 -0.98233646 -0.19854483
-0.12565121 0.99686337 0.72593665
0.72024763 -0.38213673 -0.64777339
-0.49174312 0.96733385 0.54200816
-0.36991909 0.21702485 -1.00774705
-0.88192940 -0.99551094 -0.32368743
0.09934715 0.97370017 0.97898984
-0.43091112 -1.04534900 0.08398177
0.88419962 -1.02035248 -0.27571785
-0.90546405 -0.33494452 -0.65062761
0.33194444 0.92087626 0.49397752
0.41683248 0.72099370 0.91731238
-0.10091084 -0.99431527 0.33867839
0.71299231 -0.86081243 -0.73863411
-0.34707683 -0.15018709 0.84879124
0.30572388 -1.01162720 0.14986742
0.28188381 0.98897821 0.38148117
0.42038050 0.96257985 -0.61276710
0.75036013 0.98530626 0.49762359
0.80825126 -0.20382519 0.69341719
-0.63370430 0.86138582 -0.72078598
0.86954665 -0.17863825 0.36347389
-0.69624054 -0.70266718 0.82372999
-0.16865094 0.24561399 1.04370558
0.09582262 -0.86582983 -1.01783061
-0.10912474 -0.31901979 0.99042940
0.99459493 0.65843415 0.12500022
0.62878895 -0.07858089 -0.78501558
0.29221746 -0.74137163 0.96811473
-0.08100175 -0.14602464 -1.04569983
-0.71934366 -1.00581241 0.71475828
-0.18296270 0.99010313 -0.11791262
-0.81229687 0.56400597 0.57731259
0.91035914 0.42014158 0.27206483
0.63861418 -0.58803356 0.74932945
0.24521053 0.08111772 1.01160085
-0.02079685 0.52072263 0.97358119
0.89296174 0.33869356 0.10259749
0.88707888 0.96512198 -0.26276463
-0.79473138 0.39091155 0.68125737
-0.79753149 0.50728768 0.51809633
-0.63318229 -0.98802865 0.32059428
-0.44826192 -0.95963013 0.41883829
-0.91789281 -0.38605013 -0.29946610
0.31810400 0.96132314 0.06036009
-0.61000705 0.93041497 -0.69468677
-0.48892900 -0.47650942 -0.85614657
-0.82926333 -0.41097876 -0.55360198
-0.31265700 -0.99159288 -0.39569622
-0.82047749 0.94643527 -0.20001772
0.08606035 0.24892540 0.95598507
-0.91976333 -0.96584612 0.20665756
0.03606750 -0.59581774 -1.04569507
0.80669260 0.25398684 -0.48668683
0.10868483 0.63665956 -0.95920253
-0.92286754 0.59756011 0.32478246
-0.64537847 -0.95772731 0.13348347
-0.92219865 -0.20440507 0.41053104
0.16737175 0.48045257 -1.01006031
1.06269312 -0.50768399 -0.01907963
-0.44214976 -0.10510974 1.02254260
-0.85939872 0.05859770 -0.56096590
0.76375055 -0.90484613 0.60852087
-0.89731550 0.21905404 -0.29859844
-0.13306911 -0.69541734 1.01547658
-0.16862345 0.99587095 -0.63340247
1.05912173 0.03450790 0.30143592
0.92848074 0.38811994 0.42347386
0.62708330 0.53811741 0.70771360
-0.04852238 0.98260468 0.51376176
0.28030142 -1.01471245 0.40625641
0.07491094 -0.32031727 -1.03687227
0.31364787 -0.21735768 -0.89772165
-0.27173933 0.06162834 -0.99528503
-0.92736411 0.86821741 -0.44062167
0.47564742 0.81568819 0.93585324
0.90632284 0.02212243 -0.07540186
0.93152606 -0.56498587 0.31132048
-0.30212396 1.08825624 0.30076742
-0.60297287 0.98016798 -0.46544030
0.00784549 -0.80776483 -1.02515030
-0.03907385 -0.04247897 -1.01933777
-0.60324419 -1.05190110 0.46862379
-0.52517116 0.82250696 -0.86434269
0.21592070 -0.99264455 -0.91809845
0.44661802 -0.99926448 0.51917386
0.97719538 0.93428802 -0.20899795
-0.34527788 -0.99136370 -0.16647527
0.34932974 0.15566234 0.92185247
0.90100980 0.03582705 0.33980787
-0.11076431 1.11673486 -0.74304569
-0.09359881 0.97419596 -0.04016566
0.80513585 -1.03935373 0.45734489
-0.04803022 0.93229836 1.02067554
-0.97552180 0.38760597 0.14835796
-0.40536743 -0.03041197 -0.88227963
-0.03665474 1.07056916 -0.45537886
0.28734806 0.84547555 -1.04143226
0.84534299 1.00709164 0.19052203
0.99017024 -0.72874153 0.21647002
-0.64873326 0.72078997 -0.70035088
0.10039289 -0.98093045 -0.66733611
0.79112530 -0.19410589 0.52989471
-0.83558416 0.15495715 0.56190443
-0.92544305 -0.41286254 -0.44924664
-0.97558784 -0.94054872 0.14960311
-0.32561427 0.98779404 0.29693854
-0.54725027 -0.11637232 -0.77308846
-1.00410497 -0.62196302 0.14175634
0.06564267 -0.03477543 0.97965789
1.01549792 -0.24890280 0.10700596
-0.07569879 0.05632394 0.99711978
0.14591385 -1.06506014 0.60344005
0.94116211 0.47189373 -0.34103888
0.97171772 -0.23522754 0.35962409
0.42331216 1.01635945 0.20626092
-0.05009132 0.35298470 0.99123144
-0.53068841 -0.86208850 0.86973441
0.03311482 0.36863458 1.00273609
0.30646545 1.00630665 0.10922763
-0.22824539 -0.48095965 -0.90910339
0.08747678 1.02573264 -0.65038049
-0.81091511 -0.91613811 -0.59881830
-0.23821357 -0.99217898 -0.56260073
1.00335658 -0.01251255 -0.01330878
0.28819886 -0.24878435 0.93202674
0.85029650 0.45761460 0.59922230
-0.54982924 0.49281654 -0.87638938
-0.43206719 0.67198360 0.90820956
0.82677293 0.38871989 -0.49208832
0.16246936 -0.43662292 -0.98213005
-0.06863692 0.96558863 -0.93927276
0.55248523 0.55665553 0.83049572
0.90976071 -0.94641554 0.39732608
0.42278814 0.94265342 -0.34942177
0.94937682 -0.97180176 -0.12946551
0.46237078 -0.66779089 -0.93634200
0.12473293 0.77882487 -0.96568263
-0.52977240 -0.73956764 -0.82781935
-0.90622616 0.94020307 0.21066257
0.66515517 -0.91150588 -0.25205663
-0.60658598 0.61016083 0.77685666
0.91012239 0.78740841 0.34046054
0.91861212 -0.47338662 0.51984525
-0.44380122 -0.76911753 0.88972569
-0.13234849 0.98095852 -0.75629163
0.61739826 0.99290568 0.51969278
-0.69204819 0.26180896 0.75618207
-0.07076800 1.03974199 -0.37965614
0.82757378 0.96852225 -0.45572782
-0.34348145 -0.17378883 -0.91604233
-0.97205222 0.38712525 0.35093018
-0.17425653 0.18284379 -1.05345821
-0.48674133 0.20561315 -0.90568399
-0.03885932 -0.98518246 0.02289381
-0.77425301 -0.98276126 -0.33798125
-0.61435211 -0.93837547 0.69188428
-0.80747366 -0.82300562 -0.48690227
0.65869653 -1.03615773 0.19946939
-0.16315590 -0.50842762 1.00965643
-0.75755882 0.93436670 -0.47059628
1.02032244 0.73004830 -0.18668112
0.24781948 -1.02043879 0.90424192
0.29512706 0.41183433 0.99624538
0.74773037 0.87380248 -0.63661802
-0.86624849 0.76471496 0.42714453
0.82348692 0.22610728 -0.45825708
-0.45357606 0.91267926 -0.44227123
-0.65400314 1.01724029 -0.16138834
-0.92625892 0.82439858 -0.31022224
0.36348209 0.14880732 0.92731619
0.38172564 0.49961191 -0.94168723
0.65329695 0.99523067 -0.44214672
-0.03170559 0.28407198 0.99386382
0.99968767 -0.90767944 0.20005693
-0.72766531 -0.98166090 0.16253611
0.07366209 -0.61792713 0.96892381
0.13488030 -0.14023042 -0.96013641
0.88635552 -1.08819687 0.39717901
-0.79810357 0.03259484 0.60959601
0.43866035 -0.45015886 -0.87962079
0.38563862 0.37092099 0.88108766
0.05415693 -0.52433437 1.00189686
-0.40711680 1.01345050 -0.86207712
0.95688844 -0.43930328 0.34630141
0.13631335 -0.97090143 0.26852009
0.47651607 0.97364509 -0.69552946
-0.93105078 0.14549193 -0.22154425
-0.92752695 -0.98090065 -0.42821306
-0.79572487 0.11469689 -0.68663728
0.03795476 -1.02887428 0.54750633
0.30623707 -0.64308518 -0.91748226
-0.39641714 -1.07364380 0.40037137
0.26148567 0.96035194 0.65295446
-0.57198191 -0.95858991 -0.81383836
-0.98442113 0.47419241 0.20295884
1.00917459 0.47059742 -0.13879915
-0.26790279 0.22066703 0.99395728
-0.84729457 0.22837207 -0.32181263
-0.50985265 1.06126249 0.09149625
-0.17965174 0.98946005 -0.78595090
-0.13126035 -1.04294348 -0.09421640
-0.04815667 0.02401247 1.01444650
0.27283177 1.04453182 0.44488907
0.12256676 0.22114664 0.99779904
0.13594595 1.01395273 -0.98826194
-0.30013883 0.94356370 0.54652631
0.69256616 1.04850221 -0.10692748
-0.87753797 1.00911963 -0.24466534
0.20337161 1.02022636 0.49463746
-0.09360343 -0.85150963 -1.04169512
0.14830709 -0.96285170 0.18575345
0.69187605 -0.44499332 -0.75471246
-0.93095684 0.09761258 0.38187179
-0.99030387 0.37621379 0.15058175
0.06127172 -0.41862065 -1.04492593
0.40925127 0.96347082 0.37119856
-0.75212491 -0.14401329 -0.57314658
-0.02001180 -0.97909331 0.42406946
-1.00143909 -0.49212044 -0.39108256
-0.87129712 0.48701295 -0.44239560
-0.42439172 -1.02981031 0.62131560
0.24608403 0.94363791 0.26521310
0.69717765 0.92246431 0.37065086
-0.22275625 -0.46651104 -0.97830915
-0.66085589 -1.00721312 -0.48035455
0.34190077 0.08727406 0.92812014
0.59914804 0.57021475 -0.76537645
-0.70553255 0.36406282 0.69058311
-1.07604218 -0.57625610 0.05920606
0.86449170 0.84518933 0.53310823
-0.33939785 -1.03794909 -0.25189289
0.38684061 0.97184408 -1.02618456
0.98625934 0.55841827 0.17092685
-1.04823911 -0.56405610 0.03451103
-0.97143483 -1.01797438 -0.32027504
-0.75748789 -0.69574142 0.66662526
-1.01384652 0.56017625 0.01890040
-0.13773404 1.04886878 -0.17637365
0.61044538 -0.94737095 -0.41211188
0.76171136 0.72066176 -0.70080996
0.31479365 0.94641775 -0.28700098
-0.35814297 0.96616697 0.18167061
0.87613726 0.48473099 -0.50259542
0.98865402 0.14120568 -0.10818179
-0.67689335 -0.72418839 0.60313487
0.20679897 -0.11430603 1.02104342
-0.15681873 0.97086149 -0.77730012
-0.89139783 0.37157449 0.23847669
-0.00219615 -0.94178873 0.68571734
0.37195754 -0.64546287 -0.96529269
0.36481306 -0.26040003 -0.92051101
0.61706185 -0.49367493 0.80112505
-0.10201535 0.18523541 -1.03587747
0.50588751 -0.92276406 0.23569639
-0.39238855 0.79189062 -0.90173268
-0.51179624 0.93334591 -0.66622508
-0.18111047 -0.95612228 0.03935256
-0.16956949 1.00337541 -0.26536226
-0.56841755 -0.81822592 0.73308289
-0.32434842 -1.00260746 -0.62680054
-0.42721033 0.97942179 -0.82277179
-0.85044408 -0.38487855 -0.58080065
0.36006442 -1.01543641 0.85676277
-0.71099901 0.25453350 0.69374967
-0.91392291 -1.02809227 0.13454247
-0.36053240 -0.96836489 -0.47311991
1.01087892 0.93821251 -0.04961961
0.20992331 0.73530531 -1.01493227
0.32556883 -1.02866375 0.08837878
0.84188569 -0.40965694 0.51713955
0.02914719 1.00516140 -0.49371529
0.71098220 -0.43582129 -0.56051421
0.96264839 -0.90329766 -0.19306111
0.11886320 0.99320304 -0.37416089
0.99049652 0.81560820 0.05726730
0.02062964 -1.05708396 -0.61209846
-0.38402066 0.98787117 -0.35266942
-0.97775578 0.68352860 -0.26165447
0.94871223 -0.97766298 0.28846964
0.21352570 -0.55786204 1.02966654
0.13731930 0.40113255 1.00221395
-0.39991346 -0.48084250 0.88498664
0.37330326 0.93219656 -0.82761490
-0.30574083 0.98457712 -0.13642292
-0.34937683 0.62569314 0.93849039
0.64174128 0.31297091 -0.81643701
0.65446174 -0.60662419 0.76887453
0.95557714 0.30831978 -0.36469766
-0.81693769 0.81896931 -0.55679226
0.96026993 0.87256986 0.36383530
-0.20061280 -0.96953028 0.17329100
-0.65279210 -1.03768730 0.35539886
-0.49714962 -0.70585167 0.86626565
-0.66911805 1.01317525 0.30228665
1.00763083 -0.65346980 -0.03159966
0.87367070 -0.96739620 -0.39638913
-0.02707154 -0.17748110 0.96860564
0.97240365 0.30740798 -0.40597105
-0.82380974 0.06904393 0.59797060
1.06593084 -0.11691652 -0.18876581
0.96381843 -0.43806100 0.32225153
-0.84536242 -0.42351460 -0.58482111
0.18713517 0.76709872 0.96999002
-0.42586303 -0.95305675 -0.41942692
-0.72887528 -0.12293769 -0.55004692
-0.29938841 0.97103024 -0.70611143
0.33248124 -1.07953227 0.35615864
-0.62572992 -0.77202898 0.69746649
0.15378037 0.44229007 -0.99409592
-0.33955109 -0.33113331 -0.91392183
0.70855451 -0.44271860 -0.77276111
0.75891078 0.60326540 -0.70548129
1.07693338 -0.68981868 -0.12490102
-0.87909424 0.37543395 -0.51686275
0.16070472 1.01257288 -0.78340757
0.25898522 -0.10051867 0.93840849
0.32523096 -0.82720447 0.94062054
0.61805737 0.57925928 -0.84901834
-0.86874461 -0.40347239 0.46514723
1.00222826 -0.63251942 0.20374842
-0.45300332 0.82433808 -0.78201067
-0.88090646 -0.41410792 0.55146706
-0.94561207 -0.02885607 0.51894712
-0.15771346 -0.96474129 -0.32952985
0.10161509 -0.03699819 1.02881289
0.08321161 0.26537475 1.00146759
-0.36015829 1.00886452 -0.97682369
0.89991915 -1.02757013 -0.02858701
1.02605093 -0.32425752 0.22302404
-0.02795928 0.33322862 0.98814213
0.14557403 -0.99619961 0.05854642
0.97672510 -0.50638545 0.10346347
0.69787002 -0.67461824 0.73452878
-0.70311856 0.29121199 -0.71438277
-0.19312440 -1.00719142 0.40662158
-0.98475361 -0.89210671 -0.32684606
-0.54081678 -0.43700045 0.85559309
-0.69395435 0.14931831 -0.75601757
0.41393656 0.96504658 -0.13970728
0.04931189 0.13173331 -0.97486973
0.86522019 -0.13247252 0.43551433
0.01581613 0.30629763 1.00598454
0.61379158 -1.09297264 0.39432687
-0.29639062 -0.17787573 0.98840594
-0.86721468 0.50628477 0.41895351
0.32138917 0.35725951 -0.99922478
0.94865179 0.09630181 -0.44352007
0.70681798 -1.00349677 -0.43719709
-0.16680548 -1.00462127 -0.27826411
-0.51288199 0.62236834 -0.84248257
-0.70941484 -1.01257360 -0.31319144
-0.33214355 0.66485488 -0.94131160
-1.01555443 -0.73800677 -0.00473078
1.07213688 0.06873947 0.35583594
-0.22926497 -0.95962751 -0.65664434
0.97689795 0.93462020 -0.24262528
-0.65452278 0.70779175 0.78544438
-0.49827960 -0.99124092 0.71200085
0.30346751 0.79356629 0.95358670
0.92572808 -0.12078675 0.42070848
1.00784457 -0.56117868 0.20004584
-0.99820387 -0.76764685 -0.47617608
0.34664845 -0.99293196 0.86095464
0.88822484 -0.24720015 -0.47661340
-0.92956734 0.51166505 0.01544067
1.04277289 -0.43204454 0.28453261
-0.17097430 1.00197756 -0.81378019
1.04765773 0.36778212 -0.10035603
0.57503796 -0.99897289 -0.37815040
-0.05215852 -1.01147676 -0.07924653
-0.77640152 -0.98609191 -0.31462356
-0.58476853 0.91482460 -0.79032052
-0.92953980 -0.61267263 -0.51948607
0.06391852 0.41836268 -1.09538078
0.34628406 -1.02368510 0.76108027
0.22582775 -0.99432069 0.96137512
0.08364139 -0.47334063 0.96057308
-0.52698469 -1.03195000 -0.03332500
0.02063694 -0.30133039 -0.97610378
-0.43544272 -0.18658623 0.92847800
-0.23862574 -1.00330353 0.10784296
0.97457981 -0.71191627 0.17452236
0.10335531 -1.06574357 -0.87620938
0.68313956 -0.99675596 -0.03918122
-0.75060892 -0.32123432 -0.68009782
-0.44338003 -0.84155768 -0.69493961
-0.02478091 -1.03020847 -0.78084600
-0.26125637 0.54922664 0.90311420
0.04562451 1.03752816 0.79742539
-0.65662444 -0.77438343 -0.72661221
0.57417274 1.07249892 -0.43360949
1.02016258 0.17939448 0.01373154
-0.56014001 -1.01883054 0.22226353
-0.30963397 -1.08278763 -0.69192588
1.01288128 -0.52677941 0.24154370
0.24103318 -0.69408339 -0.87660420
0.83621943 0.96661997 -0.17066756
0.06784310 -0.37444815 -1.02624261
-0.13543090 0.93931955 0.67582095
0.92709565 0.19540381 -0.40946674
-0.68368781 -0.29569152 -0.74836564
-0.65699828 -0.55797726 -0.70806503
0.28992286 -0.88984704 0.87418830
0.99443436 -0.79063666 0.25788870
-0.91426444 0.16645582 -0.33904472
-0.37952456 1.00899506 -0.85027134
-0.15097083 0.09747040 0.96105635
0.65252221 0.22947605 -0.83882046
-0.32823023 0.93221676 0.71844101
0.08245803 0.44889581 -0.98978102
-0.58774483 0.98580760 -0.48372343
0.96903884 1.06358039 0.18764794
0.41514269 0.56587249 0.84110212
0.06400661 -0.31839177 0.90469289
-0.39650661 -0.69758844 -0.89570212
0.20440906 1.00432658 -0.82838917
0.40038523 -0.76064080 -0.92775822
-0.68655920 -0.22033790 -0.74741626
0.23525314 0.98196638 0.44786224
-0.80636001 -0.78855526 -0.57973266
-0.55003655 -0.05309361 -0.74466157
-0.82542872 -0.21380353 -0.53189313
0.42170030 -0.41160363 0.88683963
-0.07550336 0.97250336 0.82842767
0.22920580 -0.35425878 0.96570265
0.31081450 0.37859604 -0.90925765
0.89799857 1.05953777 -0.15362529
0.75137496 -0.95138860 -0.09175004
0.01114179 -0.14004220 0.95050299
-0.30216956 1.00370824 0.00265580
-0.96016443 -0.17500938 -0.01530536
0.39554259 0.10232486 -0.97199869
0.05649913 1.02201271 0.78878379
0.25419790 -0.33627927 -1.00312531
-0.17089507 0.56858641 0.94708657
0.46730086 0.99104917 -0.76438212
-0.45965987 -0.15086557 0.87570429
0.97758079 1.01259077 -0.24081662
-0.35827956 -0.94734329 -0.84518802
-0.83883667 -0.29426524 0.51894760
-0.44321746 -0.97361803 -0.48336944
-0.44022602 1.04833591 0.74829590
0.18980241 -0.01793607 -0.93694794
0.17139427 -0.11893164 0.95333052
-0.01045882 0.91144621 1.01507211
0.48946124 -0.64310259 0.96556664
0.00059370 1.00573456 -0.89998364
-0.85535336 -0.53977221 0.40595815
0.57652903 0.17111321 -0.92198336
0.58846700 0.93672788 -0.18069494
0.00680615 -0.91253847 -0.78672028
-0.57354140 -1.05566645 -0.12785025
0.98120105 0.53049016 -0.01696434
-0.20113486 -1.01588166 -0.67614830
-0.53008056 -0.97244418 -0.48403433
0.04228696 0.13599761 1.04227030
-0.30766588 -0.43091813 0.87271643
-0.85475230 0.12130412 0.33198997
-0.15791236 1.01815724 -1.02564931
0.01664142 0.62043774 -0.99867249
-0.71255982 -0.56301153 -0.71176016
-0.63860762 0.07539365 0.83022189
-0.69839597 0.94174284 -0.72698343
0.94072628 0.77856773 -0.00107883
0.90478861 0.65022880 -0.35020497
0.02063509 -0.94994169 0.08518027
-0.18639906 -0.68895656 -0.95481920
0.62721384 1.00616574 0.36219984
0.18800816 -0.07174484 0.94032741
0.43761474 1.01217330 -0.77823091
0.08759561 -1.03308928 0.63769794
0.98224771 -0.93753004 -0.32345608
1.01965582 0.43745190 -0.13454035
-0.23283377 1.06484759 -0.43076351
0.78078032 -0.14463265 0.69608665
-0.07999291 0.83063495 1.05287671
-0.19350883 -0.55884749 -0.98069108
-0.07373691 1.00121379 -0.92118871
-0.80974019 -0.72872794 0.43034080
0.58002818 0.74786156 0.86801696
0.89088595 0.40313205 -0.25348091
-0.50018454 -0.66652590 0.87278318
-0.42095357 -1.01458120 0.21539895
-0.99037015 -0.36277792 0.14616944
-0.51293170 -0.32560304 -0.79858744
-0.31422672 0.01612117 0.92231059
0.67024493 -0.76078397 -0.64496589
-0.99535441 0.56335819 0.21985956
-0.88986731 0.93315160 -0.28761113
0.97489619 0.90683419 -0.28914249
0.48895332 0.57278639 -0.87778676
0.26295808 -1.03462327 0.26489690
0.16607812 -1.11881971 0.49436280
-1.03435612 0.91453183 0.43972477
-0.33377811 -0.03490710 0.86137307
0.59005427 -0.96263760 0.30371574
-0.54397690 -0.95336616 -0.90010750
0.17722714 0.10325262 -0.95893955
0.66002464 -0.61002147 0.82962656
-0.83474517 -0.67822903 -0.57149875
-0.01357628 -1.00768447 0.36804989
0.58090174 1.03154683 -0.34318644
0.76261663 -1.08038998 0.39338267
-0.27040800 -0.91148251 0.97835767
-0.20953399 0.96800703 -1.01981008
-1.03860939 -0.71102470 -0.09383380
1.03308988 -0.87368590 0.03931081
0.18773334 0.48191833 0.95433795
-0.02354953 -0.99800766 -0.76306486
0.97082949 -0.91752201 -0.22623183
0.76351953 0.19688186 -0.66833842
-0.38095695 -1.07966733 -0.60742772
-0.27771509 0.96059799 -0.38354728
0.10641321 0.93923301 -0.92612576
0.52320862 -0.87094611 0.81040800
-1.02840614 -0.28859082 0.18306424
-0.47597069 0.46888489 0.89014661
-0.89699078 0.60568607 0.37559974
0.15214540 0.92374384 -0.10009713
1.04652095 0.33729202 -0.04827690
-1.03817177 0.28440663 -0.04972039
0.46765476 -1.05154037 0.04137520
0.07266364 0.24254021 -0.94378328
-0.46972895 0.86148584 0.91846335
-0.82189286 -0.89617378 -0.39038199
0.60842311 0.88388193 0.80172372
0.31149492 -0.48138788 -0.97659206
-0.12299325 -0.96064186 0.24760224
-0.87411571 -0.46986321 0.42033350
-0.94336021 0.11659899 -0.19958787
0.10312145 -0.78134727 -0.95599639
-0.27031055 -1.02513790 0.36048532
-0.17669319 -0.05176519 0.95862496
1.03795874 0.00848094 -0.07121282
-0.89503789 0.74880636 -0.39685202
-0.84187949 0.75668657 0.53856432
0.58093953 0.37558010 -0.80712652
-1.01529312 0.81603217 0.29043341
-0.70377207 0.96559292 0.52589190
-0.78564048 0.03651495 0.61434817
-0.31919080 0.95299369 0.75388432
0.96774793 0.85778254 0.32315439
-0.63328063 -0.07185244 -0.80472195
-0.57021785 -0.07598811 -0.76446116
0.91151440 -0.05549905 -0.29446375
0.39781094 0.45928380 0.92067254
-0.97033942 -0.52792412 0.17399994
0.15140757 -0.34911874 -0.92083585
-0.62011755 0.26719263 -0.72665119
0.19671172 -1.07073832 -0.64915705
-0.45625836 1.03174567 -0.17177632
-0.19546558 0.95659375 -0.81259048
0.61881137 1.03597438 -0.57956994
-0.59330928 -0.99661815 0.01481072
0.26223239 -0.99889547 0.40249896
-0.43528193 -0.99257821 0.49810156
-0.78256726 1.00345230 0.15465100
0.96824253 -0.96429616 -0.35595438
-0.98490083 -0.25216562 0.34454030
0.69249439 0.19304632 -0.72881973
0.29668635 -0.85937625 0.97955525
0.99915922 -0.15362874 -0.09678993
-0.06486603 -0.90650791 0.99392676
0.96738279 0.09094038 0.12448038
0.34051350 0.97313434 -0.90874100
0.92985713 -0.81934577 0.37758499
0.91799378 0.86389595 0.16705656
1.04184592 0.78278863 0.01393379
0.07905220 -0.26544416 -1.02713466
0.92818689 0.51898235 -0.20765153
1.02302802 -0.92187887 -0.05680545
0.61641705 -0.97884047 0.33675948
0.39515361 -0.29305214 -0.91622996
0.58959544 -0.91532159 0.75683558
-1.00384438 0.45462903 -0.28366151
0.93956053 0.80480373 -0.32292774
1.00760758 -0.69821084 -0.13985300
0.40761057 -0.35486391 0.98234880
1.05949903 -0.12746042 -0.07373152
-0.63370848 1.00247395 0.50749993
0.23152137 -1.05190289 -0.75996006
0.48317218 0.24604334 -0.93874049
-0.55860484 1.03200221 0.66190577
0.00943707 -0.86378783 -0.98858726
0.55976737 -0.70008475 0.77430856
0.72606540 1.05814600 0.00128211
0.62526309 -0.58872968 -0.76475978
0.75704479 0.19850633 -0.75949478
0.54811716 1.06962764 0.35929391
0.27392295 -1.04753280 -0.39227098
0.56072438 0.17520219 0.85011542
-0.98060393 0.80464864 0.10675671
-0.25146088 -0.64333838 -0.95463097
0.99781299 0.93713498 -0.21011594
0.12063248 -0.06098452 0.97075558
-0.15725814 1.07543111 0.13867509
-0.13746169 -1.01110876 -0.00094636
0.48858958 0.94645303 -0.24352375
-0.59656477 -0.47213650 0.85564137
0.55052412 -0.66001552 -0.88843048
-0.04391838 1.03218246 -0.26325369
-0.36438745 -0.75986689 0.96576977
-0.51208878 -0.91693419 -0.49169856
0.10870388 1.05966890 0.27024674
-0.78228188 0.67798519 -0.71178710
-0.26409748 0.95562333 -0.77360177
0.58997810 0.51218629 0.81554294
-0.50132561 0.50261217 -0.88340247
0.13418680 -1.06397474 -0.39455995
0.85305786 -0.62649870 -0.58611906
0.91388869 -0.55079687 0.09609424
0.63253534 -0.49633801 -0.71221995
-0.62422979 0.22277281 -0.72112632
-0.60210562 -1.01518416 -0.66112673
-0.97656047 -0.53170538 0.00950864
0.99386680 -0.56481397 0.29670197
-0.07085581 -0.43177959 1.07376587
0.54505169 1.01547575 0.77452075
-0.15429626 1.02342904 0.67982209
-0.64435232 -0.51134747 0.74251783
0.21911630 1.06816626 0.63133073
-0.08942024 -0.91484630 -1.02313340
-0.95757711 0.98779511 -0.40357855
-0.34154999 0.96173859 0.13336395
0.76358497 -0.71486872 -0.65310717
-0.38595751 0.94894409 0.02335943
0.96643126 0.07462979 0.08619805
-0.45375961 -0.29658917 0.85658646
0.94948161 0.17344327 -0.43662581
-0.28863111 -0.00956128 -0.92115736
0.47243303 -0.23505718 -0.89737332
-0.69084191 1.05784273 -0.14895996
0.86855900 -0.31197637 0.43895173
-0.35778925 0.39011887 -0.93594241
-0.13412151 1.03385615 -0.40693128
-0.81454885 -0.04756312 0.61409390
-0.97677326 -0.44885316 -0.03179853
-0.57901680 0.97682887 0.63694608
0.06105526 0.13278586 -0.99731183
0.85304630 -0.33746803 0.39367685
-0.97284126 0.85170984 -0.28141594
0.42413685 -1.02064323 0.27591443
-0.46360528 0.53616583 -0.76713014
0.40616888 0.34855258 0.88890326
0.95321083 -0.55698860 -0.27839580
-0.36292517 -0.89993954 0.71161723
-0.89329112 -0.23014696 -0.67577493
-0.07703432 0.97846836 -0.70117819
-0.98805296 0.62973535 0.20134676
-0.57739615 1.01372623 -0.16108000
-1.01885700 0.11453626 0.03928964
0.28396469 1.02306223 -0.53165233
0.83435476 1.01422572 -0.55655694
0.89185119 0.95154279 -0.53064680
0.89175975 -0.86167258 -0.44670081
0.81706607 -0.25741580 -0.48755816
0.51087618 0.99194551 0.37404406
-0.45156845 0.28102803 0.86884403
0.21899135 0.92249948 0.53512776
-0.32357091 -1.06873953 0.09186109
0.79219782 -0.26231042 0.73456180
-0.43194589 -0.99391216 0.60501921
-1.04347730 -0.63580155 -0.14645363
-0.53470826 0.97916764 -0.42778879
0.87948918 -0.79241639 0.11341819
-0.37297845 -0.97225690 -0.78325438
-0.26043236 0.92349046 -0.86602902
-0.97892630 0.31236607 0.05132993
-0.57601035 -0.54162443 -0.83351398
0.03925001 -0.94298393 -0.41624472
0.21473755 -1.02585626 -0.53028917
0.46946290 0.18572703 -0.89042425
