-0.06646554 0.17699698 -0.00347649
-0.02421176 0.16858259 -0.04019856
0.06604214 0.05465874 -0.01758141
-0.02831233 0.09030062 -0.03722409
-0.06533826 0.15116806 -0.01643361
-0.07006230 0.13844530 -0.01953350
-0.02797677 0.12273493 -0.01734300
0.01768680 0.12797993 -0.03822763
0.09480039 0.13567899 -0.00990688
-0.05875391 0.15286672 -0.02314417
-0.06720917 0.05582582 0.02793305
-0.03269287 0.19256242 -0.02315653
0.04909414 0.06387280 -0.02030496
0.05031207 0.07844500 -0.03248163
-0.05056200 0.08563019 0.02875962
-0.06980190 0.05530014 -0.01060099
0.01781087 0.05932281 -0.03757815
-0.03109183 0.17570752 -0.01853131
0.03967259 0.05910717 0.00585641
0.05051423 0.09735230 -0.00608341
0.06718796 0.11954256 -0.00761459
0.06650414 0.08836959 0.01188055
-0.06764480 0.05488593 0.01417794
-0.08385703 0.08974508 -0.01494300
-0.05646364 0.08464719 0.02068968
-0.06741281 0.15032727 -0.02331708
0.05379771 0.07701519 0.01724927
-0.01721395 0.10175721 -0.00290214
-0.04614243 0.09853989 -0.01067126
-0.04256205 0.17625155 -0.01914242
0.09628364 0.13343748 -0.00822959
-0.00159909 0.19277701 -0.01656500
-0.00995579 0.10871248 0.00538105
-0.06511488 0.07518090 -0.02097884
0.04058753 0.05331384 -0.00618781
-0.07007273 0.11175518 -0.01769322
0.03767924 0.12583517 0.00456601
-0.04744467 0.09339353 0.00248730
0.03864263 0.09817909 0.01397823
-0.01835853 0.08559420 -0.03644800
-0.01577079 0.07549138 0.01511872
0.04474337 0.10091047 -0.00826620
-0.03506441 0.09556771 -0.01830577
-0.02049400 0.05035283 0.02721827
0.05822002 0.14550450 -0.02061978
0.03706481 0.11023836 -0.00023125
0.06031640 0.07066225 0.00090486
0.05381167 0.07550835 -0.01870670
-0.03370919 0.08821562 0.01037699
-0.07875845 0.06346865 0.00052138
-0.03723973 0.08199101 -0.03076272
-0.03934732 0.18473123 -0.01588878
0.01271543 0.08102462 -0.01793452
-0.05401066 0.13633388 -0.02869355
0.03711788 0.15180394 -0.02651483
-0.01713600 0.17608434 -0.00657099
0.04728788 0.07634208 0.02743707
-0.07936865 0.07085286 -0.04278988
0.04279562 0.08227015 -0.01279172
0.03716646 0.10697978 0.00209975
0.03605090 0.15254222 -0.02849927
0.06677979 0.12102135 -0.00472572
-0.05201000 0.08736861 0.01569363
-0.03139231 0.06444249 0.02070660
0.02901506 0.09273222 -0.03851882
0.02856613 0.15450272 -0.00932496
0.04537323 0.05839748 -0.04211786
0.06241646 0.11310588 -0.02399037
-0.00737208 0.13354120 0.00256217
-0.00961263 0.07427976 -0.02160996
-0.09751988 0.14831522 0.00953456
0.02944135 0.05307469 -0.00039554
-0.06192784 0.09381945 -0.01100967
0.01202860 0.06669502 -0.01285688
-0.08078644 0.10536461 -0.01968129
-0.04635156 0.09298271 0.00635509
0.04986868 0.09677276 0.01620903
-0.07607885 0.16964927 -0.01332705
0.05965677 0.11564164 -0.02311862
0.04727230 0.09672175 0.02702762
-0.04041441 0.18266167 -0.03278033
-0.07425389 0.10686185 0.00782226
0.05263904 0.08630249 -0.01672214
0.00449813 0.09206495 -0.01927874
-0.06395478 0.13901296 0.01045294
-0.09522314 0.14553086 0.00859195
0.04131175 0.09815567 0.02961941
-0.01467634 0.11468486 -0.02534838
-0.07817129 0.16829973 -0.01666732
0.03127581 0.05426687 0.01843862
-0.07200126 0.09647243 0.00660039
0.01854405 0.15084881 -0.00507640
0.04829671 0.09410697 -0.02654064
-0.04114385 0.09743704 -0.01167271
-0.02327026 0.10500248 -0.00533480
-0.00926410 0.12566839 -0.03100786
-0.07029489 0.05703165 -0.02437694
-0.07676967 0.16759516 -0.01853037
0.03746406 0.09542554 0.01171786
0.04178781 0.05919165 -0.03273574
-0.02389206 0.05049535 0.02284721
-0.08289786 0.09539731 -0.01589638
-0.03398822 0.09411351 -0.01881454
0.04418755 0.07631426 0.00257100
0.04486990 0.07895157 -0.02239866
0.04513748 0.14431112 -0.02990200
-0.03226210 0.06604064 0.02272515
-0.05040156 0.14954086 -0.02755429
0.04807301 0.10656568 0.02139793
-0.09554840 0.16751279 -0.00952036
0.01960471 0.09682274 -0.02814825
-0.01569102 0.18374357 -0.02133624
-0.04180301 0.05255756 -0.03995561
-0.05915167 0.09037049 0.01191345
0.08030289 0.10966970 0.00574590
-0.06169080 0.05836408 -0.01009796
-0.02361381 0.15558361 -0.01400524
-0.09266127 0.17282733 0.00990512
-0.03824084 0.15869769 -0.03303093
0.02221275 0.09139454 -0.01806155
0.03263491 0.07314216 -0.04191020
-0.03919578 0.19782194 -0.02193238
-0.04231342 0.11030439 -0.02166856
-0.03431024 0.15903114 -0.00384539
-0.06910010 0.17262028 0.01670568
-0.04960810 0.13800624 -0.02207814
-0.10195462 0.16562414 -0.00698715
-0.03336284 0.12255137 -0.01187266
-0.09999481 0.15370640 0.01201380
0.04667668 0.15969929 -0.01614148
0.02043047 0.06199059 -0.02407309
-0.04687672 0.06680948 -0.04011415
-0.04154588 0.06214458 -0.04008232
-0.05610283 0.17977948 -0.02739143
-0.05059377 0.14028275 -0.03471058
0.03809419 0.07478736 0.02716768
0.03436951 0.05304365 0.00835290
-0.01068602 0.05354199 -0.01499504
-0.07251130 0.06837977 0.01019130
-0.08822699 0.13881202 -0.00508899
0.03475369 0.10473666 0.02246803
-0.06187793 0.05727484 -0.01786771
-0.06313834 0.05515668 -0.02228947
-0.07361697 0.12059841 -0.00634556
-0.01828177 0.13153540 -0.01087584
0.07223835 0.12995093 -0.01044723
0.00050849 0.14803979 -0.01742081
0.02309363 0.09052563 0.01826016
-0.00691964 0.08339100 0.00577545
0.05405487 0.05381422 0.00958147
-0.01817378 0.14630452 -0.02275459
-0.07920804 0.05880839 -0.02483420
-0.02938176 0.17012167 -0.04588114
-0.01873109 0.12567359 -0.01270230
-0.09043858 0.08210240 -0.00438965
0.03809123 0.11041670 0.01481841
-0.01857249 0.12119436 -0.02226273
0.00976699 0.10478380 0.00059310
0.06353291 0.11049030 -0.02437124
0.03111151 0.09088017 -0.03215380
0.01237077 0.06616254 0.00663591
-0.06052209 0.05628472 0.00478584
-0.04200039 0.05856407 -0.01826553
0.06703329 0.05107971 -0.00030444
0.04305528 0.10616872 0.02048630
0.03051784 0.05338648 -0.01827688
-0.01670690 0.09999192 -0.02766850
0.03350162 0.07247306 -0.04826211
-0.07664315 0.07428807 -0.02004156
-0.03363854 0.05942895 -0.03191101
0.04915348 0.15424691 -0.02838086
0.03217779 0.07235987 0.01520518
0.05717089 0.12795748 -0.00280484
-0.02953937 0.07569916 0.02435748
-0.06633545 0.14580551 0.00923120
-0.06843676 0.15358065 0.00368477
0.02536084 0.10467848 -0.00788508
-0.04795535 0.10618962 -0.01590643
0.10145213 0.14335138 -0.00851567
-0.06422336 0.13792275 -0.01368167
0.03987184 0.08622070 0.01835117
-0.03155912 0.16000375 -0.02769384
-0.05477012 0.18027548 0.00451562
-0.08157533 0.06658047 -0.00535924
-0.07312074 0.12018871 0.00746701
-0.02090451 0.05797992 -0.03257392
-0.06206250 0.10433713 0.01278224
-0.05954821 0.13832822 -0.00627621
0.00570487 0.08950482 -0.01569230
0.03910047 0.08615565 -0.03255934
0.02467652 0.05136424 -0.01913783
-0.07561765 0.06010602 -0.02642123
-0.06294704 0.17115685 -0.00511172
0.07447670 0.11953424 -0.02097832
-0.04586310 0.09263720 0.02114598
-0.10383552 0.13985872 -0.00752321
0.04058111 0.06239272 -0.02986571
-0.02986243 0.08662102 -0.03167371
0.07755898 0.10886559 -0.00037285
-0.04370258 0.10994500 -0.01725781
-0.00652185 0.07145251 -0.00942178
0.03672883 0.08863537 0.01113651
0.04166086 0.06003398 -0.02239057
-0.03206702 0.05035328 -0.01444456
0.01146458 0.11615369 -0.01952226
-0.05130085 0.10056144 0.00647759
-0.02812133 0.10525987 -0.02084350
-0.02512749 0.04786730 0.00666383
-0.02141409 0.05061152 -0.02169578
-0.07785590 0.06463907 -0.02670820
0.03685164 0.08534600 0.00621370
-0.06400654 0.18382005 -0.01117627
0.00594263 0.11545766 -0.02395812
0.03241666 0.11006510 -0.02049568
-0.07194553 0.14152102 -0.00008517
-0.02725544 0.05320258 0.00867423
0.03382198 0.14304367 0.00093465
0.03824554 0.06024398 -0.01479508
0.03983152 0.11411443 0.01440118
0.04241852 0.15530196 -0.01456487
-0.02382044 0.05496496 -0.01681641
-0.07099333 0.15480997 -0.00149653
-0.01393352 0.11906027 -0.00472370
0.05603066 0.06537880 0.03100551
0.03135460 0.08978470 0.02964635
-0.07824700 0.06244957 0.00748498
-0.08118052 0.07512602 0.01411857
-0.05740532 0.09877917 -0.01706351
-0.02214760 0.08074846 -0.03178250
-0.04344842 0.06416249 0.01577405
0.03897266 0.05099829 0.00881135
-0.02363463 0.13227645 -0.02017835
-0.04132594 0.04577001 -0.01423721
0.03494742 0.05927509 -0.02594552
0.03122211 0.07902981 -0.03534794
-0.08600733 0.14492828 0.02037895
-0.00614476 0.14750497 -0.01285039
-0.09863891 0.17485476 -0.00799213
0.02184423 0.12483273 -0.01164812
-0.01631852 0.14998883 -0.01114622
-0.10168681 0.15594411 0.00707868
0.07634074 0.10387652 -0.00660927
-0.01055178 0.07112019 0.01982156
-0.06146087 0.05390113 0.00520181
-0.05578401 0.17703873 -0.02333765
-0.04031256 0.18245158 0.00300636
0.03127780 0.06672095 0.02209742
0.05219119 0.14418270 -0.01070157
0.05597055 0.10534783 -0.03209029
-0.04851829 0.13827036 0.00296781
0.04326508 0.08037834 0.01531985
0.02448644 0.14144459 -0.03908483
-0.05405468 0.15655380 -0.00495311
-0.01875656 0.11946256 -0.02755543
0.07872269 0.06994560 0.01081883
0.04332642 0.10330666 -0.04042227
-0.08752087 0.14278555 -0.00560489
-0.02695902 0.09974214 0.00392873
0.05512952 0.14571868 -0.02526247
-0.07603368 0.16893260 -0.00736377
0.06383326 0.11777752 -0.02306670
-0.03924086 0.10886026 -0.00328500
0.04472604 0.05241285 -0.01083480
-0.01621212 0.11866990 -0.02413048
-0.07056729 0.08625729 -0.03570222
-0.03417733 0.09678037 -0.01620985
0.01108542 0.11262978 -0.01388460
-0.01565016 0.08647079 0.01174982
-0.06757636 0.14631979 -0.01051077
-0.08282440 0.17788179 0.01460396
0.03891564 0.10195027 0.02629925
-0.07257445 0.14545462 -0.01037863
0.06234222 0.09695875 0.00381156
-0.08142623 0.05860835 -0.01447103
-0.02634787 0.09831026 0.00505969
-0.06425835 0.07617578 0.03522214
0.03732289 0.07777473 0.01951967
0.00782924 0.16212517 -0.01733720
-0.05641171 0.05627375 -0.02455381
0.02214785 0.06795965 -0.04773170
0.06500472 0.08057015 0.00390927
-0.06001072 0.14748578 0.01157793
-0.08272845 0.18005037 -0.00604276
0.05084030 0.15314579 -0.01423451
-0.01020516 0.18668300 -0.02080758
0.02770029 0.05129386 0.00551939
0.03489867 0.12003078 0.00504462
-0.08482775 0.15263021 -0.01508859
-0.07565628 0.14863610 -0.00815227
0.01222985 0.06164385 0.00424383
0.01520385 0.07319298 -0.02091557
-0.01652752 0.16049111 -0.00852448
0.04920276 0.06302415 0.02585383
-0.02328830 0.05045069 0.01957235
-0.02104995 0.12747103 -0.01935768
-0.07373916 0.08576517 0.01851645
0.07850453 0.09960440 0.01766483
0.05173671 0.14609821 -0.01551498
0.00608754 0.09615506 -0.00773151
0.08111580 0.09999351 -0.00569573
-0.02800196 0.13894022 -0.00274899
0.02019958 0.14073604 -0.00267124
0.04044122 0.05327388 -0.01619507
-0.04867307 0.09884220 -0.01380299
-0.04466160 0.14828247 0.00130649
-0.05535776 0.05606586 0.00581774
0.03943850 0.06748812 -0.03339447
-0.04859656 0.16374961 0.00101026
-0.05904512 0.18277034 -0.00874060
-0.02695037 0.17178974 -0.03927129
-0.08934249 0.05796472 -0.02046106
-0.01980999 0.12112334 -0.01965549
-0.04551674 0.06495383 0.02820532
0.05743434 0.05508158 -0.01950807
0.03167941 0.05851096 -0.02063069
-0.06595787 0.06064498 -0.02275564
-0.08886186 0.10063811 -0.00345466
0.03717453 0.13561358 0.00186769
-0.02064698 0.08687459 0.01308811
-0.02391778 0.09461614 0.00642098
0.07790761 0.07608502 0.02191644
0.07083605 0.13172691 -0.02258461
-0.06640667 0.05581337 0.02292822
0.02409810 0.06083781 0.02430561
0.06254854 0.06326069 0.02075526
-0.07555149 0.10522270 0.00064860
-0.02924937 0.14680937 -0.03169114
-0.03288569 0.17511016 -0.02065881
0.04112321 0.15320225 -0.02483333
0.03139736 0.13649234 -0.00357290
0.06707369 0.13094585 -0.02044484
0.03605777 0.09227361 -0.00653396
0.06009122 0.11603666 -0.01375334
-0.07293402 0.12832484 -0.00411675
0.02192990 0.07693601 -0.04329804
0.06955676 0.06566501 0.01510645
-0.07623081 0.06859601 -0.02434528
0.04449987 0.08386512 0.02314393
-0.06187411 0.15261778 -0.03670270
-0.09601287 0.16327855 -0.00504480
0.02263024 0.08428270 -0.00258918
0.00781053 0.09619911 -0.01299264
-0.05871427 0.14611888 0.01131794
0.05420223 0.12241538 -0.03499609
-0.00457317 0.06791699 -0.01284565
0.02276959 0.14523932 -0.03026413
-0.09456286 0.15065193 0.01114433
-0.02005046 0.16292304 -0.00391268
-0.02916624 0.16205676 -0.03721277
-0.00092122 0.11794659 0.00114728
-0.05201796 0.10216580 0.00347245
-0.04587346 0.11063260 -0.00007309
-0.06652705 0.11983217 -0.00249054
0.01440341 0.11801094 -0.00799822
-0.09039187 0.05715182 -0.02323847
-0.02322528 0.09527814 -0.03038934
-0.08452074 0.16885343 0.00509196
0.01918170 0.14470740 -0.00489668
-0.06260878 0.09884694 0.01322907
-0.08666124 0.14237082 0.00730058
-0.05722236 0.09244474 0.01239941
-0.07708834 0.05531453 -0.03249257
-0.03777227 0.17813067 -0.00916886
-0.07269433 0.06066945 -0.01778301
0.03609281 0.12833405 -0.03533668
0.06099297 0.12794647 -0.01758134
-0.06763199 0.12957084 -0.00255158
0.08174682 0.09488827 0.01003712
-0.04055348 0.13080846 -0.02622992
-0.00900208 0.11476922 -0.03053311
0.02555693 0.08594702 0.01258067
-0.00254811 0.13982205 -0.01808864
-0.03549110 0.05937169 0.00770338
-0.06247056 0.06686833 0.01031590
0.03628800 0.11715139 -0.02756625
0.00321060 0.09974295 -0.01299727
0.00698047 0.11647927 -0.00730753
-0.04913745 0.13964950 -0.00802730
-0.02724950 0.18694188 -0.02624360
-0.08201140 0.17017347 0.01420693
0.02838386 0.08637992 0.00935273
-0.05975555 0.09916718 -0.02962644
-0.01527296 0.05660703 0.00897027
0.02992943 0.10848922 -0.03311051
0.04688212 0.08498903 0.01498843
0.06453222 0.12022263 -0.01988047
0.03352923 0.09539355 0.01855253
0.01630240 0.15565051 -0.00989313
-0.06967389 0.12495785 0.00555157
0.04403894 0.06239614 -0.02663695
-0.07155884 0.12412063 -0.00822219
-0.08590294 0.10470405 -0.00331888
-0.09487620 0.14265716 0.02306108
0.02954616 0.14989370 -0.00706056
-0.02163630 0.14840139 -0.02090875
-0.04247016 0.18308327 -0.02374345
-0.04307299 0.15389432 0.01172467
0.04811293 0.08659177 -0.00736688
-0.03378066 0.07046722 0.01559045
-0.01310907 0.13993192 -0.01514361
0.00939667 0.10215404 -0.02005328
-0.07596010 0.10911670 0.00681433
0.06765684 0.05979635 -0.01610839
-0.06228219 0.17178240 0.00093489
0.02997638 0.06965993 0.01827805
-0.02782604 0.10508700 -0.00587405
0.01699740 0.07192876 -0.02973168
0.01441266 0.13759610 -0.00313919
-0.06127258 0.08809833 0.01620620
0.04102152 0.07186200 0.02147006
0.02797659 0.08755566 -0.00023709
-0.04644951 0.17844741 -0.03140205
0.02425985 0.10147009 -0.02605539
0.03412224 0.07012519 -0.03406718
-0.05998091 0.09623446 -0.01941096
-0.05929312 0.10416338 -0.02389232
0.03404974 0.09070162 -0.00179181
0.00667639 0.11117326 -0.00613657
-0.00740311 0.06438951 0.01643492
0.01271905 0.11951265 -0.02845043
-0.01236659 0.07128792 -0.03033589
-0.03095138 0.18866038 -0.01899446
-0.04219446 0.18431020 -0.04115624
-0.06816448 0.06626491 0.03392746
-0.04355964 0.08824483 0.00990910
0.04555755 0.07348303 -0.00296368
-0.02536336 0.10494073 -0.00338343
0.00106498 0.08617727 -0.03404053
-0.04873281 0.04951482 -0.01576837
-0.04692158 0.09408012 -0.01108655
0.05616971 0.13449538 -0.01428494
0.02214089 0.06124224 0.01987885
-0.04104003 0.15094401 -0.03357674
-0.06140097 0.15268555 -0.02651305
0.04573120 0.05602130 0.00390147
-0.02201755 0.14706099 -0.00225129
0.07707858 0.10617702 -0.01222348
-0.08823867 0.17797445 0.01461319
0.03061638 0.08029608 0.01995523
-0.01652279 0.08364499 0.00852263
0.07207379 0.06510308 0.00580158
0.04269373 0.08003424 0.00208622
0.07799844 0.10890612 0.00033244
-0.08256120 0.14884734 -0.01114634
-0.04448184 0.05797561 -0.04226465
-0.02674273 0.10230457 -0.01940704
-0.02276812 0.06955805 -0.04018428
0.08098452 0.14106974 -0.00850371
-0.02024637 0.07284684 -0.03054019
0.02502116 0.06731392 -0.03997814
-0.05046471 0.13179414 -0.00738937
0.03855031 0.06072343 0.02148578
-0.04502842 0.05158538 0.03623814
-0.07969873 0.07142173 -0.02671163
-0.07871272 0.09987198 0.00942684
0.05091520 0.05563655 0.01907183
0.09525494 0.13729064 -0.00798636
-0.03159931 0.17465992 -0.00685766
0.01941159 0.07126236 -0.03090755
0.00972753 0.14864628 -0.00892485
-0.00103414 0.12954843 -0.03169408
-0.04614677 0.11142558 -0.02321615
-0.05374723 0.16608889 -0.03183577
-0.02825790 0.06385922 0.02213004
0.01883319 0.15285781 -0.02821987
0.00107457 0.11561348 -0.03949185
-0.00373676 0.09243360 0.00021932
0.01874613 0.06461817 -0.02499142
0.02584758 0.05530456 0.00022005
-0.03963009 0.19782093 -0.02205131
-0.04180576 0.09104541 0.00987913
-0.03767447 0.14399992 0.00478976
-0.03297730 0.04815486 -0.01518128
0.05562190 0.06936245 -0.00014282
-0.07396923 0.15060157 -0.01895621
-0.00760872 0.14108564 -0.00658044
0.04262432 0.07255500 0.00597522
0.02263631 0.06027989 0.00280979
-0.04305317 0.10911319 0.00508093
-0.05418505 0.06503112 0.03407435
-0.02272307 0.05583676 0.01054657
-0.05241957 0.16452733 -0.02824580
-0.02537238 0.05212773 0.02491101
0.06342031 0.07797936 0.01582462
-0.02155869 0.07758486 -0.02921321
-0.01157220 0.06630062 0.02088365
-0.06575204 0.17730968 -0.00526472
-0.07615034 0.15243386 -0.00748012
-0.04287622 0.15883623 -0.03360592
-0.08455370 0.07068929 -0.02875622
-0.06658363 0.16770443 -0.01717062
-0.04014392 0.15978222 0.00232906
0.01201434 0.11148710 -0.03403332
0.02519885 0.05620530 -0.01884499
0.04860988 0.08495831 -0.00412422
0.05866200 0.05593275 -0.00109199
-0.03666374 0.08192141 0.01885467
-0.02837563 0.17441623 -0.00634572
0.02824877 0.09930122 -0.00697383
0.03373390 0.12816691 0.00073793
-0.03005566 0.07712703 -0.02855167
0.02160458 0.06200071 0.01447377
-0.03517202 0.12946963 -0.00414748
-0.09115802 0.15499897 0.01382938
0.06209025 0.15027225 -0.02222241
0.01516267 0.12515628 -0.03646683
0.03893427 0.05812050 0.01419472
-0.03247720 0.04964453 -0.02895760
-0.04958181 0.12491066 -0.02406158
-0.04236354 0.06792866 -0.03666059
0.00881841 0.13869599 -0.00331498
0.00244294 0.09003040 -0.00220083
0.01529629 0.05969074 0.01204477
-0.06502244 0.18269747 -0.01176025
-0.03283416 0.18299976 -0.01749296
0.05422745 0.07439330 0.02488136
-0.05419181 0.17811552 -0.03126288
-0.05796952 0.05441044 0.02594804
0.01363905 0.08728543 -0.00811050
-0.08710719 0.17048603 0.00534782
-0.00628155 0.06353930 -0.00211095
0.07033375 0.08480459 0.01497355
-0.02266130 0.07991154 -0.04186516
-0.01520937 0.10447713 -0.02513696
-0.02389598 0.09548276 0.00974742
0.02336092 0.06362461 -0.02397635
-0.06768237 0.09612593 0.01533589
0.04941472 0.07537521 -0.03161114
-0.01225304 0.15291610 -0.01109690
0.02750961 0.10538384 -0.01168004
0.05699492 0.13109781 -0.01196187
-0.02694377 0.05341793 -0.02930482
-0.00904642 0.07046387 -0.01655259
0.04467220 0.07163385 -0.00364187
-0.07932578 0.17642567 0.00047187
-0.08158430 0.16711825 -0.00288065
0.04557704 0.15002760 -0.02654607
-0.04408226 0.19235255 -0.01661796
-0.05550714 0.14259288 -0.01701709
-0.02982059 0.16851738 -0.03601746
-0.05325570 0.09636445 -0.01073883
-0.06857083 0.14513028 0.00393941
-0.00151170 0.13668935 -0.01014790
0.08869033 0.14620987 -0.01447705
-0.08008631 0.15134823 -0.01183047
0.05289061 0.10769777 -0.03346743
-0.02233464 0.08777586 -0.03113634
-0.04127049 0.12289161 -0.03114497
-0.01740215 0.05428377 0.02060334
0.04685401 0.05347624 -0.02347441
-0.01021446 0.12440493 -0.02519078
-0.08422706 0.09157158 -0.00596822
-0.05439717 0.05709673 -0.01973207
0.07225957 0.08777348 0.02411358
-0.08119213 0.06083611 0.00198942
0.07991326 0.13269182 -0.01966177
-0.01216970 0.18277754 -0.02812558
-0.07492924 0.11132199 0.00513354
0.04517884 0.09664508 0.01081898
-0.04142274 0.09220520 0.01736356
0.03492003 0.08668305 -0.03400940
0.05120947 0.09985953 -0.00604055
-0.00712803 0.13403480 -0.01936663
-0.06831490 0.15663865 0.00042569
-0.02699268 0.09633262 -0.01865688
0.01622101 0.06141791 0.00989687
0.06761163 0.11993358 -0.00224918
0.01352448 0.09876852 -0.01826396
0.06681065 0.06954609 0.02267607
0.02210830 0.05777244 -0.02480702
-0.01307060 0.13480036 -0.01372823
-0.01928619 0.10164237 -0.02459124
0.01357806 0.09723328 -0.01552548
-0.01104282 0.06066291 0.00420093
-0.04053278 0.13701481 -0.03082890
0.05148236 0.06663835 -0.02675632
-0.01815082 0.12060629 -0.00654367
-0.05224758 0.18253943 -0.01177911
0.07869357 0.13044231 -0.01126424
0.07184204 0.06717432 0.00675154
0.03019037 0.07366392 -0.04256891
0.04062854 0.09786549 -0.00269937
0.01831049 0.13452193 -0.00265095
-0.02971852 0.18780202 0.00396005
-0.05488925 0.06128290 -0.01468270
0.00824011 0.06342065 0.02217839
-0.10039867 0.15546167 0.00131341
0.07168259 0.05303058 -0.00618803
0.01131894 0.12812947 -0.00282415
-0.03339989 0.07233199 0.03012464
-0.05494205 0.10966381 -0.02333468
0.06944059 0.07015666 -0.00678349
-0.07502622 0.06962411 -0.02889306
-0.07458262 0.10087568 0.00700861
0.01263420 0.13127080 -0.03038048
0.08742944 0.13506411 -0.01773529
-0.04689927 0.07814833 0.03113262
-0.02053899 0.16473380 -0.01463561
-0.08824210 0.16687244 0.01422743
-0.06636795 0.08618812 0.01170776
0.02469576 0.11339120 -0.02320874
-0.06320539 0.11046043 -0.02201556
-0.02251532 0.17721549 -0.02778264
0.04084542 0.10787316 -0.00555001
0.05301755 0.14265591 -0.03438896
-0.03416188 0.16291231 -0.04016227
-0.02893411 0.13902254 -0.01062327
0.05167795 0.09218839 -0.02248909
-0.04041826 0.17617469 -0.01130167
-0.07106565 0.06628821 -0.01396330
0.01932842 0.06317018 -0.00988474
-0.08177406 0.07948478 -0.01666638
-0.02130339 0.12124372 -0.01304968
0.02177300 0.06224020 0.00422374
-0.05540353 0.14675422 -0.01893677
-0.01359871 0.06272203 -0.02887863
-0.08271923 0.10228832 -0.00218985
-0.05120822 0.16446371 0.00764901
0.04919117 0.07108088 -0.04095414
-0.00590655 0.07339834 -0.03035557
0.02870240 0.08566607 -0.00239716
-0.02806831 0.07492398 0.01148919
0.04028146 0.06844196 -0.02511612
0.03190979 0.10334933 -0.00717289
-0.07403389 0.17617057 -0.00162761
0.05466757 0.06879295 -0.02364063
0.03106285 0.15203540 -0.00814910
-0.06952251 0.09115386 -0.02545352
0.08981042 0.13327013 -0.00807413
-0.02517990 0.14791746 -0.02534413
-0.05407764 0.15027118 -0.02811487
0.06695284 0.06228226 -0.00021253
0.07965212 0.09764806 0.00890575
-0.08182663 0.05842493 -0.02842898
-0.05350098 0.09290139 0.01914833
0.08503748 0.14033173 -0.01231726
-0.03148200 0.15142761 -0.00242046
0.00623064 0.08557245 -0.00559139
-0.01488373 0.15910725 -0.01590217
0.03487452 0.11055550 0.01047367
-0.03866543 0.05644877 0.01366199
-0.04944129 0.09455431 0.01796607
0.05903003 0.11614074 -0.00955805
-0.00333460 0.08762570 -0.02333509
0.06335192 0.11085793 -0.00960833
-0.04037730 0.06499906 0.02802721
-0.08179352 0.16542201 -0.00655356
-0.04091236 0.17201848 -0.03539587
-0.09054233 0.17689750 0.01199478
0.00633851 0.13476975 -0.03486822
-0.05434661 0.12489452 0.00513000
-0.07132395 0.14956926 0.00795546
0.07070987 0.06064822 -0.01205075
0.08376913 0.14002913 -0.00964336
-0.06766697 0.14434038 0.00563980
0.00017066 0.07554318 -0.01053029
-0.03715010 0.08054580 -0.02564498
-0.08391318 0.08686702 -0.01506470
0.07015263 0.12088247 -0.01658276
-0.06515829 0.04897863 0.00217521
-0.02231943 0.15341784 -0.00929490
-0.04577526 0.05589212 0.03302419
0.06293698 0.14154972 -0.01518621
-0.02377729 0.15744875 -0.02031085
-0.07213365 0.18226808 -0.00455509
0.05053210 0.09085840 0.02886277
-0.05580689 0.08847566 -0.03168894
-0.02105433 0.07027453 -0.02752888
0.02358887 0.14475606 -0.00201186
-0.01938452 0.15724853 -0.00453831
0.03112153 0.08863252 0.01411607
0.02242565 0.07887630 -0.03892007
-0.03154501 0.16835140 -0.00581518
0.01827482 0.15655506 -0.01952883
-0.01900614 0.16604888 -0.00787847
0.03662220 0.15462717 -0.01979739
0.02419966 0.05609493 0.01988899
-0.08284777 0.08045533 -0.01467287
-0.02653825 0.06140611 -0.03668633
-0.06565950 0.06490593 -0.02944240
0.02676189 0.05672063 -0.03919227
-0.02112214 0.10575136 -0.00646494
0.02840427 0.08508369 0.00170676
0.04882702 0.10487829 -0.02780016
0.01557628 0.12121859 -0.00670214
0.04692321 0.06992956 -0.02116921
-0.05839692 0.14888558 0.01479463
0.00753534 0.13847972 -0.02955609
-0.07286083 0.08990133 0.01313170
-0.00467041 0.09649725 0.00313948
0.05202485 0.14900829 -0.01153391
0.01132843 0.07528576 -0.02223448
-0.02365435 0.07269366 0.01654993
-0.05242104 0.09812541 -0.01684444
0.03577716 0.06750046 -0.00304065
0.01710549 0.08742847 -0.00506586
-0.03341019 0.05757679 -0.00544267
-0.04270346 0.10120714 -0.00859055
0.00201549 0.10757972 -0.00250152
0.03985095 0.07791136 -0.03745286
0.03921525 0.11483940 -0.03168519
0.01936780 0.16013275 -0.03218562
0.06768515 0.06480050 -0.00254176
0.03203658 0.06895232 -0.04289619
0.00227971 0.14077145 -0.00709875
-0.05167593 0.14782147 -0.00290326
0.07330455 0.13751239 -0.02129619
-0.06852855 0.15598080 -0.02898974
-0.06954440 0.08829548 -0.03279969
-0.00211037 0.10666192 0.00394153
0.03979358 0.11196321 0.01241598
0.06491713 0.10510575 0.00805151
-0.06306866 0.06250061 -0.01274138
-0.03458494 0.17623261 -0.01474994
-0.04410070 0.08519270 -0.02358641
0.06251816 0.08575174 0.02705135
0.08508738 0.13879532 -0.00644294
-0.03195015 0.05267905 -0.03009430
-0.02658142 0.10978157 -0.01442439
0.03167826 0.07336200 -0.04301141
0.07038485 0.12912472 -0.00366111
-0.10047019 0.16353451 0.01208880
-0.05275856 0.12943122 -0.02718199
0.07652207 0.12705502 -0.00935226
-0.07724972 0.11664551 0.00544442
-0.05181545 0.04884250 -0.04150951
-0.03326068 0.13982394 -0.03150228
-0.08729785 0.07770328 -0.00043720
-0.06283984 0.14105669 -0.01860828
-0.07023076 0.17579356 -0.00634684
-0.05132114 0.17617220 -0.03857102
-0.01421962 0.15481947 -0.01287251
-0.04087377 0.07393590 0.02603171
0.02733246 0.14844330 -0.00516994
-0.08564495 0.14231241 0.00696636
-0.04320661 0.08738483 -0.03106507
0.04696309 0.09957748 -0.00386762
-0.06155157 0.14183757 -0.01401339
0.03763171 0.09165299 0.03468327
-0.08004304 0.17275546 0.00170672
0.02619121 0.05907081 0.00110105
-0.01919473 0.12781049 -0.01641510
0.00911166 0.06205907 0.00274086
-0.05076249 0.18474460 -0.02973631
-0.03125855 0.15631735 -0.00512940
0.04535594 0.08832486 0.01809731
-0.08381798 0.08125716 0.00451146
0.05847894 0.05819101 0.01829569
0.03345621 0.10321400 -0.00421975
-0.01694541 0.10316877 -0.03458357
0.04595644 0.12272898 -0.00288060
0.03633355 0.08437543 0.01042325
-0.00070120 0.07732570 -0.01016483
0.05018722 0.07928873 -0.02461849
0.06395117 0.12835445 -0.01678913
0.01758980 0.08508554 0.00092151
0.08740336 0.13740906 -0.01143696
-0.02298241 0.07638121 0.01495218
0.03143727 0.06345853 0.01733219
-0.05171725 0.11786804 0.00224487
0.00716074 0.12990877 -0.00123546
0.04716880 0.07259394 -0.04411507
0.00904523 0.13318308 -0.03260479
0.04225318 0.09055166 -0.00538288
-0.01970308 0.13853329 -0.01069960
0.04550369 0.12512234 -0.03484812
0.04115449 0.08399230 -0.03620777
0.02269666 0.09643922 -0.02381218
-0.07269695 0.16818056 -0.00516016
0.03308855 0.11799940 0.00926269
-0.04465611 0.17835656 -0.01042068
-0.06480965 0.14277567 -0.01813485
-0.02427995 0.05927624 0.03142483
0.06294178 0.08838437 0.01024966
0.03001506 0.10872254 0.02182204
0.03758592 0.11049755 0.00902322
-0.01543593 0.11047526 -0.00077985
0.06207898 0.13672346 -0.01053483
-0.08875318 0.09192769 0.00096147
0.03887922 0.09886569 0.02436180
-0.09051494 0.14323413 -0.00406652
0.04573862 0.05654170 0.01323381
-0.08798791 0.16070232 -0.01353035
0.00035581 0.09047229 0.00454739
-0.07407492 0.05674873 -0.03144238
-0.05898467 0.14424631 -0.01979361
0.01056486 0.14925161 -0.02015008
-0.03046440 0.05502114 0.02379049
0.04391297 0.11640702 0.00827225
-0.04492478 0.18289194 0.00013352
0.00509381 0.10281119 -0.01516732
0.04088006 0.07081921 -0.04218825
-0.02918442 0.17121460 -0.01077959
-0.04593202 0.12781815 -0.02939393
-0.01522340 0.14788055 -0.01757983
-0.02650757 0.14341146 -0.03013644
0.03840317 0.07827919 0.01171843
-0.05602923 0.16195318 0.00809062
0.01685584 0.05202287 -0.01181264
0.03523300 0.08362755 -0.03664760
-0.04625522 0.06589445 0.02915513
-0.03254439 0.16901520 -0.04191435
-0.07009880 0.14624673 0.00858732
0.04694663 0.11920291 -0.04015239
0.05467819 0.07528473 0.01233135
0.07619018 0.10860546 0.00248076
-0.07672834 0.16678636 -0.01301787
0.02631158 0.10843042 -0.01688122
-0.00115004 0.14861695 -0.01940630
-0.00479009 0.11523040 0.00733102
0.07760452 0.14709403 -0.00660812
0.00733735 0.10695831 -0.01548681
0.02401123 0.06463094 0.02177051
-0.05522808 0.13442288 -0.02858696
0.00272526 0.14801003 -0.01395495
-0.05687703 0.10114824 0.01152074
0.06464566 0.13231713 -0.01358886
0.03768392 0.15515919 -0.00733039
0.04314562 0.05350559 -0.01767432
-0.01796765 0.11711011 -0.00903715
0.01567516 0.13325486 -0.00300136
0.04121405 0.05197949 0.01607333
-0.05225667 0.14079675 -0.02164806
0.01899947 0.10006012 -0.01268042
0.07163096 0.06953445 0.02022732
0.00982832 0.06168453 0.02010949
0.04123823 0.07494836 -0.03759664
-0.04921040 0.14466393 -0.00171604
-0.05139278 0.15945743 -0.00047800
-0.05032934 0.05348450 -0.00679140
-0.07605072 0.07812867 0.00599113
-0.03257660 0.18604624 -0.00140887
0.00698221 0.15399462 -0.02053947
-0.01493223 0.06327329 0.01423590
0.03432132 0.14589679 -0.02768863
0.07071223 0.10870042 -0.01399729
0.01708193 0.07851624 -0.02382942
0.06010537 0.12496584 -0.01845373
0.04607296 0.07817511 -0.01713939
-0.06576896 0.05588194 -0.02407741
-0.01214095 0.17646518 -0.00749681
-0.02022574 0.06925166 0.01532590
0.00098028 0.14283714 -0.02495385
0.05975206 0.06852271 -0.01745605
0.07650284 0.10535064 -0.01156607
0.01876582 0.05948141 -0.00995133
-0.06600076 0.07814936 -0.02603978
0.04727685 0.07972920 0.01665397
0.04447081 0.08628725 -0.00867688
-0.07415351 0.16652592 0.00089301
-0.05992146 0.13363823 -0.02085060
0.02939920 0.06148129 -0.04857053
0.06331507 0.06151348 0.01344482
-0.03178321 0.07533527 0.02173916
-0.09369408 0.16969553 -0.01184432
-0.03789907 0.16889541 -0.03789996
-0.06822787 0.14332375 0.01264002
-0.08782211 0.07728551 0.00527484
0.04710740 0.12211272 -0.00765041
-0.02354291 0.06392640 -0.02962808
-0.06506015 0.14324316 -0.00068574
0.05210308 0.06934482 -0.03225817
0.04113339 0.09647956 -0.00173683
-0.05510250 0.13045557 -0.01893513
0.02673043 0.15389127 -0.00819420
0.07909154 0.10302743 0.00843137
0.04603851 0.09745655 -0.03030733
0.07275122 0.11429238 0.00306184
0.06686030 0.05734356 0.01672826
-0.02513482 0.12381802 -0.01741789
0.00611274 0.10236841 -0.00028487
-0.09162922 0.06266609 -0.02279733
0.04709134 0.08852914 -0.01573651
0.04153464 0.12895359 -0.00049519
-0.06232429 0.14024797 -0.01027486
-0.05714325 0.15296783 -0.02372707
-0.03277917 0.14990203 0.00139061
0.03384190 0.09529186 0.01351313
0.06994884 0.07837269 -0.00307503
-0.01730222 0.07810874 0.01590543
0.04163268 0.05824219 -0.03782061
-0.02852777 0.09118974 -0.01847323
0.02898577 0.16033958 -0.01426583
-0.09341504 0.15421760 -0.00513451
-0.05762591 0.15089606 0.01191901
-0.00209141 0.15268931 -0.01908243
0.07742815 0.11163134 -0.00217468
-0.07020754 0.05389597 -0.00578215
-0.01911802 0.11384319 -0.00047560
0.07199117 0.13742776 -0.01455447
0.06327599 0.06765038 -0.00246076
-0.01986443 0.08975024 0.01435093
0.03955744 0.08587582 0.03175166
0.03991413 0.06118442 -0.04952169
-0.05840399 0.15618703 -0.01951887
0.01628090 0.05900305 -0.00258036
0.01929943 0.06232266 -0.00231453
0.08630163 0.12107803 -0.01438759
0.01853815 0.07297346 0.00333469
-0.07435448 0.14438343 -0.01679469
0.04326921 0.05591197 -0.01769784
0.03724238 0.06013595 -0.04209682
0.03414240 0.10141174 0.01769607
-0.02569051 0.07463525 -0.03748251
-0.04505397 0.12315401 -0.02310850
-0.02408094 0.05906381 -0.02484449
-0.05042118 0.09347658 0.01393339
0.05323136 0.07602043 -0.02307206
-0.01383346 0.05785325 -0.01442024
-0.01897551 0.15656510 -0.02254803
-0.03067088 0.04745445 -0.01022294
0.06934929 0.06266102 0.01651971
0.02656844 0.13703367 -0.03407000
-0.07587773 0.10633464 -0.00493900
0.02262071 0.08877307 -0.00438355
0.00025527 0.14880437 -0.01249414
0.03223526 0.06512880 0.01604551
0.00792997 0.12223136 -0.00227879
-0.02849931 0.08127483 0.01218328
-0.05921870 0.15104917 0.00261415
-0.05251876 0.15837012 0.00153903
-0.05119459 0.07875932 0.02227485
0.06613413 0.07971327 0.01723534
0.04114697 0.10671983 -0.00139241
-0.03821792 0.19127968 -0.02110383
-0.08987656 0.14310518 0.00235813
-0.03267336 0.17646378 -0.01278429
0.03413671 0.09807794 0.02405949
0.00498088 0.10460813 -0.01818911
-0.07875727 0.08408256 0.00855225
-0.06996299 0.18040591 -0.00572422
0.01583440 0.06106829 -0.01388881
-0.07572754 0.14969613 0.00230515
0.03299819 0.07962641 0.00526921
-0.04538282 0.18689352 -0.03765239
-0.06851063 0.17417571 0.00433399
-0.08223855 0.16418405 -0.01221409
-0.04701498 0.15091643 -0.03116435
-0.04931179 0.05310981 0.01780215
0.07796055 0.13375019 -0.01850509
-0.09866735 0.14219932 0.01379623
-0.06825909 0.10074270 0.01074743
0.02121052 0.14759894 -0.00665428
0.00722565 0.07331236 -0.01768455
-0.08564317 0.09340808 0.00534710
-0.04207342 0.13567840 -0.00273678
-0.01125601 0.13693272 -0.00907087
0.04114664 0.13348606 -0.03546846
0.05286013 0.13590604 -0.01548371
0.04482013 0.11865828 -0.03220557
-0.07283200 0.07539693 0.01524365
-0.04889796 0.14027527 -0.00073507
0.09055608 0.14231312 -0.01195080
-0.05114842 0.05255350 -0.03162154
0.02388003 0.15561624 -0.01301244
0.01171783 0.15434821 -0.02223058
-0.01826835 0.13390376 -0.00322102
0.06918910 0.05939219 0.00685199
0.03876395 0.11631463 -0.00284145
-0.07531700 0.08743718 -0.02978618
0.04483509 0.06434543 0.00042141
0.01258301 0.06869513 -0.00021318
-0.03151999 0.15357068 0.00089041
-0.03808296 0.13016279 -0.02763700
-0.08263544 0.17917012 -0.00032516
-0.09929462 0.18252291 0.00611975
0.01318897 0.06094292 0.00757166
-0.02785095 0.08586214 0.00936029
-0.08314329 0.15143852 -0.00729477
-0.04388235 0.07310577 -0.03614647
0.04612932 0.13670532 -0.00129087
0.06232891 0.08265501 0.00542414
-0.10609256 0.15477961 0.01191537
0.02006962 0.10356209 -0.02550809
0.04826272 0.12656724 -0.03033284
-0.07036602 0.05519551 0.02193525
-0.03799923 0.14981945 -0.03594559
-0.07392921 0.06779897 -0.01884420
0.03296810 0.15657474 -0.01135008
0.08751349 0.14235452 -0.01244114
0.03962930 0.12717697 -0.03648826
-0.02880698 0.06336715 -0.04070655
-0.06027786 0.12325673 -0.01978830
0.03629700 0.08767286 0.01516734
-0.01998544 0.15864265 -0.00644651
-0.04813324 0.15388902 -0.03444800
0.06717095 0.12615810 -0.02695836
0.07460833 0.09327509 0.01803643
0.03835231 0.13851899 -0.00358845
-0.02104513 0.06639300 -0.00128925
-0.06291661 0.17075588 0.00232590
-0.01493802 0.11386389 -0.00186580
0.03556085 0.11985602 -0.03305154
0.03913821 0.12600866 -0.00543423
-0.04659919 0.08180287 0.01721940
0.07133459 0.12582257 -0.01044243
-0.01971918 0.15732351 -0.02030394
-0.03498787 0.05652852 -0.02654123
-0.08937857 0.17782432 0.00797699
-0.07228906 0.14672638 -0.00312681
0.00724386 0.07612413 -0.02604175
0.02618722 0.05465077 0.02144531
-0.02064649 0.16614543 -0.02212296
0.04683897 0.08298011 -0.02216435
0.05342579 0.15445161 -0.01172522
0.04053478 0.07290874 0.01158352
-0.06446049 0.16827330 0.00257551
0.03235132 0.05697901 -0.01127851
-0.06699614 0.07922861 0.01648132
-0.02802411 0.06146004 -0.04187791
-0.01362595 0.08589591 0.00377146
0.05687705 0.12334999 -0.00264567
0.02517470 0.08547944 -0.00764576
-0.00400743 0.11001167 0.00483018
0.03601379 0.09227797 -0.03285163
-0.07963064 0.09164788 0.01720870
-0.00397417 0.06152884 -0.00772244
-0.10038472 0.14735593 -0.00615258
0.08191688 0.13670605 -0.01349768
-0.06670441 0.15484929 -0.00963729
-0.02950309 0.06050739 -0.02799616
0.04980167 0.13110493 -0.00689197
0.04017439 0.09496348 0.01060865
0.04840574 0.05856748 -0.00803118
-0.07503630 0.11454079 -0.00028097
-0.04066750 0.18416555 -0.03141221
-0.00805470 0.07239126 -0.00445886
-0.05398177 0.13822626 0.01106912
-0.04282362 0.09324928 -0.00327434
-0.03115323 0.07024086 -0.03544099
-0.00802184 0.13296722 -0.03083746
-0.04301452 0.11531414 -0.01509127
0.01713776 0.08047159 0.00800428
-0.02139836 0.07697472 0.01122823
-0.04034207 0.14375497 -0.02995119
0.02205220 0.11317478 -0.02205616
-0.06093416 0.10122260 -0.02398354
0.05418111 0.10755821 -0.02550532
-0.07252027 0.06061661 0.01006049
0.01527158 0.09410514 -0.01618096
0.04509631 0.07612050 -0.03028775
0.03992396 0.06729138 -0.04683836
-0.02667459 0.15459587 -0.03986614
0.02250029 0.09371138 0.01368728
-0.06859834 0.17868303 -0.02144108
-0.00435485 0.12311281 -0.03239791
0.05617439 0.10559468 -0.03721452
0.01092383 0.10639176 -0.02215112
0.04791581 0.08960775 0.01977104
0.03758925 0.07813472 -0.00272947
-0.02225577 0.09811112 -0.00528457
-0.02340988 0.10249319 0.00436582
0.04382451 0.13044456 -0.03517699
-0.08330932 0.07570478 -0.00364170
-0.04653734 0.05728320 0.00001152
0.05923872 0.08879906 0.01317389
0.04023347 0.11163287 0.01524663
0.03557198 0.06668961 -0.05099025
-0.02861497 0.09929744 0.00315216
-0.02395929 0.17014115 -0.01305110
-0.05778666 0.11924531 -0.02214562
0.00361447 0.12850249 -0.00210802
0.00807025 0.05390593 0.01988388
0.07328977 0.14237319 -0.01163633
-0.08656821 0.09150329 -0.00926171
-0.05222518 0.13641770 -0.02236483
-0.01827284 0.16300288 -0.00819474
0.00890880 0.06454588 0.02137336
0.04900208 0.15774825 -0.02039641
-0.01884706 0.14700547 -0.00921489
-0.05683740 0.06910175 -0.03534421
0.06170659 0.08960851 0.00292578
-0.04525881 0.04581838 -0.03177085
0.01688402 0.06069153 -0.00456944
-0.03714267 0.18931675 -0.00330323
-0.01139956 0.06810486 0.00688553
-0.03404496 0.11285841 -0.01398701
-0.01971080 0.05264815 -0.02852272
-0.02880343 0.06266649 0.02531247
-0.04901992 0.16516562 0.00023445
-0.03555466 0.14822128 -0.03465573
-0.02926417 0.17017114 -0.01549497
-0.03654731 0.17581390 -0.00073737
-0.02841092 0.05972891 -0.04063096
-0.05171095 0.13764794 -0.02232757
-0.02878168 0.17405523 -0.00458454
-0.08134499 0.14162920 0.00515120
0.03285119 0.10845326 -0.01087067
-0.01414268 0.16079368 -0.01148404
-0.06116392 0.18192142 0.00055910
0.04997566 0.05340004 0.01810193
-0.01978619 0.08042125 0.01315057
-0.03768165 0.17985921 -0.00230820
0.03304058 0.16397211 -0.02172231
0.03512585 0.07080559 -0.00476830
-0.06784084 0.09422476 0.01491266
-0.07820127 0.06814133 0.00756665
0.03114953 0.06549409 -0.04793141
0.01478915 0.13716944 -0.00476029
-0.00951219 0.12127514 -0.02539987
-0.06034332 0.05680326 -0.01170987
0.04104263 0.14121857 -0.02853153
-0.00028022 0.13046435 -0.03497028
-0.02848632 0.06589662 0.02452773
0.01342683 0.13121104 -0.00582493
-0.05403474 0.14815676 -0.02470425
-0.08353703 0.06481429 -0.03496756
-0.06864829 0.05252270 0.01730686
-0.06121106 0.06212702 -0.03470501
0.05879439 0.06856446 -0.02660347
-0.01657793 0.14708145 -0.02245485
0.02303997 0.12247144 -0.01421250
-0.05826522 0.14651448 -0.00062648
-0.01081190 0.05447357 0.01394998
-0.01996819 0.06922609 -0.02301537
0.01952239 0.08843072 -0.00596440
-0.07363056 0.05985593 -0.03456616
-0.03911668 0.19068313 -0.02360096
0.07747088 0.14485162 -0.01775870
0.03349690 0.12511359 -0.01124394
0.03051331 0.09433654 -0.03542934
-0.05412162 0.16924578 0.00456921
-0.05853081 0.05385244 0.01797935
0.04785348 0.08755843 -0.02478759
-0.07542490 0.07058909 -0.02973759
0.07371005 0.07437933 0.02600624
-0.05710883 0.06827180 -0.03267702
-0.05169728 0.12716740 0.00534703
0.07277468 0.10523465 -0.01372101
0.02381679 0.07479899 0.00232285
-0.08361976 0.14590207 -0.00859292
-0.03773412 0.15279230 -0.03587622
-0.06126262 0.05423279 0.01734763
-0.07167194 0.09417115 -0.02459458
0.02256558 0.08321445 -0.03192373
-0.04789282 0.07567398 0.03420492
0.01719391 0.15464494 -0.01010011
0.02973967 0.12844206 -0.01437832
0.02982787 0.16072379 -0.02525665
0.03441085 0.08339107 0.01704499
-0.02831466 0.08635290 -0.02823657
-0.05399951 0.11980037 -0.00164964
-0.07750741 0.09970216 0.01166209
0.06464437 0.08868790 -0.00517613
-0.08866725 0.14278997 0.02010041
0.06720107 0.06051170 -0.01465877
0.05104488 0.07795683 -0.02980679
0.04770500 0.15243919 -0.01665618
-0.04642627 0.18219462 -0.00268664
-0.07301926 0.16907126 -0.01336957
-0.06079923 0.10427874 0.00995657
0.05175588 0.05525532 0.01320634
-0.02012930 0.16737631 -0.00216967
-0.00343301 0.11488874 -0.00410859
0.02887722 0.10282234 0.00227914
-0.06073944 0.16969484 -0.02799118
-0.00796363 0.08611974 0.00063892
-0.08457912 0.14674623 0.00736602
-0.05400974 0.11055109 0.00348373
0.01450281 0.10082294 -0.02268689
0.03295869 0.05702343 0.01619944
-0.02267196 0.17305200 -0.01036257
-0.01422227 0.05988894 0.00820573
-0.04005069 0.12419207 -0.00292592
-0.00020053 0.12429404 -0.00257040
-0.02222611 0.05594084 0.02661360
0.02712433 0.12397402 -0.00732519
0.03318604 0.07733718 -0.03886138
-0.05466726 0.06137586 -0.03718837
-0.03580622 0.15299754 0.00410761
0.05080042 0.07231461 -0.01191452
0.03775989 0.10517469 -0.03421920
-0.06774135 0.15647702 -0.01197298
-0.00629090 0.12397710 -0.03648385
0.08417304 0.09149118 0.00505985
0.04954231 0.09601730 -0.02387670
-0.02234745 0.05230245 -0.01538093
0.03448430 0.15456443 -0.01738492
-0.00489603 0.14980364 -0.02680516
-0.03130134 0.08118720 0.00838978
0.01639611 0.07908203 -0.01763700
-0.01988891 0.05901810 -0.01654439
0.05658524 0.10451099 -0.01299175
-0.02070432 0.09444970 0.01011095
0.08931028 0.14557067 -0.01316952
-0.09505430 0.18332250 0.00442359
0.03369218 0.15835801 -0.02331061
-0.08080049 0.07434251 -0.01819905
-0.07382447 0.14513128 0.00883700
-0.00772126 0.08538596 0.00600151
-0.01867395 0.10880167 -0.01680491
0.07942218 0.10719922 0.01057582
0.01912548 0.13161370 -0.00305007
0.05015296 0.05237690 0.01330187
-0.03319126 0.05460830 0.01803864
0.02781945 0.10912480 -0.01000606
-0.05651750 0.05602743 0.01591586
-0.05515452 0.05584020 0.03365877
-0.02156584 0.15685706 -0.02663102
-0.03716111 0.08748538 0.01512079
0.04728534 0.06205270 0.02368836
0.01298425 0.10931528 -0.00543186
0.04123554 0.09545019 0.00932876
-0.03344183 0.06042561 0.01009015
-0.05671250 0.13223977 -0.02039772
0.00060177 0.09704117 -0.01679024
-0.01342400 0.07098598 -0.01150613
-0.05765030 0.05428026 0.03967588
0.07183267 0.11375378 0.00223941
0.02449847 0.08301518 0.00496311
-0.04234669 0.14098530 -0.03256787
-0.03661081 0.10864926 -0.02078120
0.07731850 0.10892546 -0.00425916
-0.01867371 0.13301210 -0.01866984
-0.04406329 0.13244241 -0.03201251
-0.01418261 0.05733603 0.02174853
-0.03415949 0.19085760 -0.01491060
-0.08939696 0.16870564 0.00313122
-0.07111140 0.05644901 0.00134104
0.06982897 0.08796023 0.01985591
0.01723893 0.07358707 -0.03885996
-0.03898370 0.14764792 -0.00150252
-0.08774514 0.16638614 -0.00762424
-0.01754111 0.06109801 0.02056840
-0.02216681 0.07855767 0.01072712
-0.05908967 0.08809505 -0.02418853
-0.03489695 0.14683901 -0.02870981
0.05135658 0.08305532 0.01704275
0.01423650 0.12081119 -0.02353265
0.05069271 0.14774185 -0.01446554
0.01207877 0.07611309 -0.01632495
-0.05845594 0.06148244 0.01182002
-0.00582869 0.08523275 -0.02450766
-0.02803123 0.11973634 -0.01201582
0.01718550 0.09781346 -0.01905956
-0.05209566 0.05850877 0.01583467
-0.05741037 0.05941032 0.00107500
-0.02861720 0.05259327 -0.04060905
0.00645354 0.14284797 -0.03331029
0.02635525 0.05333372 0.00816013
-0.03516748 0.06191510 -0.03788536
-0.06987201 0.15236498 -0.01924798
-0.04470239 0.16417861 0.00185549
-0.05640699 0.16115627 0.00972315
-0.07750552 0.11789657 0.00122470
0.00503984 0.05868870 0.01337033
-0.03072823 0.16634481 -0.04364131
-0.05636538 0.08844192 -0.03137884
0.04495679 0.13590650 -0.00021049
-0.07057785 0.06801981 -0.03634717
-0.07720076 0.17382386 -0.00916867
0.09396420 0.13771734 -0.00379736
-0.06717500 0.05962975 -0.01982827
-0.04288070 0.10426161 -0.01504581
0.06338469 0.05696358 -0.00116749
0.02242195 0.07256267 0.00131461
-0.01455164 0.13468032 -0.01547710
-0.06380750 0.07728897 -0.03806606
0.03462309 0.10469443 -0.03779449
-0.09022073 0.13363451 -0.01265006
-0.03598186 0.08174369 0.01478144
-0.04383480 0.07873414 0.02249996
0.04079675 0.06565702 0.01894216
0.02261064 0.08972384 -0.02807561
-0.00049102 0.09875924 -0.03079623
-0.02687850 0.05360214 0.00804201
0.02031254 0.07262659 0.00060743
0.00928806 0.12470000 -0.02964533
0.03555529 0.05485520 -0.02178239
-0.03348859 0.06107774 0.02864672
-0.03572632 0.06865761 -0.03470725
0.06642195 0.08161299 -0.00777546
0.07072285 0.09080765 -0.00471316
0.01958740 0.14807053 -0.00490327
0.00614952 0.11304855 -0.03133800
-0.03421157 0.07759481 0.01060196
-0.02960502 0.17880023 0.00035839
-0.03911244 0.14640887 -0.00083449
-0.07449351 0.13751505 -0.01059213
0.06159606 0.06471291 -0.02570869
-0.06105151 0.10485503 0.01239754
-0.09237984 0.06189793 -0.02670716
0.04686242 0.13163340 -0.04138912
0.00165902 0.09872380 -0.02881773
-0.08231591 0.17371456 -0.01097018
0.07385635 0.09736941 -0.01617203
-0.06193952 0.11467299 0.00853856
-0.06885895 0.06006747 0.00893831
-0.06417138 0.12286686 -0.01321204
-0.09941233 0.18057987 -0.00561057
-0.03674762 0.06343181 0.02388068
-0.03961689 0.06797124 -0.03050771
-0.01693358 0.15059838 -0.00512590
-0.08585504 0.08839794 -0.00053144
0.04601549 0.15266243 -0.02605681
-0.06236441 0.09432046 0.01777431
-0.01959886 0.09082871 0.01445326
-0.05069183 0.06595223 0.01708436
-0.02852307 0.16935425 -0.01026197
0.05612230 0.11581653 -0.02598210
0.01899539 0.12264178 -0.02630587
-0.08531994 0.07636899 -0.00303829
-0.05420374 0.17741735 -0.00500447
-0.05728308 0.18435240 -0.00834371
0.03961745 0.07263960 0.01638267
-0.01820004 0.18858969 -0.03390557
-0.07771900 0.16981320 0.00732082
0.01196129 0.15104131 -0.02369863
-0.03240980 0.15787584 -0.00471771
0.04205960 0.10072650 -0.00102029
-0.08209412 0.07716854 -0.00856979
-0.07070160 0.09363081 -0.01993835
-0.08690418 0.17841026 -0.00182345
0.06737929 0.10861260 -0.01013955
-0.08124210 0.07607640 -0.00992496
0.06260737 0.06506783 0.02501836
0.00815519 0.15484475 -0.02983857
-0.06304176 0.10657013 0.00448168
0.05558379 0.12144026 -0.03241513
-0.02936284 0.16860755 -0.02840970
-0.04435982 0.08654249 0.01111234
-0.05661207 0.05825366 0.03591014
0.05136855 0.10190105 -0.03223765
0.03221066 0.08412361 0.00770617
-0.09300286 0.16254203 0.01683944
0.06613110 0.07389395 0.00052666
0.09221534 0.13505341 -0.01587082
-0.07248849 0.07690804 -0.02749154
0.06277544 0.04874102 0.00777534
-0.07148249 0.16272111 -0.02011793
-0.04681934 0.10092021 -0.01142084
-0.03868847 0.07093716 -0.03473072
-0.00612765 0.07369645 -0.01564445
-0.08277393 0.14968696 0.02155347
-0.06874248 0.08704883 -0.03476764
0.04220998 0.07076217 -0.03551417
-0.01434216 0.18623957 -0.02897028
0.02568130 0.12826145 -0.02644355
0.05056287 0.15703693 -0.02048932
-0.03663582 0.12316719 0.00502140
0.03715220 0.05543803 -0.01346989
-0.02444620 0.16475342 -0.03865172
-0.05742564 0.12436175 0.00923680
-0.01356837 0.13408946 -0.00530528
-0.02598728 0.09794711 -0.00378210
0.07515276 0.11331601 -0.00119936
-0.01208976 0.13154867 -0.01961635
-0.07519388 0.11089786 0.00341105
0.04263756 0.09769556 0.02450091
-0.03619912 0.16174269 -0.00584624
0.06974136 0.06355369 -0.01075528
-0.08976644 0.16820748 0.01311520
-0.04577150 0.09237465 0.02930624
-0.09381311 0.13819236 -0.00240489
0.01394558 0.12302908 -0.00999030
-0.05509381 0.13077812 -0.01823118
0.07323832 0.08556694 0.01473155
-0.02322919 0.04876282 -0.00907980
-0.04624926 0.18186401 -0.01076431
-0.06639661 0.11521295 -0.01974779
0.03102816 0.12103264 -0.00115839
-0.04888560 0.11880384 -0.03034719
0.03718452 0.10236353 -0.04152738
-0.02568239 0.16420366 -0.01008516
0.06570888 0.05412482 0.01603440
-0.06838747 0.17531976 -0.01845277
0.00796469 0.15486830 -0.01680254
-0.06955408 0.08279041 0.01767555
-0.05896687 0.09531572 -0.02075530
-0.04286234 0.07135920 0.02418546
-0.03138566 0.17149310 -0.03955045
-0.07997669 0.18068382 0.00280930
0.05556070 0.07548396 0.00923971
0.04379316 0.14955370 0.00078209
0.04520693 0.08006112 0.00289478
0.05415910 0.07562187 -0.00573579
0.08648971 0.09166011 0.00721422
-0.08970670 0.18147962 -0.00433867
-0.06973338 0.07786722 0.01908060
-0.02552129 0.06462856 0.02428503
0.04101072 0.10208882 0.02296274
0.06848867 0.10710623 0.00387043
-0.04825408 0.10728493 -0.02037811
-0.02244424 0.06895746 0.02891823
-0.06406747 0.07182935 0.03317335
-0.05017710 0.15628618 0.00476955
0.00040723 0.08723987 -0.00729393
0.03931197 0.11626822 0.00620450
0.04383270 0.07495183 0.01187664
-0.01088891 0.15656972 -0.00418547
-0.05091637 0.17184281 -0.03100652
-0.02612645 0.09882910 -0.02884316
-0.07908264 0.06288532 -0.02696725
-0.07122060 0.15025087 -0.00621752
0.00544439 0.06134845 0.01477681
-0.07093326 0.14751118 0.00746855
-0.01256578 0.06055884 -0.02228778
0.07755652 0.12024137 -0.01192912
-0.03853724 0.11817617 -0.01896071
0.06257971 0.07909463 0.00568773
0.01634945 0.06879857 0.00413285
