2.73521423 1.76732624 41.10190201
2.07146454 -0.12452583 40.42818069
-0.08486712 0.67938000 39.64396286
0.66718322 -1.98509014 40.64698792
0.94793999 -2.36849880 40.25999832
-0.25953174 0.83569413 39.68581772
0.89589113 -0.13170865 39.11401367
1.91588068 0.60795355 41.56833649
0.66679800 -0.27555698 39.81103516
2.41568613 1.25765717 41.33649063
2.04341865 1.80868196 39.28992844
0.69761294 1.32851946 39.07833481
2.34251666 1.41356122 38.93433380
0.89608073 -2.31950665 40.06362534
-0.04982364 1.66513181 41.91219711
2.43925714 0.95768678 41.07462692
1.95488358 0.81120467 38.97287369
2.54878068 0.47937292 39.73171997
1.26272571 0.24317953 38.98321533
1.52034104 -1.40187752 40.38720703
1.62844563 0.29945454 38.97813797
1.96162987 -0.78596061 40.66337204
0.96864092 -1.73308635 40.79053879
2.53485775 0.94514215 41.10603714
1.16086102 -2.13216257 39.73093796
1.54846120 2.13196468 39.64688873
2.51935220 2.46626091 38.98489761
0.53846973 2.07935047 39.09343338
2.45221829 0.12695460 40.52531433
0.69023275 0.47437942 39.11734772
1.43403232 -0.68811512 39.80926132
1.62622309 -0.35382885 41.25231934
1.63171911 0.58835614 39.35488892
1.32820022 1.45312309 39.44585037
1.98219121 0.54674649 39.05751038
1.36871421 -0.10794839 38.87860489
2.05343986 0.39431828 40.00253677
0.02657413 1.96063745 39.19727707
-0.16923666 0.86567426 39.31002426
1.80129230 -0.46273419 39.43724823
0.77215612 -0.58212078 41.39108276
-0.04469728 2.06556702 39.60477829
1.81386304 0.27962220 39.53356934
-0.34894478 1.13327217 41.51729584
2.21322823 1.36027849 41.80595016
-0.25821269 2.03949451 39.32033920
1.84728253 0.44531560 41.61724854
1.77058208 2.19433832 39.27015686
-0.00086236 0.61519623 41.35311890
2.67786455 1.70434690 41.54989243
1.28557551 -0.39610869 38.65921402
2.25872993 0.60517550 41.21380615
1.52428961 -0.25723571 38.80979538
1.32833457 -0.70903569 39.88842773
0.88710326 -0.58027875 41.24213028
0.70067704 -1.80811203 40.73266983
0.35433680 0.27632248 39.63125610
0.51410323 1.56471586 39.07666016
0.16504157 -0.19151109 38.89503860
0.25377560 0.39601099 39.63739395
2.50844908 1.65016830 39.02386856
0.22710401 0.94836706 41.76177979
1.65882456 0.10568771 39.50164413
1.57486773 -2.13454008 40.39010620
0.46005988 -1.27590346 40.34474564
2.35508823 -0.00074693 39.03536987
1.39119101 -0.18771791 41.64507675
2.37004185 0.53328246 40.92362976
-0.32192600 1.40471339 39.91280746
1.09847999 2.17228317 39.04047775
2.09237146 1.92404246 38.81180954
1.61700726 -2.16840458 40.15229034
1.48624146 1.05082667 41.79070663
0.46403039 -0.17673197 39.40446472
2.47179890 1.42535245 41.22097015
0.62690681 -1.71212840 40.91470337
0.33004594 -0.06993618 39.82055283
2.55312800 0.24245533 40.48521042
2.39119697 0.18509838 39.00656128
-0.15002275 1.69883239 40.22695923
1.47509241 -2.17273378 40.59020996
0.61271685 1.51851499 39.54076767
-0.29003823 2.02845812 40.17162323
0.75296408 -2.28584480 40.59740829
2.23650432 -0.26583529 39.21778107
0.46140379 0.86660081 39.08100510
1.76468730 2.14687681 39.17688370
-0.27548814 0.89105439 41.48878098
2.74096727 1.79906631 39.24754333
1.22222829 -2.53747749 40.52462769
-0.33662641 1.85618734 40.79944229
-0.09780252 2.18724632 39.98542023
0.93131959 -1.37117445 41.09065628
2.06926966 0.45708647 41.24856949
2.40292382 2.17588425 39.05332184
0.90714198 2.31575155 39.00693512
2.35446310 2.38760805 39.03057098
0.44517326 0.49801511 40.22946930
0.34133649 -0.07939166 38.62446976
0.05488169 1.39231014 41.95158386
2.35132837 0.69930214 41.94416428
2.68827057 0.66713405 40.83154297
0.87256181 0.51392120 41.61736298
1.86763561 0.40904051 39.32435608
2.73012543 1.29459059 39.59349060
1.33462882 -1.85707152 39.90601730
2.06331968 -0.84043509 40.54235840
0.62372452 1.71965456 39.27984619
0.55720514 2.26986456 39.05804062
2.38570380 1.98030603 40.09781647
0.34603590 2.03830481 39.23819351
1.04003382 0.26587635 39.06604004
0.87199068 -2.12007427 40.45295715
2.14972329 -0.68837732 40.79222870
1.24029064 -1.80139136 40.83064270
1.18206716 -1.99430919 40.13297653
1.75885463 0.21466014 39.87844849
1.70849156 2.16525126 38.67509842
2.75426722 1.00841963 39.81375504
0.11386311 2.07822514 39.32514191
1.49729383 -1.96416783 40.49557495
-0.46190524 1.41788650 41.28510284
2.69269776 0.25501895 40.39307404
2.60858727 1.73386323 40.66017532
2.38999891 -0.36323854 40.94713211
1.30123985 -0.91660082 41.32508087
1.89971077 0.40721083 39.24096298
0.28678566 -0.54345036 40.84196091
2.19689798 2.23060608 39.27421570
0.18564314 2.09701633 39.59188843
1.12989259 1.44565403 41.88121414
1.35193717 -1.73203337 40.89870071
0.96301174 -0.75862938 41.45047760
2.72325087 1.48695517 39.21521759
1.50048733 0.21585393 39.27388382
2.34427023 0.33812514 38.89095306
2.37658787 2.10557461 39.73559189
0.38772023 -0.12336372 39.18474579
1.25164449 1.58212280 41.79822540
0.05650687 0.03123318 39.05506516
1.96403480 2.04097414 39.75228882
0.81957799 -1.47618043 40.21289062
1.37634110 1.10936809 41.81587601
0.36567402 1.31865692 38.92114639
-0.14995122 2.16600180 39.56873703
1.69780731 -1.28869021 40.57989883
1.06605065 -1.72834361 39.53287125
0.32085204 -0.33209223 40.32164383
-0.24892390 1.48303723 41.25400543
1.51694930 -1.82256377 40.54470444
1.90416765 0.50042588 39.91372681
1.31605530 -0.30157366 38.94499969
1.56152689 -0.75473034 41.38533401
1.99120259 -0.20818509 40.55062866
1.11687124 0.01469375 38.94618225
2.71236324 1.55816948 40.09099197
0.66580939 -1.57548928 40.17147064
0.08086956 2.06155682 39.94074249
2.47582817 1.37770748 41.31610870
-0.46250033 1.84995162 41.04009628
0.80954355 0.96879113 41.71571350
1.41374516 -2.18134642 39.92808533
-0.47414553 1.19180548 41.69252777
1.59473753 0.20066847 38.83265305
2.10778618 -0.06263104 38.75259781
-0.21570277 0.89439327 39.90079498
1.06758785 -0.64995688 41.30155945
1.26814294 -1.48492360 40.98015213
1.05596948 1.86696076 39.10152435
0.71988708 -1.25757122 41.13841629
1.07339704 -0.18978955 38.72828674
1.37868202 -0.02536972 38.86666870
1.34898627 -0.50542676 41.52033615
-0.16762173 0.70065719 40.66790009
0.35265911 1.15055716 41.94874191
0.75631046 2.19797182 39.11553192
2.05063200 0.99770844 41.91367722
1.67355871 -1.53408611 40.55332184
2.06881285 0.54714823 41.31160736
0.28858393 1.91621292 39.81275558
0.82175231 -1.33462393 39.78635025
2.77496243 2.00544071 38.96567535
-0.20501125 1.96877277 39.50518417
0.58879703 0.40798911 39.53094101
2.24196625 1.94327998 39.29458618
0.42508537 -1.07915127 41.01904678
0.81649792 -2.05228138 40.71422195
-0.14333045 1.34740472 41.27297592
1.76640439 -1.38574886 40.52473450
0.92897701 1.18744671 39.07397079
0.32798958 0.88349932 41.85367966
0.52586234 -0.52383471 41.10807419
1.53412437 2.04965019 38.81379318
0.51274014 -0.04927415 41.63306427
1.32514775 -2.56910467 40.59280396
0.44786483 1.86059213 40.43503571
2.69973803 1.12113619 40.27252197
1.38949835 -2.36847448 40.45237732
1.68112135 2.17076063 39.28866959
0.80699015 0.16214748 41.56192017
2.44485855 0.50648588 40.92119217
-0.13801503 0.88254642 39.34461975
1.38032269 2.37042809 39.04969788
1.88462448 0.74910349 38.76271057
1.40996277 1.63411438 41.75801468
1.70928121 -1.61424017 40.86656189
0.33400059 -0.23696978 40.81893539
0.44355351 0.95276022 38.89864731
1.58637333 1.57234335 39.37355042
1.64111638 -0.43893042 41.35459518
-0.23854852 0.82735986 40.78958130
2.72057533 1.77520537 39.06409454
1.10538828 0.02209257 39.30167389
0.95462674 -1.37802601 41.15528870
1.92633986 -0.40374559 38.92221069
2.41574430 1.94665968 40.73071289
-0.24799979 1.39947402 41.43104172
1.41404569 -0.35739627 38.74412537
1.69666433 -0.29764089 41.00071716
2.21880817 1.78758776 41.19931793
0.82761455 0.10955261 41.44078827
1.90164566 0.35570979 41.26148224
1.49516118 -1.77525699 40.02565765
1.17508078 -0.24019468 38.90938568
0.25704867 1.45759690 39.00187683
-0.13535094 0.16277960 41.10184479
1.05801952 1.78178775 38.97097397
1.00712311 2.24360561 39.12131500
1.99173760 -0.59146470 38.81995010
1.56812918 -1.97035086 40.76856995
1.65505505 -1.34337878 40.38311005
-0.08896744 0.65389889 39.73104477
1.90560675 -0.63376909 40.18447495
2.46152878 0.18430957 39.15015793
2.55100131 0.65616328 39.42668152
0.14801764 1.76218712 41.74980545
2.61931324 0.75513434 40.26308441
0.78620940 -1.93950152 40.90109253
0.61842263 -1.82108736 40.86716461
1.36498713 -0.69836515 41.30409241
1.75058460 -0.27123943 39.81855774
2.46295738 0.03303753 40.57427597
2.25649452 0.47607249 41.78992081
1.53116870 1.85613048 41.79366302
1.81222153 -0.49148571 39.39476395
0.23200506 0.21092284 38.55433273
1.62572432 2.17293787 39.30272293
2.45752668 2.30888081 39.56732559
2.14143705 2.42316294 38.96177292
1.23417711 -0.03612557 38.89139557
1.53344452 -2.31422329 40.10169601
2.21435452 0.04011132 38.77222061
2.81496167 1.79657745 39.61994171
2.72105765 1.47389281 41.41716385
2.00070906 -0.33500430 40.69948959
0.27612048 1.17421985 41.76158905
2.52743959 0.88162386 40.73816681
1.12849653 -1.61733508 40.99700546
2.34563875 2.38582468 39.95195007
1.77375579 0.51074928 39.36724472
-0.09521770 1.22546089 40.74538040
0.36156982 0.69247842 38.79924774
0.32420260 0.54157370 41.30506897
1.20541525 -1.10829163 40.04115295
1.23885477 -2.40810871 40.41895294
1.55022907 -1.28671348 40.36146545
0.38352597 0.46165776 39.73280334
1.08551323 -0.44824225 40.09907150
1.67599225 -0.86759657 40.29822159
0.00020254 0.78310776 38.62962341
0.39950079 0.50707406 41.07438660
2.10456753 0.76174897 38.83806229
0.26908231 -0.58326620 40.84938812
-0.14848101 2.24565220 40.49821472
2.36970901 0.02968872 39.26375961
-0.37020791 1.15446281 41.65297318
-0.15838921 0.74113530 38.76515579
-0.02972364 0.74634469 38.99388885
0.70551223 -0.09165424 39.09427643
1.68480861 -0.33880916 40.22547531
-0.19335175 0.65186065 39.40445328
1.59530413 -1.55045128 41.08453751
2.20897627 1.15351760 39.11666107
-0.19976079 1.59859669 39.29792786
0.00826347 0.77601123 41.80375671
0.79807550 0.84423512 41.80001450
1.81131029 0.28741071 39.30698395
0.28120637 0.48901248 41.33796310
0.25452763 -0.38521934 39.35300827
1.02884328 -1.00219905 41.10794067
0.84888911 0.34193662 41.53211594
0.36999202 0.44842830 41.54287720
0.41057068 -0.14224043 41.33523178
2.29323721 0.41331640 39.64752197
1.47954631 2.20636606 39.41927338
1.82286716 0.44566244 39.84133530
1.80391121 -0.53528517 39.51593781
2.31366801 1.33840406 41.90764236
2.40013170 0.48533607 41.20327377
2.18232036 2.16439867 39.32109833
0.30945188 1.95700550 40.33660126
0.70861077 -1.86086333 40.11321640
0.49623144 1.14177835 39.09916306
0.55660594 0.12595518 41.50038528
1.99837697 0.63598537 41.82842255
-0.05879569 0.76759332 39.84631348
-0.21876752 1.59399617 41.48223114
2.27593565 1.76040018 41.71081924
0.82798553 -1.93216383 40.76388168
0.91670966 1.00962269 41.74153900
2.47425699 0.91080821 39.13954544
2.50948286 -0.12592465 40.86083221
-0.00107384 0.63071293 41.64840698
2.81202531 2.04401588 40.16826248
0.38235050 0.33291733 38.88530731
1.58539939 0.37445402 39.13647842
0.31213129 0.44576114 39.71033859
1.77980161 -0.87650901 40.37279129
1.65911412 -2.01613760 40.34658813
1.64816368 1.56074071 39.11864853
0.77643406 0.10709979 38.63542557
1.08731747 -0.42398411 41.50588226
2.42495656 0.62586033 39.53675079
-0.26998377 0.77929199 41.64264297
1.36267519 -0.20285657 38.95026016
2.25991249 1.60096788 39.17690659
2.04587722 -0.17937359 40.21363068
-0.28621280 0.73458552 39.10349655
1.06824803 0.53974414 41.66812515
1.89729190 -0.81943035 40.52691650
0.63371891 1.74582338 39.28680038
2.66197395 0.84991103 40.25193787
-0.15147340 1.65124249 39.53594971
1.27825809 -0.20736018 38.98489380
1.03782976 -1.33886898 41.33927155
2.21848869 0.58589137 39.54602051
2.50992489 1.22284925 40.02155685
0.44410449 0.52264845 38.58082581
1.60298908 -0.64540774 40.24059677
1.45626473 -1.72633600 39.85910416
1.07527626 -0.10738780 41.44826889
1.99503136 1.48037994 39.18764877
-0.00845528 0.68107074 39.64126968
1.33477211 1.56713974 39.13547516
2.33048320 1.70047712 40.83584595
-0.12295401 1.97112811 39.88542557
0.30390662 2.00203753 41.19190979
1.82869244 -0.09283580 41.20026779
2.62049961 0.81881475 41.41300964
0.93136179 -1.94385982 40.93191910
1.67685342 -0.47454163 40.02788925
2.30165005 1.29098523 41.04782104
0.53314334 -1.43541110 40.17309952
0.26167691 0.81430441 38.70244598
1.34604764 -1.08795261 40.34230042
1.68957639 0.31904033 39.11065674
1.47938573 0.26771936 41.71167374
2.04932380 0.29616418 41.73709869
0.34393400 0.70752680 41.56526566
0.21623135 -0.28610140 39.71654510
2.87446642 1.80111778 39.18421555
0.50961220 -0.37541252 38.90747452
2.31359005 1.98140991 41.48001099
1.83109140 0.19018650 40.16572952
-0.28481674 0.52425343 41.48062897
1.06991863 -1.67577028 41.03903580
0.63874906 -1.91057587 39.94682312
-0.03738129 1.26455534 39.85475540
0.52844119 -1.87783790 40.40679932
2.70100689 2.02229834 40.03108597
-0.21851766 1.06750453 39.78375626
1.47689772 0.38117522 41.71178055
1.87276459 -0.49540284 39.92958832
-0.40079367 0.65883648 40.64673233
1.64124191 1.66000938 41.94067383
2.45700407 0.28171659 39.67164612
2.34578037 0.35359785 40.78276062
1.63613772 0.10010186 38.73226929
2.71275854 1.44827271 39.74891281
1.13018346 1.80901754 41.50085068
-0.13148677 1.47739232 40.84327316
1.88163114 1.91457677 40.82051849
0.73826218 0.87493861 41.57485580
0.34927243 -1.06206787 41.14117050
1.72704744 0.52350205 41.76582336
0.75568569 1.83980167 39.12474060
2.73779631 1.52877784 40.86774445
1.38371778 0.60195035 39.14777374
-0.32499981 0.71715528 41.48503876
2.60274410 0.52904308 39.90454865
-0.09884953 0.32463005 39.28509903
2.64771414 0.93975258 40.02933884
1.81666160 0.26421371 39.02169037
0.58483875 -1.12249207 41.05600357
2.24510407 0.04504492 38.84128571
1.00778234 2.31218195 38.92522049
1.16701424 -0.12307964 41.55887604
0.49183589 -0.30554405 39.76308060
0.48732573 0.54392862 39.30691147
1.21266305 1.06010628 39.33801270
0.85966945 1.09342360 39.13311768
2.42752934 -0.07167399 39.16152954
1.65354371 1.31155086 39.04182434
0.02527809 0.60636622 40.03466797
0.00958955 -0.39548323 40.93327713
1.36754799 -2.51237869 40.48654938
2.40503168 2.00878954 40.22097015
0.85032654 -1.29583800 40.99431229
0.28025484 0.14346689 40.22807693
-0.18611467 0.95938921 39.94086838
0.43041515 0.30527952 39.41826248
0.35445380 -0.01146848 38.79325485
2.46526575 2.09118176 40.38216400
0.93979996 -2.20944309 40.80848694
1.33750236 1.46008897 39.39116287
2.25773716 -0.34585872 40.98085022
1.26908875 0.00194368 41.50719070
1.89739752 1.43407273 41.78527832
1.31922483 -1.14078319 41.25168228
0.70693058 -2.24801779 40.35055161
1.88909411 2.17094898 39.12565994
1.40711606 0.12206016 39.23915863
1.08270454 -1.84160841 40.98618317
2.20904398 0.43146530 41.59776688
1.81083751 0.98635399 41.88026047
2.51599526 0.33167008 40.27994156
2.47805119 0.65786153 39.43689728
0.58691508 -0.40570647 39.79576874
2.29457283 0.13122822 41.06509781
0.16272318 2.00165558 39.44035339
0.36914182 0.53533655 39.58671570
2.57037640 0.59103090 39.73760223
2.47934914 1.33595884 38.96799088
1.19008613 -0.81993693 41.36215973
1.58414030 -1.98423636 40.49909973
0.47196984 1.75060630 41.40597916
1.01133370 0.51126647 41.57691193
2.50274706 0.15315159 40.88929749
-0.05612791 0.92976111 38.87791061
2.15250993 1.75017071 41.91427612
0.41857195 1.83488250 39.12316132
1.10236669 1.53955674 41.68348312
0.16855633 1.78369081 39.22308350
1.48980653 -1.24432135 41.19073486
2.74032593 1.70775414 39.26722717
1.83045340 0.25605333 38.95988083
2.24272919 2.05120230 39.22606659
-0.22341669 0.83211601 41.65302658
0.47452420 1.80925071 39.19177246
1.95813942 -0.04589685 41.37227631
-0.14742911 1.53571391 40.20734024
1.03263104 -0.72560233 40.14631271
0.21785760 0.18152654 40.99592972
1.51303184 -0.52553236 41.43404770
2.23971987 0.41344082 41.28581619
2.09148455 -0.25337452 38.66410065
-0.12586093 1.00514781 40.87474442
2.55639267 1.10785615 40.32577515
2.69259763 1.90541041 39.50801086
0.40145218 -1.36689794 40.76893997
0.97597593 -2.15611219 40.41006088
2.39335275 0.18301280 38.72407532
0.98236561 -1.77562404 41.07019424
1.19664598 -1.21981287 39.97782516
0.98681366 -1.40506947 39.74201584
2.53747749 1.15684915 40.13463211
1.52380311 0.47609812 41.69311905
2.54194236 0.27563816 40.61410141
-0.21502650 1.70166326 39.58506775
1.40097213 -1.23847795 41.15995789
-0.16274405 0.72507590 39.23722839
0.86125338 -0.34813592 39.92356873
0.90965164 -0.18008763 38.85785294
2.42769289 0.39335620 40.53635406
0.26532590 -0.60252494 40.93555450
1.91904163 -0.03323411 39.86265945
1.35738969 -0.71547461 41.44354630
1.39886808 -0.36125806 38.79380417
1.15900767 2.10385895 38.85802078
0.53870952 0.29233679 41.20156860
2.28506327 1.92954803 40.82693481
2.02710247 0.50916076 38.64424896
2.32681966 0.68796700 41.13794327
1.29472911 -1.87678504 39.77446747
2.32333469 1.00432694 39.15906906
0.58083630 -0.12127434 39.42017365
1.90723467 1.41642606 39.28374100
1.08475208 -0.19961026 38.94350052
1.53278446 1.75640082 40.94625854
1.81306148 -0.87339914 40.44453049
2.46860862 0.83733356 39.35308456
2.67311811 1.53452456 39.96645737
-0.18243623 1.35200584 40.98341370
0.07787633 0.02777611 40.95996475
2.13482356 0.60050076 41.76339722
2.00030971 0.52895421 39.31262589
2.37855577 0.39206290 41.04221725
1.09650409 2.24736834 39.06351852
2.64658689 1.81172848 39.63710403
0.30287111 1.35122097 39.06892014
1.07634914 1.79049671 38.95796967
1.40329123 -2.30585527 40.37542725
1.00283420 -2.22987461 40.37360001
2.19290447 1.98291814 41.09125137
2.42845750 1.14622128 39.40208054
0.76857567 -0.12462229 39.83884048
0.74910414 -2.32784224 40.10945892
1.09833765 -1.95819044 40.73484421
0.05893230 -0.24011628 40.25423050
2.10715389 1.54311657 42.04344177
2.70547295 2.01862955 39.84834671
-0.06013918 1.76677465 39.21951294
1.59512782 -0.44167095 41.48117065
1.17775095 0.34240884 39.30862427
-0.24604440 0.27703676 39.01702499
1.74426389 -1.15899122 40.33045578
2.12634468 0.32726401 38.65814209
2.52685213 0.79326516 41.04636765
2.21597648 0.72243541 41.72545624
2.61937189 0.81559157 41.41068649
0.28487480 0.03685383 39.98622513
2.53600359 0.79220432 39.34857559
1.97541475 -0.01817850 39.75204086
1.17782676 -2.06418037 40.35461426
2.41867876 2.14149141 39.22257614
1.74290037 -1.39844155 40.67670822
2.28729677 0.03576849 41.32831955
2.53611898 2.03275776 40.01448059
2.27157831 0.35294685 38.83224487
1.71829581 0.54878634 41.58184433
0.36368597 -0.09219307 40.91787720
2.00601387 1.58589435 39.24304962
1.64189029 -1.26900840 40.43585205
2.44392538 0.29195607 40.15523529
-0.03001821 0.62386853 39.63647842
1.35774672 -0.34496945 38.85542679
2.10325193 -0.46217540 38.92899704
0.07484496 2.08934450 39.19477463
2.50872159 1.53971183 41.18006897
2.51442695 1.75891006 40.56654358
0.43365628 1.40410459 39.15970993
1.06803179 -0.57585174 40.14918137
2.41113758 0.46846330 39.99918747
2.59303498 0.89463484 41.53350067
1.90155864 2.48497915 39.03766632
2.51294589 1.87079394 38.82773590
0.41391146 -0.47894815 40.08990860
-0.03810048 -0.22728807 40.93076706
-0.25171876 2.15375614 39.67381287
1.92745805 -0.27633291 39.92030334
0.44810176 1.93389606 38.90015793
-0.13573420 0.62733865 39.21094894
1.14390957 1.80708349 39.48544312
2.56051755 0.75938433 40.90194702
0.39740032 1.95563567 39.04129028
1.58347726 1.92391920 40.72387695
-0.42485547 1.36095417 40.90930557
1.79325962 0.52329540 41.41967010
0.22968298 1.24938464 38.89255524
1.78600681 -1.52304685 40.93516541
1.83868122 0.17239359 39.39827347
2.06906080 -0.32368976 39.12167740
2.09417176 -0.06280528 40.16947556
2.20384932 2.03073788 40.25006485
0.45864660 -0.42232603 38.87322235
1.19051373 -0.75502121 41.26024628
2.23320723 0.69473809 38.86594772
2.16434407 0.60334760 38.69157028
0.30304408 -0.19576937 38.77876282
0.34951615 0.34620309 38.67948151
1.39514995 -0.85157382 40.23973465
2.76168823 0.73146290 39.73783493
2.11718059 0.39583710 41.14429474
0.19361424 0.31550026 38.62335205
1.62333643 0.60964614 41.85845947
2.36269522 0.06273374 39.04744720
0.24357718 0.67905176 41.59106827
1.00139427 -2.05706501 40.82312775
2.19241810 0.95533311 42.01256943
2.02755094 -0.22747663 39.65485001
-0.25073886 1.80278659 39.92923355
0.45083511 0.39293206 41.56914902
2.74804282 1.64000916 39.62405014
-0.22534871 1.44075072 39.78060913
1.31901574 -0.06203389 38.97688293
2.36432743 1.82954788 40.90288162
2.21934462 0.41882792 39.84025192
1.24303973 0.29021880 39.08532333
1.89150965 0.07021561 39.39234543
2.54721069 2.16717720 39.47794342
2.48908377 0.77643710 39.44615173
1.76500535 2.03301430 39.90352249
0.24327505 2.12443542 39.71823120
1.07733464 -2.13951969 39.88644791
2.53919983 0.56426948 41.62385941
0.46372205 0.06607243 41.45504379
0.74935144 -2.30092430 40.75113678
0.26540273 0.28171238 40.24743652
1.29914033 -2.14174128 39.88761902
1.33690321 -1.94319475 40.72827530
0.97264975 -0.26289940 41.57037735
0.47353864 0.51622236 39.23551559
0.94146681 0.00886122 41.51493454
2.22143054 1.53387702 39.12191772
0.69825441 0.00427253 38.87768936
1.47288048 0.35318378 39.04539490
0.49854839 0.13615794 41.60720444
2.64550829 0.59803975 40.33619690
-0.32981944 0.61054510 40.81977081
1.10723126 2.04047585 39.43428802
1.10441530 1.00869167 41.84757233
-0.08104491 1.41731787 41.69012833
2.18247271 1.78853536 41.76032257
0.25455427 0.73914886 41.81150818
2.41160989 0.22444925 40.26471710
2.37128568 0.62639713 38.82173920
-0.19373560 0.69264728 41.47491074
1.48729575 1.97993934 40.22927475
1.22448695 -1.96480370 39.63463974
1.93546677 2.16347599 39.30698013
1.75914669 -0.17696175 40.92635727
2.52515602 0.30726314 40.63477707
0.21479130 1.43009782 41.67676544
0.53438163 0.88342458 39.09970856
2.37475538 -0.15755001 38.99490738
-0.28942609 0.69170851 41.52254486
2.47131491 0.62638766 41.40065384
1.06219137 -2.09203148 40.78247452
0.98738015 0.04338387 38.72630310
1.07461417 -1.47358060 41.13104248
1.20850468 -0.27812922 41.55687714
0.66674715 -0.38533732 41.48976135
2.35459447 0.94153124 39.09768677
1.19943428 -2.07443666 39.93823242
1.46654081 0.00471924 38.95480347
1.89092278 0.21118563 40.32933044
2.55585837 0.59291160 40.19225311
-0.07515264 0.45487076 40.80522537
0.54921883 -0.00230085 39.51647568
1.12291956 1.11093402 41.80970001
0.36499172 -0.88930899 40.50997925
0.99552023 -0.64959657 41.35997772
2.04231501 0.95237154 41.96486282
1.17541218 0.53194618 41.69849396
1.53862107 0.65867853 41.94633484
0.43370253 0.71095687 39.65577698
0.82235807 -0.07645729 39.13842773
2.56692123 0.78591794 40.35343170
0.99394870 -0.99157423 41.28126144
2.20928144 -0.18629833 41.24531555
2.61875200 1.86945617 41.37660980
2.55565119 0.85427362 41.40426254
1.79002905 -0.44078892 39.97552109
0.23868567 -0.07213575 41.05978012
2.35096073 0.92576796 39.40351105
2.68410134 1.32747984 39.61465073
0.02589667 0.96013033 39.03634262
0.33176368 0.32270598 38.79302597
2.50742602 0.49860489 41.58563995
1.44950509 1.44912648 41.81665802
0.00970614 0.59236258 39.29853821
1.30404556 -1.96550548 39.64145279
0.36223835 1.12984729 38.92449188
0.94446242 2.41720295 39.06414413
1.28408098 -0.43847531 41.36771774
2.22778749 -0.10443279 39.13529968
1.64069533 2.18284178 38.66147995
0.51211399 0.42902866 39.12323380
-0.19912124 0.03139579 40.97813034
1.19665647 1.40405560 41.75840378
1.67105389 0.35055664 39.32075882
0.54920685 -0.11271106 41.46127319
2.56020927 0.71046340 40.44223404
0.21144569 0.93312359 38.59415054
1.88889050 1.93042362 40.76052094
1.90974951 1.86353600 41.55546570
2.88146448 1.69399202 39.26812363
0.88308537 -0.99581879 41.26239777
0.58165383 -2.01153612 40.50643158
-0.27348900 0.48378772 40.63769913
1.91189933 0.76449347 41.94049454
-0.41813648 1.22283900 41.72386932
1.93249726 -0.42661825 39.53845215
0.60297871 -0.49433079 41.35525513
1.84965968 0.57614732 38.66891479
2.44663048 0.43350250 40.32725525
0.90096045 -2.40490961 40.58518219
2.64609337 1.75346124 40.54733276
0.98357898 1.97443759 40.40901566
0.20498198 0.20712097 41.18752670
0.90780216 -1.41960537 41.03911972
2.28155804 1.80277109 40.73902130
1.37469542 -2.13765907 39.76859665
1.69213665 0.33588889 39.28269577
0.42672342 -0.14967817 39.82236862
0.62749285 0.41337848 38.94021988
1.24496162 0.28753787 38.95954514
2.62979221 0.81764710 40.37465286
0.53517550 -2.18975449 40.44271469
1.57666278 0.48031330 39.15946960
2.08291769 -0.76611215 40.66225052
0.44422972 0.61725837 39.32539749
0.78073347 -1.51153874 40.98733521
1.49448419 -0.88099277 41.30885696
2.68996453 1.43470371 39.47025681
1.68790317 1.40373576 39.02230835
-0.33556139 1.17995381 40.78383255
2.57542610 0.85514832 40.06932449
1.89178741 -1.23711705 40.92850113
1.25517642 -0.34889409 38.68223953
1.41847825 -2.12350655 39.82010651
1.54766393 -2.16611958 40.11958313
1.01036572 1.05556679 41.58104706
-0.27811551 1.11515927 41.62432098
1.58048058 2.11768770 39.39389801
1.74003434 -0.40129238 39.90622330
0.22720170 -0.13914996 39.49413300
1.35577631 -1.47106814 39.69886780
0.32305467 0.99633622 39.15955353
1.90137172 0.21015581 39.77418137
2.42444038 2.12222338 40.58052444
0.73357451 -0.19960798 41.59825516
2.54744101 1.78492320 40.37012100
1.97678161 -0.39359444 40.22636414
-0.21453857 2.09952354 39.81761932
0.73210645 -0.49799296 38.87330246
1.33979189 -1.82908475 40.70298767
2.16861820 0.08315921 41.12375259
0.65067798 1.41859376 41.66158676
1.27837598 -2.21481323 39.78900909
-0.16121614 2.02849388 40.22781754
1.97188437 1.17281532 39.25547791
2.24362755 0.39972383 41.08653641
0.26729035 -0.45128736 40.81318283
0.46758467 -0.01652101 41.54344177
-0.19997597 0.68282336 40.71751785
0.50662047 0.89960158 41.79862976
1.56969666 -1.57466900 40.90218353
0.69039035 -0.14312327 39.66915512
1.83584642 0.32598609 39.66192627
1.13527703 -2.16424036 40.69684601
-0.49765098 1.29781103 40.75223923
2.00322962 1.27429974 41.93387222
1.12981009 0.08086408 41.62085724
2.45285606 1.74441397 39.19916153
-0.26722014 1.22555983 40.14257050
2.42970896 -0.14334248 40.49729919
2.12861729 0.37200746 39.61260223
1.03119171 -1.34628046 41.04578400
-0.29807079 1.51125288 40.09847641
2.58868861 1.52079368 40.89718246
2.37784266 2.12946606 39.88346863
-0.21101379 1.35028017 40.30319595
2.24380445 -0.00829451 39.18890381
0.92716765 -1.82685363 40.77335358
1.16746688 0.36690360 41.73693466
-0.31988394 1.01719093 41.13051224
1.91929328 -0.69931048 39.27005005
0.42363882 -1.13288295 40.75529861
1.49187779 0.16324012 38.83340454
2.14859891 0.52785242 38.67635727
0.81139398 -0.60803169 41.19545746
0.33123320 -0.10795386 39.80008316
-0.03238320 -0.30305704 40.86345673
2.27429771 0.25607252 40.39747620
0.88652533 -1.30624783 41.15970612
1.22089541 -0.72750294 39.94888306
2.62589455 0.82655936 39.18536758
1.33230054 1.89501393 40.08594894
1.60094130 -2.03884411 40.12915039
1.18803656 1.65474510 41.66672516
1.74698293 0.27470475 38.78533936
1.55898190 -1.60199523 40.48527145
0.96101719 1.81805420 40.88548279
2.69723988 1.74690998 39.84608841
2.52852678 0.60914654 40.42303467
2.00503659 -0.15813203 39.42963028
0.40258628 1.64491117 39.11360550
-0.29865360 1.34399283 41.10226059
1.57555103 1.48203290 39.07698059
0.01995933 0.05511688 40.93407822
1.09694016 1.86214578 41.00720215
1.83768451 -1.33268046 40.67102432
0.55477214 -1.45502913 40.91771698
2.38211727 0.61983037 41.28785324
1.48779750 -1.07890034 41.15200424
-0.58384442 1.87780285 40.48777008
-0.10483897 1.01724577 41.75477982
-0.16318429 1.75093079 39.18224335
2.27484798 2.22305536 38.89221191
1.45974851 1.85609710 40.45793533
1.90206683 -0.42873925 40.06362152
1.16945863 -2.02206635 40.82411575
1.35187900 -1.93915474 40.74135208
0.51396662 1.65018225 39.21143341
0.15852404 0.35105142 38.62751770
0.74581981 1.55195141 39.31276321
0.23745346 0.18019052 39.51559830
0.23701543 1.42318130 41.87109375
2.41369915 1.09953952 41.91228485
2.60390329 0.79403901 40.91412354
1.24437141 1.44134855 39.04971313
1.30902028 -1.73349333 41.00121689
1.31738830 -1.65951896 39.78277206
1.55298471 -0.21401784 39.05988312
0.78899139 -1.24447274 41.19647980
2.86483335 2.17340279 39.25132751
1.89383459 0.35524148 40.00596237
0.63036060 1.87607360 41.06901932
0.61761105 1.05790520 41.69487000
0.33610368 1.15489483 39.19101334
2.62609339 1.08547640 39.19354248
1.36278725 -1.53813040 39.72762680
2.70379376 1.70118523 39.41640854
0.93936950 -0.83770877 41.34943771
1.47300172 -1.29427612 41.03243637
2.42412233 0.14585650 40.93192673
1.22770369 1.89450538 40.76421738
1.11173582 -0.21642941 38.99086380
-0.17767894 1.98531830 39.56383514
1.11693180 -0.58233380 39.97456741
1.82649922 -0.61787987 41.05231476
2.26256514 1.09969485 39.07381439
1.80667806 0.51813418 41.56935501
2.40306807 1.50872564 41.23348999
1.21165073 0.93815702 41.73345566
2.53345776 1.27404356 39.31486130
2.34503746 1.35243011 40.92661667
1.80907154 -0.56706733 40.51501465
0.93476707 -1.28026450 40.10974884
2.18181610 1.25434983 38.98982239
1.91359210 0.18217225 39.85549164
1.88713455 1.18034244 41.77349091
1.84395254 2.12806368 39.21508789
2.09686303 -0.10460947 40.44430161
0.97943735 -2.25498962 40.69084930
1.18781745 -0.07348002 38.89408875
1.94974685 0.22043449 39.85424423
1.98593891 2.23656559 39.28605652
-0.17149293 1.65410841 41.55794907
1.63027215 0.15495598 38.83139801
0.80639219 -2.01362038 40.16156769
2.49626970 2.30140305 39.28116226
0.37619805 -0.07934436 41.39228058
2.47371817 0.82337171 41.34431076
2.25080109 0.30304259 38.87604523
0.51815671 0.49672765 39.60955048
2.67577219 1.85494149 40.08822250
1.68153465 2.17934465 38.69767380
0.78696811 -1.05892837 41.20472336
2.16123033 0.09311764 38.66346741
2.31563973 0.46246833 41.27381897
2.31494522 0.33868712 40.75326157
2.42330694 0.31118008 39.21611786
2.13464785 0.12936558 41.04645157
0.81448233 -2.52533293 40.09494781
2.81317759 1.72634315 40.86804581
0.55334330 0.42458552 38.98962784
1.66237354 -1.68368983 40.92749023
1.34904575 -1.82286525 39.70193863
0.70998144 0.26296675 41.60732269
2.38894725 0.01300566 40.61988068
2.47192812 1.58690381 41.23819351
1.16991735 0.08787560 41.57425690
0.59861690 0.01395672 39.35518265
0.27332807 -0.09722976 41.02032471
1.89172411 -1.33149576 40.80567169
0.60085201 -0.54487085 41.12800598
0.90831172 -1.61743951 40.86371231
1.92281306 0.03629426 39.87173080
2.63305116 1.82995081 39.93145752
-0.28847551 1.06549716 40.77724838
2.10271597 -0.26600647 38.66081619
1.97136986 -0.27258551 39.39531708
1.51941776 -1.81831026 40.73513031
0.85259175 0.21030635 38.97745514
2.53251171 2.04191017 38.91107178
1.10183477 0.99756992 41.69515610
0.47470659 1.69530857 41.18376923
1.53307939 -1.71036553 39.89435959
1.25223112 0.50088614 41.64490891
2.54298115 0.34443825 40.11814117
2.51535749 0.43776718 40.15757370
2.10385442 0.58088899 41.94202423
0.16903090 0.37699312 40.89986420
2.29752207 2.02733278 39.83387756
-0.44990575 1.25710773 41.24296188
0.24454397 -0.36563429 39.16048050
0.95760339 -2.38719749 40.63800430
0.37626612 0.09607595 41.44406891
1.16794014 -0.25636023 38.88024139
0.72068518 -1.04697347 41.25616837
1.99007249 2.13352728 39.84109116
1.14458477 0.20816091 39.05694580
0.48352045 -0.18620779 38.62765503
2.30707407 2.18143702 39.44606781
2.42630649 2.03601217 39.29944229
-0.18907249 2.11333561 39.58316040
1.51875293 1.14747286 39.03759766
1.27396345 -1.42926109 41.28749084
2.02275515 -0.44300523 40.70861816
0.11834610 -0.46983153 40.73173523
1.19024301 0.29964715 38.99904633
1.67747784 -0.81678104 40.24393082
0.44156307 -1.70864761 40.61086273
0.47605264 -0.75328285 41.00932693
0.90955204 -2.05296707 40.17906952
2.15869093 0.32189456 40.79911041
2.31783462 0.04778890 41.23323441
2.54076314 0.25757596 38.86885834
0.16142762 0.54815352 39.64694214
-0.13123453 -0.14145866 39.96974945
2.09098959 0.22922552 39.28253937
0.91517937 -1.15134883 40.04988480
1.71315193 -1.52888179 40.64961624
0.62007457 -0.06442604 41.50702667
2.54296637 0.71433508 40.23458481
2.66976213 1.87130451 39.19092941
1.69965148 -1.40185618 40.68603897
2.52765298 1.76729512 40.43998337
2.20329046 0.42561492 38.74987411
0.58108175 0.09126167 39.01338577
0.06866765 0.72288042 39.00836945
2.20761418 1.42943668 38.95600891
1.94830298 0.43069175 40.09694290
2.16855264 -0.03510368 41.35189056
2.33031607 1.39803469 41.99974442
0.00435925 0.15338625 39.16407394
0.49657053 0.33805531 41.33272934
0.50529909 -0.22817788 39.19191742
2.34002209 -0.15804595 39.02961731
0.60546702 0.21632615 38.74880981
0.32939178 -0.11259937 40.34445953
1.50973892 -0.34673154 41.39921951
1.26323819 -2.09879589 39.73382950
2.29052830 0.12295809 39.14855194
0.13007689 -0.86132824 40.79741669
1.25330555 1.60244370 41.83195877
1.10425711 -2.20008230 40.21242142
1.57156789 -1.84029329 40.29381943
-0.37495995 1.98194993 40.51260376
0.96005988 -1.21981978 39.87675095
1.24820948 -0.96995842 41.43413925
0.25716710 -0.28379306 39.49595261
1.74975228 -0.44928122 40.22995377
2.66399574 0.60199970 40.50324631
2.30602813 -0.10356153 40.87349319
1.92402554 0.48588765 39.71466064
2.52393484 1.94464386 40.61943436
1.15565193 -1.08456981 40.01770401
0.26045215 0.78908789 41.79488373
2.36304188 1.90320015 41.76800156
0.02906060 -0.44950318 40.54832840
1.03417706 -2.40547609 40.58643723
2.11319017 1.66674268 41.63307190
1.04330194 -1.09127307 40.03968430
1.29191709 2.22744036 39.10290909
2.55699444 0.78146499 41.23411942
1.45067358 -2.26675129 40.31180573
1.70110106 -0.19830130 40.94725037
0.21515638 -0.27618593 40.86026382
2.40227842 0.56823254 39.83179855
1.96260238 -0.59584576 40.68880081
2.13683271 0.48243755 39.72587967
-0.08685005 0.54098040 41.42784119
2.05079865 1.37791717 39.34771729
2.49499130 0.98489869 39.04477692
2.71016097 1.07067966 40.33296967
1.07560551 -1.41075170 41.19947815
0.87263095 -0.03506706 39.32670975
-0.41812146 1.31592584 40.58002853
1.27176416 -2.17481422 40.62039185
1.52348912 -2.18310308 39.98385620
1.28466582 0.48762769 41.67827225
1.71363950 0.69804436 39.18798828
2.12754011 -0.44217899 38.85206985
1.20603347 -0.53550750 41.36729813
1.96251380 -0.38035479 40.93236923
2.08077192 -0.70685524 40.50930786
2.50158501 1.57662833 41.31634903
2.49226999 1.08628845 39.37742233
2.37025785 0.07929061 39.06431580
1.60846639 -1.19927287 40.35096741
2.66490149 1.01004159 39.29849625
2.45515919 1.64769876 40.73094559
1.06735504 1.39835131 41.81958389
0.21559632 0.00342387 39.95602798
0.02365065 -0.01352214 39.19449997
2.47290421 1.27696407 39.20114899
1.81690741 -0.43641305 39.12744141
2.02520823 1.71403182 41.95373917
2.40407705 0.84392196 41.68964386
2.31744528 2.18567610 40.57681656
2.51858640 1.32469070 41.36691666
2.01809168 0.16540228 40.53289413
2.10866022 -0.15015408 38.84119797
0.94686729 -1.11445034 40.04186630
1.05032873 0.88117349 41.66551590
0.70492649 0.34749016 41.53651810
0.11235690 0.16961874 40.39640808
0.12444460 0.23608187 40.16487885
-0.09863055 0.08843850 39.23571777
-0.23310816 1.50701857 39.87516022
0.62421930 0.86020583 41.60583496
1.83891547 -0.16627906 39.40428543
0.21794450 -0.25813633 40.72228241
0.67164117 0.31575465 38.95344543
0.69802934 -1.38926470 41.28939056
1.93368876 -1.19409287 40.89364624
2.36183500 1.27734601 38.99077988
-0.08046937 0.89557940 41.85146332
0.52308720 -0.25309187 39.81245804
1.36702192 -2.02256155 40.32755661
2.23321009 0.31039017 39.21377563
2.54291701 1.96057856 40.58045959
-0.17995894 1.63895893 41.69190216
2.20063448 1.94589746 40.50494766
1.72488499 -1.08966815 41.12471008
2.55449247 0.73359829 39.91798401
0.92758369 -1.79852009 40.87395859
1.98683298 -0.74494916 40.55168152
2.06232381 -0.13451716 41.04521179
2.37480497 0.63387018 38.73311615
1.32140231 -2.07078886 39.91853333
0.11776507 0.66938746 38.64430618
0.45863408 0.49205178 41.57319641
2.57476997 0.80082393 39.85449600
0.76549339 0.00269193 39.11317062
1.83225822 -1.45745790 40.79629135
1.49340272 -2.02809501 40.27949142
1.79669142 0.78088248 39.39184952
1.61781192 -0.11611243 38.55335617
2.72918582 1.66968000 40.91370773
2.13979793 0.58182430 38.79694748
1.37006259 2.03317547 39.55527496
-0.22263646 1.76415861 41.66342926
0.85710084 0.35166493 38.73947906
-0.26551366 0.24267107 40.92009735
2.70314455 1.56691062 39.77400208
-0.05340135 0.38224047 41.51294708
2.47624111 0.40883955 38.98974609
1.44596732 -0.01719076 39.17075729
0.49262100 -0.69436193 41.10128021
1.86859012 -1.21969187 40.59872055
0.46167123 1.97092307 39.61567688
1.58680904 1.69877195 39.23775864
1.46553540 2.34045124 38.92441177
1.73228669 0.14724024 39.33964920
2.31549454 0.48798525 39.77518082
1.36110938 -1.70729566 40.82136154
-0.31114841 0.87588567 41.55352020
1.56390643 0.15481545 38.81125259
2.51526213 0.18725966 40.40058517
2.58546257 0.76441371 39.73340607
2.15035343 1.98822653 40.73736954
2.17695260 2.08812284 38.78533554
1.20518911 -2.19298458 40.41880417
0.50277197 1.81679237 38.96842194
1.87534940 -0.37570754 39.04485321
0.13413382 0.75666469 41.74770737
0.10160100 0.99063301 38.77986526
0.44369966 0.48069680 38.97179794
0.44566941 0.22595185 41.35406494
0.46060818 -0.56670427 40.36510086
0.34068167 -0.41039994 39.48369217
1.42276812 2.06676483 39.67737579
2.54504657 1.16288888 41.42066956
1.29196644 0.27063623 39.26491165
1.62132943 -1.55191672 40.97679520
-0.02983487 1.97977364 39.32875061
1.10709441 -1.89017022 40.98395157
1.01907861 -1.58783817 40.74924088
0.85125333 2.11625814 39.00328445
1.42656958 -2.38903046 40.28121185
-0.19907272 0.80462044 39.34529114
2.36056137 1.25643075 41.29683304
1.27668476 1.05578697 41.71709061
2.31786680 1.25641811 39.04816437
1.11078203 -1.73573935 41.02780151
2.41149664 0.31494835 40.03331375
0.96299905 0.30971390 39.40472794
1.63347197 1.63586247 39.24676895
2.41671562 1.59421933 40.35232544
2.40048385 0.54487252 41.10764694
0.99940038 -1.23193729 39.71984482
0.84590381 -0.67635542 39.88209915
2.26751471 -0.09548032 38.94428635
1.75181031 1.96742737 40.63320923
-0.37549925 1.01331592 40.63957977
0.71147650 -0.10415694 39.43606186
1.09204066 1.88440359 40.99985504
0.14661407 0.87222236 39.00568390
2.03347564 -0.26317906 39.13300323
1.89686251 0.10932015 39.92827606
0.46486056 1.43021500 39.08093262
2.37778735 -0.02241466 40.97444153
1.30075705 2.47602463 39.06470871
1.17792201 -1.33634698 39.89582443
2.36235356 0.20076834 38.72968674
2.75387335 2.01611805 39.44075775
-0.44975626 1.39501691 40.70306778
0.46051437 1.25110126 39.20814896
1.36558890 -2.29179192 40.65971756
0.39279824 0.32543549 41.16816711
0.47667235 -1.33995438 40.96146774
0.73411059 -0.34516412 41.40577316
0.10382497 -0.28630728 40.92423630
0.97188270 1.29083407 41.62160110
0.73312807 1.91520882 39.64052963
-0.31784952 1.33449030 40.80621719
1.53970599 -0.13467883 39.19987106
1.41053724 -1.84315777 40.75347519
0.38515902 0.09786339 38.63450623
2.34287119 -0.09477793 40.88858414
2.19615674 0.86783779 38.99674225
0.34640247 0.44331965 39.85371780
0.40589273 -1.04031253 40.37743378
0.14557540 1.80973840 41.23773956
1.96203637 -0.35889885 39.78593445
2.62678719 1.88644278 40.27817917
-0.13508391 0.69543260 41.51202011
1.12656462 2.12725925 38.88617325
1.93533397 -0.19347964 41.26974487
1.48707008 1.62150657 41.90699387
1.71987951 0.43658680 39.41822052
1.54606700 -2.27827024 40.08864975
2.53846788 1.61936903 40.42547226
1.55075610 -1.17632067 41.08062744
1.24172127 -0.03878687 38.83317947
0.40158492 0.39440352 39.25389862
1.43301010 -1.80069375 40.68528366
1.92182350 -0.21565904 40.28404617
1.19262564 -1.53132463 40.31201935
2.36294746 0.79875416 39.47307968
2.14247012 0.05508105 39.30477905
1.35789526 -1.94087565 39.79986954
1.82962990 1.79040825 40.78688049
0.59785622 0.28713059 38.82130814
1.47421527 -1.34782362 40.23615646
1.93696976 -0.54739308 38.87316895
0.18792731 0.25912508 38.65556335
0.15507042 0.49748552 39.44285965
1.93575644 -1.09535468 40.51517487
0.14371240 0.17945747 39.46460342
1.71452260 -0.36101258 38.78302765
1.25252855 -0.57886487 41.39924240
-0.37059951 0.94195747 41.75496292
1.55700660 1.23420966 39.21358871
1.23326957 -2.06869221 39.90172958
1.45755923 1.86375129 39.38167953
2.20545149 0.16949943 39.22975922
1.00792944 -1.10440803 41.27535248
1.43017864 1.86567914 41.08083725
0.07627416 -0.42831290 40.69477844
0.20161599 -0.08528920 38.57128525
0.01973212 -0.28605473 40.95254898
2.71010447 1.23363948 39.39392471
-0.24980009 1.31635427 41.61579514
0.65328103 0.15806539 39.12223434
1.89218390 -0.02617624 39.57897949
1.55505657 -0.17687532 39.41624832
-0.27925920 0.73376292 41.50358200
0.97237724 2.02468777 39.19496918
1.42598426 1.90719795 40.91036224
1.93789101 0.61550516 39.93771744
0.97156739 -2.13621378 40.79426956
0.55552852 0.04171497 38.76150131
-0.01344490 0.34483978 40.89648056
0.89187336 -2.07344103 40.18933105
0.12054527 -0.30883664 41.06636047
-0.23456764 1.23436069 41.91397858
0.04563904 0.06525165 41.12467957
0.29712576 -0.32624233 40.65084839
2.04268122 1.42717338 39.13633728
2.48083878 1.25555253 39.09622574
0.94351947 -0.51170290 40.09764862
0.87095428 -2.33301020 39.95473480
1.32657731 -1.63519490 39.90440750
-0.15272117 0.88918000 38.82864761
1.91938949 -0.41206101 39.48371506
1.98943520 0.68616176 41.89801407
0.52038395 -0.83540165 41.11995316
0.61540842 -1.99422562 40.55342865
1.07141697 1.28597391 41.72579193
2.15580702 0.75551587 42.07770920
0.08948255 1.22995353 41.69431305
1.90488088 -0.35811573 39.93243027
1.31862640 -1.55054724 40.90495300
1.51811016 -0.26911065 39.23860168
1.34863830 -1.54128325 40.02923203
1.71766877 1.38829088 41.86333466
1.23668182 -1.44458640 41.13833237
1.00744224 -1.15507460 39.91419601
1.74324977 -0.21955390 41.29973602
1.62896562 -1.66832113 40.07441330
2.55012465 0.46787030 41.26147461
2.27011299 0.24769637 39.47381973
1.74843371 1.73446953 41.79840088
1.92336369 0.21542516 39.47370148
1.56758893 1.14318287 42.00145340
2.23799825 1.01035511 38.83360672
0.84572983 -2.26151466 40.91242599
1.44196200 -2.16809511 39.70108795
1.75794744 1.78836334 39.30695724
0.07803607 1.34502184 39.00587082
2.68616891 1.88222456 39.62073135
0.58615661 -1.73780560 40.17081070
0.36146039 0.30289298 39.09640121
0.38624495 -0.43356904 40.88068008
0.80799359 -0.01276580 38.81319427
0.45828795 0.57315511 41.59068680
1.32946730 1.03352940 39.21836472
0.53206533 -0.26564673 41.26199341
1.54937148 -1.99798107 40.22902298
2.70654631 1.13008881 39.74065399
1.62616682 1.76717949 39.39237595
-0.35586226 1.13655174 41.66590500
-0.00806475 1.86433876 39.24457169
1.77356720 0.67530370 41.92877197
-0.23620057 0.96258521 41.53874969
1.19081223 -2.49691200 40.46942139
-0.29474342 1.70114505 40.06921768
1.49058199 0.63717616 41.86265564
1.05536091 -0.12307979 38.87393570
1.86299682 0.40316319 39.68317795
0.90603358 -0.66244298 41.26712799
2.37809944 1.56781411 40.42792130
2.45852375 1.66472733 40.36032867
1.51236582 1.37220979 41.74341583
2.35251141 1.64163613 41.64749146
1.20382273 -1.02286780 41.26629257
2.23003531 2.23507977 40.07009125
1.89225221 -1.28860259 40.88739777
1.14513481 -1.02124953 40.24851227
0.11752725 0.43558934 41.24367142
-0.15671337 2.18430471 39.79334259
0.44925302 0.83875328 38.98419952
0.74209273 0.24322933 41.53183746
0.58436322 0.37962553 41.58024979
-0.10808802 1.69309163 40.64793015
1.05215693 -0.06822806 39.09571457
2.52938581 1.24689889 41.31459427
-0.44185102 1.38456392 40.79957581
0.31523693 0.44504198 39.42210388
0.85695076 -0.46350241 39.99551010
1.09918141 -1.04359090 40.04187393
2.50277472 0.60420549 41.53925705
0.89098644 -1.99940968 40.74805832
-0.20742953 1.63611066 40.12040710
0.84123820 -0.39485598 40.01654816
2.08798528 -0.12238949 38.73486328
2.59829259 1.67297995 39.65170670
1.64788878 -0.65133017 40.21250916
0.53921574 -0.06629131 41.57181168
0.10824347 0.48449737 40.10916138
2.80021167 1.34728563 41.35212708
1.17348897 -1.50988555 41.07230759
1.07704115 -0.87436187 40.02573013
2.52899027 1.72136509 40.42048264
2.27197933 1.70533729 41.08233643
2.31707621 0.15335774 40.78267288
1.28876901 1.95596004 40.01046371
-0.22594142 1.08240199 41.56455994
1.73739886 -0.08790857 41.57485199
2.39172840 2.03828478 39.96079636
1.47356725 -1.85510123 40.34090805
0.13573444 0.19631395 39.99077606
0.62878954 -1.81557345 40.45788956
2.44337893 0.79028445 39.26103210
1.33313930 1.49685693 39.06049347
0.31865543 1.21964777 39.17884827
-0.11614025 1.83881855 41.25465775
0.12009037 1.16293657 38.91010284
2.33516645 -0.27182850 40.88543701
0.97690654 -2.22356129 39.98216629
0.32022464 -0.03526525 41.08184814
1.66391683 -1.87872779 40.28155518
-0.43634188 1.10328948 41.78593063
0.17769635 -0.10637702 40.86569214
1.76430249 0.16603829 39.28204727
-0.42263126 1.22840643 41.40262985
1.51056886 -0.06310207 38.99682617
1.51432109 -0.03086234 41.57710266
2.46518326 0.60642368 40.49007797
1.88354993 -0.10804757 38.95634460
2.33786774 1.84623659 40.28677368
1.05682695 -0.10147943 39.28734207
1.55565381 -2.10348892 40.34032059
2.30248260 1.21948397 39.29787064
0.88439333 0.08938602 41.42209625
-0.09788716 0.52015215 39.33688736
0.70718473 1.89683175 39.07815552
-0.00981772 0.48434830 39.29231262
2.30102968 1.84844851 41.65172577
0.90875590 2.13799000 40.71792603
1.33261538 -0.78149742 40.06293488
0.99444151 1.44072926 39.25849533
1.63320434 1.82901144 38.99634552
1.95793819 2.41298914 39.29357910
1.55554891 -1.63737178 40.92926788
-0.35958278 1.20180464 40.93637466
0.65506560 -1.53591311 40.98220825
0.67455918 -1.55356741 40.29387283
1.24892282 -1.98556471 40.07664490
1.84583163 -1.28572392 40.51676559
0.38142776 0.26176929 41.24802780
-0.26660323 1.10964227 40.85279083
0.28968310 0.25967965 41.33098984
1.14171290 1.91046476 41.14625168
1.51751173 0.41213855 39.41918945
2.47309113 0.15325555 40.46159744
0.01549745 1.48964512 39.06938171
1.13269103 0.47375393 41.50691223
1.99196553 1.36834574 41.95810318
0.79684699 -0.84796935 41.16986847
2.46494508 0.97831833 39.09502029
0.86755157 0.92711002 39.13725662
2.56218767 1.37619269 39.50893021
1.23810065 0.10224196 41.58434296
-0.13960445 1.09168220 40.62024307
2.58253741 2.30787420 38.87337494
1.87353897 0.20313323 39.48290634
0.42747480 -1.21805680 41.00984192
2.20416498 1.23187411 39.06459808
0.36310959 1.63435221 38.93339920
0.14851773 0.57946771 38.70734787
0.02829778 1.63649690 39.17124557
2.70903516 1.23682010 40.10744858
2.03252268 -0.28601301 38.59305191
2.60831118 0.97119343 39.97159576
0.56188285 -0.38414440 41.24420929
0.75551659 -2.07865620 40.59915161
-0.21439922 1.93782496 39.62314987
2.54960632 0.76103723 40.51119232
2.33949518 1.43083239 41.40371323
2.19869614 0.62658805 41.86957169
-0.34670436 1.78164124 39.76580811
1.66685820 -0.40326059 40.91997910
1.62457514 -0.89270985 40.24585724
2.45203733 0.01254249 40.43366241
2.55304933 1.15530527 39.32510757
2.32990050 -0.47349012 41.06111908
0.21169335 0.37296063 41.27353668
2.47413802 1.98325217 40.40354919
1.59973204 -0.82323813 40.37121201
0.71771818 -0.23259634 41.51620102
-0.10578549 1.31712675 41.49572372
2.62670851 0.58267707 40.62789154
0.07002199 0.08405939 39.18131638
2.55715179 2.05770397 38.96634674
2.46028471 0.83061260 40.87460327
1.81112528 -0.14736883 40.97813034
1.19220603 -1.09474134 39.93533707
2.40312243 1.93676984 41.19112778
1.11504924 -2.01831770 40.32677841
0.27251357 -0.96322042 40.76471329
0.79912984 -2.24515438 40.43597794
2.57217479 1.53241003 40.35097122
2.75341320 1.83040571 40.26372528
0.32016850 -0.39349163 39.81760406
0.09193206 -0.10378505 38.63216400
1.57195783 1.39427400 39.09656525
1.49381578 1.95400274 41.01342392
1.49650097 -0.03732161 38.65954208
2.62793183 1.35218763 39.23388290
1.37886024 -0.65512109 40.04757309
1.63619900 2.02327347 39.63829422
1.76451421 -1.32467258 40.48674393
2.15436172 0.02515802 39.29169464
2.31530976 -0.25995857 40.68715668
2.07882142 1.47948134 41.83928680
0.19250441 0.88972992 38.87817001
2.01092386 0.15062009 40.19895935
2.11161494 1.49429917 39.27269745
2.03966260 -0.44133002 40.52425003
0.20019740 -0.52194369 40.57516098
1.10845125 -2.10517359 40.46050644
-0.13665164 1.49959302 39.94385910
0.19202971 -0.05297308 38.69936371
0.20715111 -0.09919930 38.66067123
0.40021521 1.86106420 41.21852112
0.92019141 -2.30920792 39.79360199
0.59350955 -0.16293854 41.42117310
0.72776985 0.19267187 38.57920074
-0.00595212 0.42485896 39.88378143
-0.19325197 1.76556146 41.25532532
2.32581925 0.13588271 38.80384827
2.63105059 2.19067097 39.15155792
1.96238422 -0.94682312 40.93409729
1.62607086 0.71803522 41.76125336
0.12572515 0.32234433 41.11259460
1.03096938 -0.14356247 38.87237167
