-0.00556417 0.20452867 0.00093044
-0.00791421 0.04734964 -0.04355021
-0.01552281 0.14956518 0.01417110
0.00255513 0.20048951 -0.03019846
0.03265083 0.06927066 -0.01786898
0.00740245 0.18284826 0.00067605
-0.01100549 0.15992007 0.01984924
-0.04469246 0.06394348 -0.00923806
0.02067434 0.10174920 -0.01833744
0.03604282 0.16926427 -0.00022061
0.01153653 0.07999776 0.01596451
0.01787884 0.11441216 -0.00131108
0.01288780 0.06662323 0.03204001
0.01794118 0.09090468 -0.01971092
-0.00420317 0.18646930 -0.03121562
-0.00914327 0.15893500 0.01977009
-0.02025251 0.08265577 -0.01296533
-0.00578333 0.17394875 -0.03237738
0.01079061 0.10382047 -0.00345560
0.02407315 0.08270944 -0.02225035
0.01684736 0.05090024 0.01274013
-0.01358233 0.08016930 -0.03332277
0.01833055 0.21399389 -0.01154574
0.00411523 0.08978278 -0.03078490
0.02503223 0.18473449 -0.00254513
0.01409261 0.21069649 -0.00104373
-0.00096645 0.24352711 -0.01729282
-0.03076318 0.15365598 -0.00632366
-0.03192217 0.07218933 0.01449115
-0.01572297 0.09397180 -0.00800501
-0.01994408 0.08338726 0.02182640
0.00637774 0.06084427 0.03668701
-0.02990635 0.14823826 0.00574177
0.00880772 0.05757298 -0.03291749
0.02182633 0.06532741 -0.03201175
0.02453986 0.05452282 0.01981898
0.01858680 0.11412382 -0.00361845
0.03298820 0.13688231 -0.01826717
-0.00265747 0.06985208 -0.04389066
0.02869776 0.17538202 -0.01884867
-0.03813959 0.06601456 0.01787728
-0.01431065 0.20887604 -0.01244211
-0.00145493 0.05441605 -0.03219467
0.00198801 0.21537632 0.00880121
0.00083682 0.07957350 0.03052379
0.01490359 0.09050114 -0.03033600
-0.02399896 0.17143826 -0.02565630
0.02554305 0.05432741 -0.01289133
-0.03663011 0.05924082 -0.02016340
0.00550124 0.10731116 0.00072595
-0.00752082 0.18380429 -0.03269246
0.02488676 0.09958835 -0.01942860
-0.03165264 0.05956286 -0.03506182
0.02177158 0.10966264 -0.01525838
0.01619652 0.10329356 -0.03024161
-0.02782637 0.13329130 0.00189869
-0.00675890 0.24630488 -0.01510799
-0.02481449 0.08592751 -0.03734234
0.02140214 0.15266259 -0.02959320
-0.00456257 0.14112253 0.01941703
0.02623968 0.24297109 -0.01642524
0.00581178 0.05279329 -0.04136582
0.00024195 0.09426836 -0.00409235
0.01667971 0.14676559 0.01412105
0.03115610 0.22471634 -0.01915343
0.00206838 0.05684359 -0.04871989
0.03337710 0.21590294 -0.01220384
0.00187470 0.07828870 -0.03227776
-0.01613477 0.05898701 0.01358660
0.00038155 0.08211490 0.01437243
0.00448692 0.20061639 0.00762504
-0.01229501 0.06038607 -0.03194337
0.02044697 0.15858635 0.01695539
0.00766432 0.09416145 -0.00031853
0.00866785 0.08377361 -0.01657081
0.01367540 0.24383423 -0.02164840
0.02795389 0.22550723 -0.02205851
-0.02864074 0.08219261 -0.00490636
-0.01381530 0.19870922 -0.00649921
0.02810453 0.15343884 0.00551815
-0.00789784 0.05854753 -0.01388667
-0.03894009 0.09277496 0.00017613
-0.03226554 0.10411602 -0.00551469
-0.01053194 0.24401367 -0.02397534
-0.02261767 0.14403559 0.00479911
-0.01133929 0.08953461 -0.00791382
-0.02628453 0.15882681 -0.01872226
0.03559037 0.19527674 -0.01341345
0.02412562 0.13059811 -0.01072015
-0.02043980 0.22463448 -0.02002551
0.02507673 0.18566257 0.00062521
0.00730077 0.15812911 0.02208662
0.00199508 0.09176648 -0.00085318
0.02208969 0.16084716 -0.01935977
0.03844349 0.16649875 -0.01347375
0.01879999 0.13068460 -0.00077433
0.03839677 0.18472758 -0.02817004
0.02581166 0.11503565 -0.01810625
-0.04412155 0.05855185 -0.00869016
-0.03882168 0.09694435 -0.00667305
-0.02507074 0.11831118 -0.02548812
-0.00276778 0.13334112 0.01276017
0.01972782 0.08245708 0.00279431
-0.00961989 0.08240327 0.00804564
-0.03112289 0.09061229 -0.01700231
-0.02481037 0.12286928 -0.00057359
-0.04860136 0.07107226 -0.02318211
-0.02376958 0.05597941 0.03036346
-0.02240236 0.15094268 -0.02421382
-0.00436428 0.07637060 0.02823137
-0.02055280 0.22301047 -0.02677111
0.02158590 0.19711417 -0.03377418
-0.02969352 0.11579925 -0.03212877
-0.03111801 0.13680048 -0.01522197
-0.04129708 0.09927899 -0.00667108
-0.02472118 0.12548667 -0.02294684
-0.04530472 0.06882941 -0.00289654
-0.02301335 0.13508390 -0.01273781
-0.02101596 0.07580266 0.02708745
0.03084362 0.18444818 -0.00932505
0.03397027 0.13850117 -0.01301512
0.01840978 0.24616000 -0.01744609
0.01307215 0.08557303 0.01592100
-0.02918822 0.09346811 -0.02467430
-0.01331728 0.20357984 0.00215114
0.02900323 0.10683792 -0.00866177
0.01692310 0.09298235 -0.03780141
-0.00872624 0.23962045 -0.01093437
-0.00139854 0.06155071 -0.00945849
0.03463922 0.19599676 -0.01258887
0.01781097 0.14242005 -0.02577080
-0.02173515 0.18861385 -0.01754496
0.00687314 0.10482062 -0.00491934
0.00387958 0.07601011 0.01673811
0.01819598 0.06240990 -0.02134961
-0.03063520 0.19517832 -0.01941348
-0.01024785 0.05956698 0.00495682
0.01831735 0.16815203 0.00758566
-0.02280626 0.07987754 0.00847206
0.02402137 0.15103579 0.00455086
-0.02737841 0.13850878 -0.00164086
0.03037094 0.10431078 -0.01598208
0.03009347 0.07375764 -0.00273076
-0.02727618 0.20473763 -0.02134845
-0.02606424 0.06591833 0.02619153
0.02001410 0.16418150 -0.02467544
0.00873967 0.17655756 0.00822521
-0.00646717 0.07861160 -0.00695538
0.02613547 0.22855708 -0.01555528
0.01492547 0.23957953 -0.00897082
0.01377793 0.24603590 -0.01623450
-0.01005263 0.17547926 -0.01952313
-0.01804910 0.06143449 -0.02210981
0.02099263 0.09522177 -0.02480933
0.01221057 0.05576802 0.02419898
0.00243567 0.08189490 0.01368631
0.01980156 0.06374920 -0.04025115
-0.03942680 0.08033818 0.00569804
-0.02930493 0.20817792 -0.02224590
-0.00014657 0.12926590 0.01077318
0.00395878 0.14454262 0.02393512
0.02079256 0.05966707 -0.01198534
0.00397360 0.11062059 0.00823947
-0.00151874 0.07922503 -0.02529432
-0.02824062 0.11699443 -0.01634908
0.03091112 0.17345358 -0.00620089
-0.00891228 0.14214990 0.01133279
0.00219828 0.17235671 0.02188442
0.01657749 0.16313191 0.02229508
0.02570821 0.15008558 0.00297299
-0.02206654 0.14329115 -0.02321228
0.03267252 0.18971394 -0.00484691
-0.01796082 0.15045373 0.00981610
0.01930926 0.15147221 0.01856911
-0.01727984 0.08569098 -0.01090096
0.01216866 0.09287616 -0.02353651
-0.02867150 0.16585997 -0.01766364
0.01148815 0.16436134 -0.03205864
0.00947439 0.05233896 0.01971087
0.01925037 0.17309844 0.00569342
-0.00487116 0.12825865 0.00696926
-0.01915202 0.18614025 -0.02718896
0.00656163 0.20828110 -0.02249540
0.01340257 0.10625695 -0.00653811
0.01160367 0.09126300 -0.01775398
0.02968479 0.14552633 -0.00848022
-0.02640092 0.13712619 0.00424406
-0.04301202 0.07000292 0.00357490
-0.02473252 0.09496060 -0.01842937
0.01973063 0.17053944 -0.01713303
-0.01406247 0.08734265 -0.03686888
0.00826690 0.12405042 0.01292058
-0.01764377 0.13353232 -0.03061954
-0.01514890 0.08733625 -0.01873966
-0.03286720 0.08404826 -0.01626140
0.01804368 0.11656664 -0.00219226
0.02335816 0.24002716 -0.02753253
0.02670443 0.06459965 0.00803385
0.00491381 0.08057203 -0.00389858
-0.01829597 0.05892672 0.02687555
-0.02655732 0.05865283 -0.03732625
0.01430854 0.07042390 0.03043480
-0.00698238 0.05578521 0.01574707
0.00638814 0.07574122 -0.03604121
-0.02048670 0.09920266 -0.02828567
-0.03019751 0.13652062 -0.01574367
-0.02962731 0.19484925 -0.01169055
0.01950175 0.16676196 -0.02785621
-0.01093952 0.14309660 0.01391605
-0.00997564 0.06239939 -0.03120316
-0.01779217 0.12473121 0.00258107
-0.02091703 0.12576228 0.00056413
-0.00637342 0.17699113 0.01226508
0.00822311 0.07328145 -0.04484054
-0.02197668 0.07641292 0.02144363
0.03248911 0.22162434 -0.02507686
0.00647293 0.09012939 -0.02878374
0.01242371 0.07993138 -0.03210315
-0.03275447 0.06672610 -0.00306770
-0.02065868 0.22609681 -0.02008391
0.03159671 0.14161438 -0.01877059
0.02819979 0.17496735 -0.02290590
-0.02962907 0.23397481 -0.03042688
-0.01274756 0.07724688 0.01763152
0.00480508 0.19602600 0.00993477
-0.01578153 0.05865407 -0.03019383
-0.00213511 0.20410571 -0.01512065
-0.02202958 0.05637025 0.01469246
-0.03058137 0.12680696 0.00826318
-0.00187462 0.20994303 0.00772668
0.03188623 0.23162666 -0.01860515
-0.01348703 0.17548634 -0.02268164
0.02878420 0.18104155 -0.00719516
-0.01413833 0.15837979 -0.02785121
-0.03510201 0.07661557 0.00891817
0.02949746 0.07785889 -0.01594246
0.01972901 0.14216258 -0.02546065
-0.01571398 0.18157774 -0.02989798
0.01923127 0.13449194 -0.02936139
-0.01684422 0.08424928 -0.01648949
0.03793721 0.23531404 -0.02544503
-0.02679827 0.10402913 -0.02565106
0.02823681 0.16188775 -0.02212596
0.02928645 0.18980540 -0.00312227
-0.02693761 0.25300944 -0.01683254
-0.00447126 0.07890752 -0.00068332
0.01635617 0.24316981 -0.03049672
-0.01111040 0.14403272 -0.02634235
-0.00117013 0.06140280 0.00016380
-0.03854761 0.08149598 0.01416444
0.01777053 0.14651974 0.01702034
-0.00113506 0.07445922 0.00561066
0.02561885 0.12227813 -0.01588080
-0.02811068 0.19594726 -0.02609561
-0.03060948 0.15688668 -0.01485809
0.01284121 0.08152109 0.00052056
0.02242580 0.07818257 0.01279904
0.01893588 0.10242282 -0.02552311
-0.00369898 0.08090651 0.02618443
-0.02429591 0.10249628 -0.00344831
0.02855995 0.14831370 -0.02090301
0.01742700 0.08047220 0.01892309
-0.02590191 0.14389622 0.00191996
-0.01377333 0.17245096 0.00789720
-0.03004649 0.13703808 -0.02710622
-0.03578310 0.05409933 0.00200694
-0.01801074 0.17772220 -0.01138335
0.00858189 0.23353779 -0.01377861
-0.01080571 0.08132492 -0.03845255
0.00655311 0.05943513 -0.02789377
-0.01145601 0.08877189 -0.00589365
0.03297080 0.18485910 -0.00141490
-0.01568764 0.17196944 -0.01767759
-0.01208933 0.10857008 0.00516680
-0.03660297 0.12364887 -0.01537555
-0.00975019 0.18118931 -0.02959620
-0.03726158 0.07897759 -0.01376251
-0.02469951 0.15677206 0.00739471
0.02241480 0.20721811 -0.00913415
-0.02915633 0.11565350 -0.00423478
0.01736958 0.24193397 -0.01241731
-0.03773110 0.06241968 -0.00522627
-0.02142336 0.23251280 -0.02682045
0.00976555 0.21615139 -0.01548059
-0.02843129 0.13734575 -0.02091037
0.00759803 0.18345293 0.01103156
0.03251919 0.06164111 0.01255052
-0.01499778 0.13223413 0.01485425
-0.01551461 0.08073378 0.02020922
-0.00235257 0.20890483 -0.02707805
-0.01975023 0.14757915 0.00527961
0.00512949 0.19790913 0.00806504
0.01717865 0.23747949 -0.02715019
-0.00934332 0.18070373 -0.00491223
-0.00991087 0.08385839 0.00320624
-0.01816322 0.14049749 0.01236420
0.03540300 0.05765078 0.00483950
-0.02427230 0.08000945 0.01138181
0.00519294 0.11128960 -0.00032714
0.03011622 0.18990473 -0.00399645
-0.04150376 0.07807687 -0.00832453
-0.00220677 0.05765372 0.03593262
-0.02960383 0.09815206 -0.00748945
-0.03224759 0.12684347 -0.01409520
0.00576288 0.18432455 -0.02917576
-0.01872944 0.05890135 -0.00530413
-0.02533004 0.20019057 -0.02464649
-0.00329483 0.05512772 0.02880272
0.03074323 0.19359836 -0.00567005
-0.03980464 0.07231777 0.01141080
-0.00696629 0.10108970 -0.03510044
0.00701709 0.12430146 -0.03550328
-0.01327406 0.05861479 -0.02273406
0.03220169 0.06940599 -0.01679540
-0.03833303 0.10980597 -0.00951347
-0.02686462 0.10612263 -0.02594234
-0.03063899 0.06654447 -0.03185051
-0.01385227 0.17232539 -0.02582097
-0.02789644 0.06081452 -0.01941146
-0.02070769 0.16310328 0.01112105
-0.00787787 0.17621902 -0.03098562
-0.03427895 0.07936298 -0.02743354
0.02798639 0.13081686 -0.00827189
-0.00483938 0.17752554 0.00578100
0.01911751 0.18185928 0.00029522
0.00316524 0.10854583 0.00880205
-0.02302551 0.24441853 -0.02808045
0.01453376 0.10237987 -0.00135639
-0.02440247 0.13171272 0.00801755
-0.03620020 0.07620985 -0.02244849
-0.02368263 0.05182779 0.02357670
-0.03544556 0.10489859 -0.01833492
0.03002605 0.17404598 -0.00695821
-0.00349213 0.06910612 0.03742481
-0.02209673 0.13762634 -0.00844596
0.01101979 0.22216785 -0.00427292
0.02803346 0.18049690 -0.01145385
0.01507859 0.15499370 -0.03196374
-0.03456349 0.08744612 -0.02292130
-0.01780669 0.14442046 -0.03103112
0.00312721 0.19983768 0.01416582
0.03204621 0.14442371 -0.00376584
0.00096734 0.09000663 -0.01189937
0.00577185 0.20605388 -0.02873982
-0.03015775 0.12517287 -0.00455124
-0.03867947 0.13795272 -0.01387744
0.00761135 0.06331361 0.02189419
0.03140920 0.14862949 -0.00439595
-0.02475050 0.15100640 -0.01793416
0.02303679 0.13705540 -0.01101386
0.02222460 0.10287847 -0.02627241
-0.01449979 0.23447578 -0.02739095
-0.03101993 0.15404585 -0.01729251
0.02765460 0.07875747 -0.02709563
0.02448591 0.08553478 -0.00736679
0.03260040 0.20510872 -0.02064996
-0.02967403 0.09207865 0.00630019
-0.02579989 0.09602107 -0.02171102
0.00064511 0.22130957 -0.00034178
-0.01077327 0.12524980 0.00686541
-0.02200264 0.14632398 -0.00121146
0.01759252 0.12177038 -0.03441636
0.02466568 0.09538920 -0.02236321
0.01774875 0.09230413 -0.02671994
-0.03756928 0.07333297 0.00095551
0.01339348 0.09605319 -0.03279584
0.03842124 0.17968266 -0.01506234
0.03658859 0.18223056 -0.01977967
0.03037515 0.20505930 -0.00879558
0.02293143 0.12770945 -0.01817045
-0.02439443 0.06038333 0.02027898
0.02145297 0.20838451 -0.02908266
-0.03579624 0.05855367 -0.01699420
-0.02334097 0.09344824 -0.02573185
0.03050519 0.16281496 -0.00533765
-0.01017656 0.17304346 -0.03103067
-0.02962182 0.11377968 0.00134109
-0.04630572 0.07258409 -0.01617821
-0.00439503 0.06608568 -0.04459479
0.03533580 0.18793832 -0.02291750
0.02823853 0.16635576 -0.02509675
0.00066388 0.10096033 0.00309521
-0.01525778 0.16395555 -0.00462003
0.00794073 0.20573671 -0.03439166
0.01947916 0.08290365 -0.01373527
-0.01337805 0.06314892 0.01096945
-0.04007451 0.08026548 -0.02433292
-0.02593924 0.05441298 0.01385823
0.02951728 0.07183798 -0.02973054
-0.01673811 0.18962803 -0.03089636
0.03244778 0.20160773 -0.00696874
0.03275817 0.17293528 -0.00939400
-0.02082904 0.19283111 -0.03143425
-0.00771903 0.12350234 -0.03185876
-0.02704621 0.20253636 -0.02059309
0.01386927 0.09706163 -0.00989188
-0.01917241 0.14597851 0.00803420
0.01855192 0.06634464 0.02711375
0.00111352 0.07868928 0.01432957
-0.00301730 0.20864700 0.00778047
0.01331525 0.06906090 0.02609299
0.01320843 0.16255091 0.01474093
0.00188772 0.20311880 -0.02757274
0.01987842 0.10082272 -0.02749642
-0.00185657 0.12075426 0.01452673
0.02920956 0.20160186 -0.01688566
0.01200906 0.09742394 -0.02842242
0.02842527 0.06752341 -0.01680360
-0.03015909 0.12858270 -0.02078108
0.01801791 0.16335331 0.01418811
0.01996770 0.23970526 -0.01330541
-0.01683055 0.09052616 -0.02005278
0.01864007 0.18860486 -0.03401067
0.03121134 0.14726499 -0.00035834
-0.03286244 0.07064473 0.01730970
-0.00886467 0.06020274 0.01014327
-0.03598300 0.05938918 -0.00093939
0.01942240 0.10832313 -0.03103198
-0.01985208 0.12200128 0.01280583
0.01163032 0.22270471 0.00083181
0.02002935 0.11101143 -0.00838637
0.00520572 0.17985696 -0.03198200
-0.01609115 0.21194087 -0.00531599
-0.00152954 0.04929825 -0.04051638
0.02086946 0.24061722 -0.02190895
0.00443006 0.22277749 -0.00007697
-0.03803984 0.07739982 -0.02577125
-0.03074328 0.12345041 -0.01060366
-0.01445857 0.20230897 -0.02893439
0.00193501 0.12075492 0.01026788
-0.01710885 0.06006088 -0.01473300
-0.02622014 0.13734417 -0.00415676
0.00169025 0.18686050 -0.03676536
0.00337615 0.05744915 0.02350914
0.01894891 0.05551673 0.01325748
0.01884351 0.16383541 0.01612199
-0.03283658 0.05297948 0.01410105
0.01901897 0.17207783 -0.02755044
-0.00573286 0.09500325 -0.01073875
-0.03632630 0.13045430 -0.01169714
-0.02708998 0.05791984 -0.02575928
-0.00671244 0.09322298 -0.00174346
0.01322997 0.16322179 0.01942218
-0.00057590 0.24327280 -0.02313386
-0.00622112 0.10190570 0.01004761
-0.01480989 0.08755623 -0.03133606
-0.01200548 0.16799095 -0.02655418
0.02446845 0.16778222 -0.00679584
0.01348220 0.06112798 -0.03487222
-0.02617166 0.14603768 0.00130436
0.02232639 0.11148383 -0.00639713
-0.00665112 0.08003578 0.00933301
0.01603721 0.25071990 -0.02366101
0.00202281 0.06422753 -0.03533439
0.00313278 0.12467970 0.00652110
0.03789876 0.20780548 -0.01576843
-0.03878202 0.09072019 -0.00183520
0.02598721 0.15106325 -0.01404944
-0.02126162 0.14697568 -0.02636080
-0.02594566 0.11247064 -0.00376884
-0.04267875 0.07409814 0.00629295
0.02645998 0.13881518 -0.01737557
-0.02297414 0.08501365 0.01707363
-0.01982268 0.07864145 0.02899398
-0.02471386 0.07304700 -0.04605745
-0.03051043 0.08467648 -0.00833853
-0.02724245 0.05281629 -0.03297368
-0.03057237 0.23721558 -0.02926146
-0.01334105 0.08305576 -0.00770208
-0.00204461 0.19058575 0.00628087
0.01045832 0.19711342 -0.02756529
-0.01600609 0.11836976 0.00608232
-0.00141460 0.13765636 -0.03537220
-0.03672246 0.05642978 -0.02776974
0.02099095 0.10983329 -0.02138191
0.02662367 0.13917592 -0.01382227
-0.00452900 0.18538672 -0.00179282
-0.03276481 0.05584571 -0.02952743
0.01433346 0.24482018 -0.02398014
-0.01648168 0.06182619 0.00474149
0.03658085 0.14973038 -0.01879302
0.00648806 0.10873339 0.00320580
-0.01328527 0.12166128 0.01234917
0.00262807 0.05994294 -0.02901545
-0.02565030 0.14813663 -0.02877096
-0.01412559 0.24528666 -0.01508534
0.00673894 0.05636485 -0.00732792
0.00780018 0.24429369 -0.01111860
-0.02257395 0.22011903 -0.02909054
0.00069123 0.05648112 -0.04956163
-0.03077979 0.14272824 -0.01859525
-0.00435967 0.07656700 -0.04232510
0.01068263 0.07983635 0.01167106
0.01156812 0.16163158 0.01367186
0.02453516 0.13799262 -0.00099272
-0.00251623 0.05384237 -0.03504602
-0.02996964 0.10260513 -0.01294304
-0.00011817 0.06324547 -0.00862745
-0.01073009 0.11772622 0.00738983
0.01616784 0.09209196 -0.02508478
-0.02463787 0.11461230 -0.02483130
0.01929204 0.05514622 0.01339287
0.00747810 0.06657539 0.02442743
0.00455504 0.07685916 -0.03980573
-0.00925194 0.07984062 0.01307120
-0.02011696 0.14732160 0.00239433
0.03370823 0.07040841 0.01978695
0.03122113 0.21035749 -0.03371453
0.02204167 0.05958309 -0.00920432
0.01470077 0.21168616 -0.02531676
0.02340921 0.21458907 -0.00886015
-0.00427695 0.10604106 -0.03051817
0.02538879 0.13846169 -0.02952448
0.00889831 0.08443167 -0.01061250
0.01546709 0.11232203 0.00060619
0.00603476 0.21582766 -0.01928711
-0.04170851 0.07740196 0.00965521
-0.02896350 0.18152167 -0.02505481
-0.02954198 0.10031018 -0.02751068
-0.00012995 0.18101075 -0.03059954
-0.03246658 0.08224269 -0.00244835
0.03015236 0.16404761 -0.00825325
0.00936942 0.13670531 0.01161452
0.01139882 0.08034638 -0.01879874
-0.00936966 0.20513026 -0.00831095
-0.01656942 0.12609594 -0.03006665
-0.02737152 0.20112871 -0.01490555
-0.01410451 0.08059217 -0.00358962
-0.03827281 0.07424323 0.00836097
0.02728184 0.05390386 -0.01329858
-0.03865308 0.06726178 0.02427352
0.02041216 0.20105338 -0.03060712
0.01150095 0.11580547 -0.03075854
0.03111348 0.21500242 -0.01105298
0.03326452 0.05654094 0.00788037
0.02555820 0.11781948 -0.01459292
0.00508510 0.08611798 -0.02742014
-0.01471147 0.05587471 0.02631563
0.03496885 0.20080936 -0.02569614
0.02998799 0.23002391 -0.01991396
-0.03808200 0.13681030 -0.01857674
0.01543101 0.05614123 0.01258120
-0.00837097 0.06683403 -0.05096945
-0.01765975 0.15278172 0.01144127
0.01456249 0.18617015 -0.00071862
0.00610068 0.08710787 -0.03760180
0.02623556 0.05695783 -0.02465162
-0.03461216 0.14142449 -0.00417727
0.02770975 0.20756699 -0.00800911
-0.02255216 0.06944852 -0.04018341
-0.02040461 0.16633216 -0.01659964
0.01357433 0.07193141 0.01939130
-0.00600338 0.17017579 0.01944842
-0.02777173 0.19870323 -0.01871756
-0.03234952 0.16946326 -0.02473608
0.01090177 0.20699599 -0.00399678
0.02568890 0.16538820 -0.01121145
0.00519529 0.10235028 0.00291257
-0.03422360 0.14102654 -0.02720954
0.01195450 0.22283551 0.00403966
0.03245844 0.23974943 -0.02829887
0.03478287 0.19307618 -0.01069475
0.01315246 0.12953435 -0.03578509
0.00313328 0.16533102 0.02082240
0.02533664 0.23716027 -0.01981082
-0.00334927 0.20110285 0.01377929
0.00991071 0.14004676 -0.03274674
-0.02653976 0.15687238 -0.01303111
-0.02068107 0.08757772 -0.01930132
0.03456467 0.06814028 0.01022242
0.03086050 0.07904112 0.00693181
-0.02451729 0.13497418 -0.01911307
0.03327402 0.14501309 0.00017696
0.02065746 0.05843890 0.00201150
-0.04084257 0.05814470 -0.01941549
0.03402141 0.15879717 -0.00307128
-0.01008713 0.07311396 -0.04259963
0.02040899 0.22969118 -0.02474360
0.01427992 0.19421190 -0.00606765
-0.00134485 0.05906672 -0.04166281
-0.01878361 0.16025728 -0.02184389
-0.01896123 0.05337950 -0.04418054
-0.04008429 0.07363751 -0.02148867
0.01334468 0.06514473 0.01494494
-0.02814643 0.06647295 -0.03879187
0.00517768 0.10528372 -0.03338885
-0.03252643 0.05937400 0.01525245
0.02543239 0.15124501 -0.02518849
0.02645692 0.24751306 -0.01161222
0.02927427 0.07408571 0.00909564
-0.03741719 0.05754074 0.02143643
-0.01382816 0.08836916 -0.01956079
-0.03283317 0.12385157 -0.01269251
-0.01589232 0.07923537 0.01528182
0.02608482 0.16541648 -0.01295703
0.03029778 0.24316761 -0.00852568
-0.02032169 0.13270445 -0.02478984
0.01336034 0.07773116 0.03061914
-0.00137968 0.10124983 -0.03013103
0.02925840 0.06310059 0.01429367
0.00086280 0.07656879 -0.04123431
0.00789671 0.19169521 -0.03243552
-0.01765489 0.21285069 -0.03022385
0.03039219 0.14211313 -0.01760023
-0.02310180 0.23103383 -0.00953680
0.02853015 0.07614683 -0.02749521
0.00731620 0.17804454 0.00749193
-0.04622674 0.05316725 -0.01879233
-0.01453746 0.20212339 -0.03298841
-0.03340797 0.13971987 -0.00058455
0.01341485 0.08258658 0.01914602
-0.01980639 0.19478250 -0.00955374
-0.00309231 0.23433813 -0.02022879
-0.03154090 0.07289889 -0.01053147
-0.02559070 0.20361084 -0.03203561
0.01066786 0.15173295 -0.02992056
0.02582658 0.06733655 -0.02602464
0.02367446 0.05412023 -0.01467791
-0.01739117 0.09146076 -0.00924820
0.02461364 0.18039778 -0.00706146
0.02181022 0.20833036 -0.02977857
-0.01293038 0.14248848 -0.03123795
0.01903798 0.19288561 -0.00200783
-0.03773620 0.08854651 -0.02831766
-0.02409000 0.21243557 -0.02281724
-0.01203180 0.12251711 -0.02886434
-0.03501904 0.10374285 -0.01056647
-0.01541046 0.05420233 -0.04640087
-0.00165100 0.09885363 -0.03715564
-0.01119846 0.04897951 -0.03813611
-0.02002603 0.22411062 -0.02830638
0.00340163 0.15801363 0.02382838
-0.00752439 0.05560811 -0.03113690
-0.02045242 0.24552071 -0.02391529
0.01802457 0.12726627 -0.00398971
-0.01093266 0.13946776 0.01384962
0.00000766 0.20899272 -0.02539500
0.03528445 0.06648608 0.00803828
-0.01207246 0.13133655 -0.03317272
-0.02628226 0.08206698 0.02501042
0.00452682 0.11332478 0.00371264
0.01470448 0.07199882 -0.03305472
-0.01752504 0.12389967 0.00127455
-0.02119156 0.12896104 -0.02987667
0.02392875 0.16216159 -0.00334614
0.01087638 0.11343017 0.00750643
-0.03610118 0.07606014 -0.01864689
0.00522759 0.06008246 -0.03817800
0.01720154 0.21342927 -0.03211159
-0.02952035 0.15054898 -0.00047446
0.01615052 0.10185941 -0.01014975
-0.02036650 0.08755456 -0.00244431
-0.00880709 0.09980664 -0.03459371
-0.01409138 0.07432891 0.02463406
-0.02441308 0.10351498 -0.02462293
-0.00865323 0.09176552 -0.00946500
-0.00486172 0.11347890 0.00872500
-0.01266911 0.06274325 -0.00234044
-0.02847617 0.05774546 0.00080732
-0.01437650 0.05749168 0.02324602
0.01377855 0.11381462 -0.03017559
0.00399083 0.17200400 0.01521848
0.00624265 0.11413340 0.00737323
-0.02899689 0.05492602 0.02870816
0.02862542 0.24194506 -0.01446120
0.00858209 0.14432430 0.01702626
0.00296533 0.14383097 0.01991685
-0.01522637 0.22468954 -0.02951800
0.00636346 0.13511252 -0.03550017
-0.00209824 0.11580209 0.00512867
0.02954603 0.15003298 -0.01132314
0.00589450 0.20937373 -0.03031641
0.01110059 0.13076526 -0.03298670
0.01559751 0.07999329 -0.00120880
-0.02789597 0.07447659 0.00823367
0.02530179 0.20353863 -0.02223590
-0.00081286 0.23907560 -0.02378826
-0.00241442 0.16031735 0.02889617
0.00902256 0.22417970 -0.00153205
-0.00479918 0.21625941 -0.00811440
-0.01559707 0.22634938 -0.02969345
-0.03322451 0.05469947 -0.02554778
-0.01786301 0.21829671 -0.01650956
-0.01736590 0.17001998 -0.02225728
-0.01103235 0.14502819 0.01079679
0.00992933 0.09256761 -0.00843290
-0.02955115 0.11978281 -0.00740204
-0.00684091 0.09062019 -0.03669446
-0.00801247 0.06883705 -0.04611894
-0.02953076 0.08001398 -0.02685520
0.02477920 0.06303745 -0.03496716
0.01879551 0.17814156 -0.00722202
0.01474493 0.06113871 -0.04762550
-0.00710605 0.10378823 0.00698547
0.00562702 0.20651323 0.01844125
-0.01219590 0.11850296 0.00756950
0.01667102 0.24172735 -0.01354903
-0.01435192 0.07846335 -0.04000553
0.00850479 0.09514262 0.00198363
-0.00596961 0.14202270 -0.03788604
-0.03918251 0.06031593 -0.02478190
0.02990892 0.15360364 -0.02389252
-0.03928789 0.08066178 -0.00867084
0.01079646 0.22357301 -0.01128067
-0.03235301 0.20822863 -0.02897835
0.02041837 0.11279479 -0.00792143
-0.03882211 0.05593424 -0.00204306
-0.00208935 0.10368261 -0.03303301
0.01955239 0.21670648 -0.00897048
-0.04606500 0.06610493 -0.02423483
-0.02808599 0.07037357 0.02591284
0.00700147 0.23579817 -0.01734731
0.00379196 0.24063134 -0.02794289
-0.04809664 0.06472604 -0.01170372
-0.02692011 0.14520453 -0.00238627
0.02158459 0.06398422 -0.03515892
0.00278564 0.09985580 -0.03390527
0.02777597 0.15242593 -0.01598005
-0.03050624 0.14922784 -0.00765871
-0.02257680 0.18492296 -0.01066535
-0.01318267 0.06198355 -0.02684376
0.01014528 0.16719115 0.02383006
0.02444238 0.16754732 0.00396338
0.02841175 0.19002807 -0.01745122
-0.01485949 0.16488549 -0.02781758
0.02534603 0.23789908 -0.01372341
0.02494201 0.16456628 -0.01706180
0.00808847 0.09330623 -0.02598212
-0.01746576 0.05803423 -0.01566372
-0.01014307 0.16379647 -0.02471391
-0.00072736 0.14347109 0.01801447
-0.00462160 0.09958986 -0.03744812
0.00391526 0.16627294 -0.02775481
0.01108300 0.16096233 -0.03590866
-0.00051755 0.09579825 -0.00170224
-0.00074151 0.05445705 -0.04638305
0.01002729 0.14555669 0.01616852
-0.01167620 0.13348387 0.00895781
-0.03364839 0.05494304 -0.01983165
0.03184611 0.14046168 -0.01049094
-0.03042626 0.23694399 -0.01887429
-0.00374544 0.08565546 -0.00008476
0.03228483 0.15933558 -0.01069866
0.02618651 0.16818358 -0.01488554
-0.01648786 0.22120693 -0.02961263
0.03527796 0.21950798 -0.01627697
-0.03034906 0.10616193 -0.02374795
0.03402105 0.05506248 -0.01677772
0.03164424 0.20329130 -0.01539910
0.01184272 0.23820949 -0.01304302
0.00682233 0.10935910 0.00667086
0.01964913 0.11979301 0.00249470
-0.01650214 0.12129057 -0.02904595
0.00596793 0.12660767 0.00823935
-0.01376789 0.20490848 0.00126511
-0.01866100 0.07398663 -0.04103052
0.00183505 0.07751630 0.01950506
-0.01321611 0.06588031 0.02548601
-0.03422131 0.13940665 -0.01611310
0.00119311 0.11612365 -0.03958581
0.02943785 0.05424514 -0.00912167
-0.02588166 0.20042515 -0.01431253
-0.00558168 0.07057512 -0.04093786
-0.03805880 0.05424131 0.00248495
0.03230736 0.18048891 -0.00449303
0.03307538 0.14952639 -0.00420848
0.02023162 0.09883632 -0.01438515
0.03051937 0.08216863 0.00935234
-0.01086028 0.20282561 0.00326300
0.01677667 0.08546513 0.00933631
0.01018074 0.20133045 -0.00060294
0.02060781 0.21372496 -0.01146578
0.03246795 0.08010139 0.00001921
-0.00003334 0.08135363 0.02624898
-0.02768052 0.24704966 -0.02726752
-0.03233848 0.14973894 -0.01910441
0.03280956 0.07268027 -0.01343751
-0.01509673 0.19443794 -0.00803421
-0.00934125 0.16688539 -0.03058461
-0.02801539 0.10387520 0.00398934
-0.02238421 0.11274073 -0.03137406
0.00656912 0.07634288 -0.00172957
-0.00342630 0.20452841 0.00932904
0.00084710 0.07199547 -0.04030992
-0.00344983 0.08831312 0.00202462
0.03678735 0.18867882 -0.01067377
-0.04316540 0.10889693 -0.00921560
-0.00183014 0.07918303 0.00518706
0.03354972 0.17253137 -0.01227624
0.02239059 0.14401093 -0.00466328
0.00906321 0.12093940 0.01488286
0.01911811 0.07206596 0.01503992
-0.01434237 0.07724983 -0.04151498
0.03245839 0.07615010 0.00929918
-0.03780750 0.13418052 -0.01500538
-0.01446573 0.09527493 -0.02071516
0.00412393 0.25379503 -0.01025654
-0.02542228 0.07972182 -0.01334953
0.03360865 0.06411032 -0.02384505
0.03338011 0.07412536 -0.00597086
-0.02943447 0.12712543 -0.00019145
-0.03600458 0.04974363 0.02278505
0.00383815 0.09746638 -0.00239635
0.00407359 0.14548559 0.02019877
0.02079958 0.15666321 0.01283461
0.00016557 0.13554934 0.01614633
-0.02575248 0.07340722 0.01994805
0.02627963 0.15519015 -0.02209619
-0.02965724 0.06413384 0.00187520
0.01657980 0.07186459 -0.02895056
-0.02242441 0.17090079 -0.02518465
-0.01722979 0.07009528 -0.03720570
-0.01198306 0.19635838 -0.00007861
0.02607187 0.05371173 -0.00430659
-0.03215327 0.06485187 0.00837135
-0.04054753 0.06002453 -0.02262721
0.02058963 0.11373535 -0.02660541
0.01172062 0.20763175 -0.02004700
0.00340444 0.12364037 0.01220434
-0.03220963 0.05828317 0.01715001
0.03079903 0.14689504 -0.01221674
-0.02034095 0.16428682 -0.01188990
-0.02890748 0.11342241 -0.01403734
0.00450788 0.12391675 0.01099407
0.02161734 0.21653163 -0.02944993
0.02704834 0.09827928 -0.01450834
0.00172307 0.05548983 -0.03928567
0.02085937 0.13776754 0.00518328
0.01706236 0.08593527 0.01382599
-0.00937601 0.11949816 0.00929640
-0.00990711 0.21937826 -0.02834534
0.00382266 0.07767335 0.02865312
-0.00305086 0.05895962 -0.01489329
-0.01036189 0.18776119 -0.03022433
-0.04085871 0.06310265 -0.02408480
0.00656941 0.10282246 -0.00676650
0.01454167 0.24633837 -0.01470115
-0.01480623 0.06016327 -0.01687188
0.01858446 0.18425146 -0.00340596
-0.01916762 0.11637342 0.00932375
-0.02449881 0.05549349 -0.03802275
0.02001433 0.10295540 -0.01022746
-0.02767255 0.21850988 -0.02264065
0.02504587 0.15223715 0.00685908
0.00381232 0.21955338 0.00056050
-0.02048434 0.16942874 -0.00258580
-0.00191589 0.07548350 -0.04132397
0.02608926 0.17167968 -0.02476564
0.03044949 0.16224025 -0.00016327
-0.01164107 0.06138691 -0.03826276
0.00507390 0.13537738 0.01159173
0.01726049 0.05184638 0.01713306
-0.04282314 0.05753679 -0.01376953
0.01279157 0.07917033 -0.00737082
0.01605060 0.10876590 -0.03054085
-0.02340869 0.15060697 -0.02029788
-0.02560855 0.07284192 -0.03881930
-0.02724721 0.05933230 -0.02815075
0.01683297 0.06685770 0.02022217
-0.03218123 0.09789883 -0.02953365
0.01170782 0.10153808 0.00294143
0.01344686 0.11519527 -0.00063654
0.02910838 0.23643327 -0.01592121
0.01930723 0.07769181 -0.03417805
-0.03613111 0.08553486 -0.00263257
-0.01215514 0.11702641 0.00715339
-0.02616842 0.09982269 -0.00568491
0.00871001 0.10101290 -0.02865043
0.00492624 0.09980267 -0.01352264
0.02568449 0.13074860 -0.00691186
-0.00433053 0.17701249 0.00638780
-0.00446497 0.18896389 0.00687943
-0.03687626 0.11953428 -0.00173627
-0.00073313 0.15591912 0.02655802
-0.03452175 0.10679409 -0.00834114
-0.02689417 0.10302119 0.00123054
-0.04256419 0.06475668 -0.00129698
-0.01361472 0.17231688 0.00837549
0.02223254 0.22276150 -0.03260387
0.02225304 0.06581321 -0.00168845
0.02744780 0.05391486 -0.00325675
-0.01640848 0.12007050 0.00811230
-0.01568718 0.20322397 -0.00227935
-0.02308880 0.22630380 -0.02836238
-0.00591250 0.08049756 -0.00567054
-0.00326623 0.14169747 -0.03250924
-0.01095127 0.14833224 0.01577628
-0.01296942 0.08660552 -0.01859989
-0.02746382 0.17717591 -0.01442944
-0.01745190 0.11448351 0.00740168
-0.02233878 0.06003521 0.02160052
0.02367004 0.10578954 -0.01579883
0.01902403 0.13156594 0.00473305
0.03261909 0.22026539 -0.03190105
-0.00922557 0.07055452 0.03074020
-0.04767446 0.06415622 -0.00486799
0.02023545 0.08612039 0.01481312
-0.00021081 0.14059210 -0.03156696
0.00593187 0.08498381 -0.01209482
0.01590423 0.07592089 -0.04006981
0.00900102 0.12205102 0.00813908
-0.00469968 0.24734770 -0.01516072
0.01243779 0.16478284 -0.03119903
0.01914677 0.22085354 -0.02555909
0.00973149 0.19475156 -0.03149464
-0.00460113 0.05499819 -0.04209268
-0.01191945 0.05923986 0.01315365
-0.02143586 0.18582436 -0.02088030
-0.03306414 0.05836928 0.02362306
0.01874625 0.21897376 -0.00603891
-0.04080399 0.09354421 -0.00108502
0.02876075 0.23467264 -0.01579694
0.00878920 0.10527225 0.00506813
-0.02773981 0.22061644 -0.02332204
0.02979516 0.07024536 -0.03022746
0.01607617 0.20814686 -0.02342508
-0.00003105 0.10248660 -0.03414082
0.03420442 0.16471340 -0.01633376
0.00740431 0.08444681 -0.01322704
0.00740131 0.09918924 -0.00550362
0.02716840 0.18343353 -0.01092551
0.02166337 0.12107423 -0.01986957
-0.01839057 0.19345054 -0.01947475
-0.00031979 0.21702212 -0.00269185
0.01268486 0.13171780 0.01595051
0.02099663 0.14525561 0.00282980
-0.00760775 0.20386142 -0.02413587
-0.03634344 0.13733992 -0.01112271
-0.04853160 0.06020723 0.01146469
0.02030038 0.19382714 -0.00496843
0.02414650 0.19964039 -0.01123810
-0.03518886 0.05723180 -0.03314837
0.00512343 0.11465780 -0.03345969
-0.02789344 0.11956778 -0.01487996
-0.01371428 0.06151304 0.02192187
0.01121200 0.06202623 0.00406652
-0.03457863 0.15625183 -0.01617732
-0.03374689 0.13058670 -0.00983372
0.00506029 0.05971853 0.01302734
0.03102520 0.20047419 -0.01072076
-0.03500827 0.10992354 -0.00325722
0.01805356 0.19286458 -0.00413999
-0.00790517 0.17093286 0.01744813
0.01711091 0.07685550 0.02186108
-0.00805115 0.16118261 0.01859089
-0.01094858 0.12952365 -0.03499658
-0.00802946 0.08252522 -0.03785679
0.02382434 0.11395057 -0.02757371
-0.03411876 0.13797472 -0.02272884
-0.02495869 0.21867496 -0.03332060
-0.01950794 0.06944841 0.03237025
-0.02606268 0.12654686 -0.02423725
-0.02670610 0.19832939 -0.00816632
-0.02106823 0.13452458 -0.02522178
0.02272760 0.19115406 -0.02980335
-0.04006422 0.05369447 0.00671418
0.00584157 0.09120644 -0.02729704
-0.03977527 0.06459282 0.01787749
-0.00390570 0.13726254 0.01262155
0.02727235 0.21977095 -0.01007781
-0.02512788 0.24922243 -0.02751220
0.00924000 0.10084143 0.00065732
-0.00807208 0.17291646 0.00614395
-0.01546061 0.17691363 0.00438927
0.01913935 0.22333989 -0.00879217
-0.01262234 0.06071497 -0.04903207
-0.02580162 0.10811587 -0.01166447
-0.00038345 0.08312707 -0.02820732
0.02856809 0.13536111 -0.01242399
-0.02761388 0.08419809 -0.00298833
-0.00443451 0.07914805 -0.04233667
0.00595602 0.06113888 0.01344273
-0.02886588 0.08616832 -0.02668681
-0.04218361 0.05702453 -0.01428089
0.00910485 0.20999384 0.01064624
-0.02265719 0.23702796 -0.00788268
0.00068113 0.07334706 -0.04963697
0.02591420 0.13589121 -0.00089385
-0.01891571 0.06094440 -0.03953351
0.00725976 0.06261142 0.01133919
0.02562437 0.07133772 0.01546124
-0.01724877 0.08094734 -0.04029503
-0.01799496 0.14623874 -0.00346295
-0.03545768 0.11329912 -0.02512521
-0.00362473 0.07899094 -0.03623341
0.01863616 0.22047299 -0.01645335
-0.02010484 0.20858583 -0.01088350
-0.02115098 0.17937705 -0.02975030
0.02023714 0.21168482 -0.00787157
0.01511275 0.09987849 -0.01529490
-0.01405844 0.24433446 -0.01970379
-0.03150498 0.23546852 -0.02420809
0.02113648 0.10196317 -0.01018145
-0.00944959 0.06597401 0.03335899
0.02106426 0.08099842 -0.01345542
-0.04706419 0.06227985 -0.01371347
-0.00038832 0.20761567 -0.02048996
0.00091682 0.06167848 -0.04090679
-0.02967755 0.11345686 -0.01042922
-0.01001375 0.08354102 0.01183446
-0.02107302 0.21377674 -0.01197471
-0.03824179 0.11413682 -0.02264245
0.01616940 0.17853047 -0.00100201
0.02096608 0.21033221 0.00369323
-0.01858723 0.20654231 -0.00888200
0.00448804 0.06239607 0.01348416
-0.00360292 0.05923180 0.00038462
0.02263328 0.21784857 -0.02595668
0.01763422 0.13962246 0.00140005
0.02867714 0.20103200 -0.00940612
-0.02576062 0.16646074 -0.00645494
0.02322115 0.05827039 -0.03416683
0.02151759 0.24131857 -0.01929257
0.02255319 0.18154716 -0.02664189
0.02701832 0.06350739 0.00559361
0.02157823 0.08066255 0.00380935
0.01023852 0.14956610 -0.02852643
-0.00673964 0.24310738 -0.01234259
-0.03337964 0.07640722 -0.01188871
-0.03146974 0.14940847 -0.00525975
0.00489707 0.07715381 0.03092675
-0.02319983 0.24873699 -0.01710046
0.01729751 0.20489649 -0.02860608
0.00895175 0.08884259 -0.01955261
-0.00538193 0.05999548 0.00903086
-0.00924909 0.07918022 -0.02246807
-0.01527577 0.13932724 0.00121860
-0.01942411 0.18516068 -0.01633391
-0.00015727 0.20838246 -0.02211575
-0.00090515 0.12836121 -0.03863833
-0.02292947 0.14574684 -0.00997045
-0.00041796 0.12733141 0.01164335
-0.01801184 0.17288178 -0.00107414
-0.03267393 0.06389684 -0.01956430
0.01222645 0.22005939 0.00648592
0.03251281 0.07787757 0.00278710
0.03027715 0.22492009 -0.01895397
0.02737550 0.24274789 -0.02360048
-0.01198315 0.05413645 -0.03964172
-0.03805295 0.05883609 -0.01090597
0.02851103 0.22718352 -0.02367679
0.02902571 0.16616911 -0.01400915
-0.00165363 0.13783646 0.01228890
-0.02549750 0.10820687 -0.00325969
-0.00788853 0.13831624 0.01553831
-0.01874128 0.09762185 0.00156275
0.00526041 0.12894826 0.02123510
-0.02329892 0.12930995 0.00529278
0.01237265 0.20203738 -0.03367971
-0.00181867 0.19643903 0.00939982
0.02441529 0.08149090 -0.00399043
0.00573365 0.22592600 0.00069198
0.02002161 0.10189307 -0.01978463
-0.02351733 0.19856578 -0.01118230
-0.03641304 0.06476299 0.01369389
0.00494589 0.17425066 0.01556685
-0.01121571 0.17567408 -0.02457228
-0.01400773 0.12729876 0.00702741
-0.00389724 0.18789725 0.00947539
-0.02422908 0.08215231 -0.03907555
-0.01806692 0.22899540 -0.01641393
0.02397704 0.08077050 0.01148165
-0.02787894 0.12845844 -0.01380575
0.02986794 0.24274197 -0.01073994
-0.03760018 0.11339357 -0.00959240
0.02506677 0.15235108 0.00944291
-0.01043564 0.18368433 0.00414767
0.01106818 0.08261710 -0.03640428
-0.00808949 0.09130208 -0.00045038
0.03471863 0.07236364 0.00364628
-0.03020356 0.06617261 0.00505388
0.00874149 0.05381006 0.02043108
-0.01884793 0.13226438 0.00906098
-0.01255225 0.19051942 -0.00533105
-0.02365637 0.14145073 -0.00590806
-0.00717875 0.10253251 -0.03323405
-0.01636037 0.08813650 -0.01869111
-0.02623040 0.20355663 -0.01860520
0.03334974 0.15671708 -0.02026143
-0.01004264 0.13038003 -0.03132293
-0.00256028 0.10199850 -0.03848332
-0.03272482 0.13726562 -0.01989288
0.02610993 0.17955908 -0.02252889
-0.02850266 0.06003679 -0.01937360
0.02601205 0.14544573 -0.02355982
-0.00371958 0.07681354 -0.03221975
-0.02543824 0.14605425 -0.01226704
0.02528566 0.24026476 -0.01420254
0.01891869 0.20232719 -0.00397291
0.00144939 0.07045587 -0.05526321
-0.00030641 0.13402049 -0.03069844
0.01671663 0.07282725 0.02122249
0.00236967 0.19107044 0.00761619
0.03019048 0.14161484 -0.00769261
0.03266701 0.17013182 -0.01218850
-0.01298400 0.23619914 -0.01769526
-0.02635591 0.14214829 -0.02429064
0.01057087 0.22083032 -0.01520262
0.00357892 0.06929820 -0.01111091
0.02497522 0.15192480 0.00590313
-0.01210944 0.08740249 -0.01868796
-0.01573932 0.10604344 -0.03250437
0.01917934 0.22201072 -0.02478995
-0.03787812 0.11001152 -0.01401616
-0.00513038 0.16875830 0.01254472
0.01341220 0.05729660 0.01104323
-0.02756100 0.14912698 -0.03005760
-0.00089103 0.24952880 -0.01781887
-0.00059721 0.09155035 -0.00114891
-0.01853725 0.17266600 0.00622681
0.03709333 0.16133916 -0.00866387
-0.00820195 0.08958888 -0.03695806
0.00269775 0.10266832 -0.02520461
0.02795527 0.08895385 0.00205654
-0.00853303 0.06520633 -0.04534451
0.00106346 0.06092102 0.01177643
-0.03367617 0.15732288 0.00253989
0.03033459 0.22514609 -0.02577161
0.00614287 0.23439205 -0.01452638
-0.01450676 0.24656728 -0.02533534
-0.02839981 0.10232083 -0.00178563
0.00833716 0.09821419 -0.03400937
0.00077049 0.08626911 -0.01553619
0.02408387 0.18794289 -0.00473611
-0.01975898 0.16115665 -0.01667614
0.00762046 0.05880857 -0.04429517
-0.03685886 0.13306190 -0.00665164
-0.00773003 0.12166366 0.00769217
0.03014941 0.20132492 -0.01686197
0.03712206 0.19242561 -0.00793759
-0.00622067 0.14264846 0.01801775
-0.01085187 0.17091866 -0.03135955
0.01736422 0.16079257 -0.02986589
-0.00301837 0.09353541 -0.03639346
-0.02519978 0.06840768 -0.03914113
0.00091529 0.05248738 -0.03738781
-0.01911946 0.21651751 -0.00970838
-0.03056037 0.15061365 -0.00145587
0.02902442 0.24024278 -0.01966314
0.01693046 0.05550157 0.01575490
0.03754788 0.22083525 -0.01180053
-0.03018585 0.10247253 -0.01072350
0.02543465 0.05056503 -0.01557142
0.03771739 0.06486759 0.00542259
-0.02309580 0.22904262 -0.02840644
0.02538604 0.12883696 -0.01686114
0.00625603 0.15251614 0.01621869
-0.02859988 0.21921512 -0.01258766
-0.00953016 0.07243694 -0.04583210
-0.01079226 0.08419124 -0.00232665
-0.00924009 0.15226240 0.01657052
-0.02668704 0.11876383 -0.02214882
-0.02696958 0.15866104 0.00213079
0.02554017 0.16541825 -0.00854903
0.00633330 0.11652931 0.00726845
-0.02515967 0.05172393 0.02289398
0.00876269 0.10520084 -0.00138656
-0.02094153 0.12827948 0.00250500
-0.02940792 0.13469157 -0.01297965
0.01299693 0.08015984 -0.01898953
0.03083864 0.14803652 -0.01957830
0.03258183 0.19912104 -0.01307596
0.01203322 0.07447498 -0.02775113
0.01055196 0.05813137 0.01402497
-0.01935450 0.05947983 -0.01932922
-0.03216463 0.05466460 0.01552821
0.00839858 0.24801290 -0.01568428
0.02135694 0.23805116 -0.01184619
0.02511046 0.14423653 -0.00380593
-0.03654625 0.08699183 -0.01786402
0.01279793 0.22648859 -0.00847752
0.01569843 0.11153511 -0.00057420
0.03507635 0.05590377 -0.01600101
-0.03603981 0.05489457 -0.01777106
-0.02169305 0.21349031 -0.02969917
0.00043053 0.09264390 -0.01513760
-0.00072293 0.06403103 0.02171472
-0.00670482 0.05623166 0.01736131
-0.00101250 0.23827502 -0.00459905
-0.02090766 0.13869788 -0.01156758
0.02308597 0.10181941 -0.00497880
0.01314087 0.14045697 0.01237347
0.02270009 0.04912189 0.00076734
0.00573423 0.11618353 0.00940587
-0.00164708 0.24199219 -0.01195437
0.03534687 0.06698518 0.00307223
-0.01445755 0.05981935 -0.03154562
0.00470000 0.07325235 0.02884776
-0.02131805 0.15074353 0.00153504
0.02141797 0.09791408 -0.01555982
-0.02418579 0.14233957 0.00356378
-0.01583350 0.07630976 -0.03922150
0.02615301 0.19670171 -0.03195020
-0.01245778 0.19597827 -0.03577778
0.02602910 0.23255289 -0.02841800
0.00619927 0.12042709 0.00987365
-0.02217033 0.21053851 -0.01517740
0.00550949 0.14222500 0.01512310
0.02114503 0.24449119 -0.02094908
-0.03413055 0.05570310 0.01175154
-0.02512664 0.08807073 -0.00978622
0.02569763 0.06336103 -0.03518441
0.01838382 0.17884995 -0.02627398
0.03223135 0.07306859 0.01388992
0.00668707 0.17840812 -0.03189415
-0.00059299 0.10417438 0.00935128
-0.03449707 0.09027424 0.00139838
0.00850667 0.05839310 -0.04519990
-0.01006632 0.19060345 0.00445021
0.03758692 0.15343806 -0.01809595
-0.02412465 0.20059973 -0.01759298
0.01394788 0.21826223 -0.01856159
-0.03329876 0.05186214 -0.00103677
-0.00451963 0.15452111 -0.02622436
0.01686712 0.24731550 -0.01810503
0.02341090 0.09948482 -0.01082521
0.00450115 0.09448333 0.00238712
-0.03029987 0.22499271 -0.03598884
0.00106418 0.16926758 0.02474376
0.01641818 0.06139679 0.00442419
0.01823852 0.24691975 -0.00922611
0.01186687 0.05827058 -0.02508803
0.02548141 0.19164443 -0.00804443
0.01982613 0.21391854 -0.01695003
-0.01740550 0.06972639 -0.04200725
0.01537249 0.08261380 0.01246407
-0.03596231 0.07215584 -0.01336292
0.01304602 0.22252119 -0.01159884
0.04031549 0.19993897 -0.01312907
-0.04057176 0.06900872 -0.02159937
-0.00928085 0.06150543 -0.04613831
-0.01061468 0.19518262 0.00626681
-0.01830417 0.06191096 -0.00327250
-0.02985519 0.07055605 0.02350142
0.00846245 0.19031864 -0.03491203
0.00200167 0.23517373 -0.00470942
0.02686307 0.23986533 -0.03006558
0.02630660 0.05133064 0.01312517
-0.01490594 0.08285302 0.00113170
-0.01986003 0.16269098 -0.00036354
0.03291171 0.16974244 -0.02478078
-0.03541670 0.11133547 -0.00866881
-0.01305007 0.13134663 -0.03559257
0.00930733 0.07467235 0.02578533
0.01425818 0.10788425 -0.02985633
0.02013577 0.24246559 -0.01806423
-0.02128377 0.14387922 -0.02348509
-0.00149382 0.15887544 0.02403696
0.02391632 0.12710893 -0.01374224
0.00208057 0.20135911 -0.03393481
-0.01638260 0.07639427 0.00839368
-0.00760950 0.09071507 -0.01391753
-0.02339684 0.09310161 -0.03066245
-0.02047032 0.15023986 0.01463822
-0.02444602 0.06199466 -0.00110020
-0.02385509 0.05929260 -0.03979155
-0.02382416 0.07489589 0.01542309
-0.02737197 0.08648282 -0.02258524
0.00016634 0.11882596 0.00480306
0.00337815 0.16820180 -0.02947457
0.02581009 0.14865029 0.00420291
0.01096917 0.14988792 -0.03379682
0.02096813 0.22057097 -0.01250262
0.00843922 0.23708516 -0.00503372
0.02181143 0.20669112 -0.00524551
-0.01853626 0.08253113 0.02887222
-0.01538879 0.11230890 -0.02983952
0.01316089 0.13295630 0.00059005
0.00167141 0.05942314 0.02940446
-0.02452965 0.16158512 -0.02220202
-0.01167103 0.17156264 0.01921869
0.01646202 0.12422763 -0.01250372
0.02596450 0.24399081 -0.02397842
0.02753227 0.07835329 0.01356158
-0.03688653 0.10188121 -0.02728825
0.01744178 0.08128849 -0.03465315
0.02765703 0.06140699 -0.02603473
0.00948886 0.19578892 0.00766128
-0.01282070 0.06030696 -0.01465443
-0.01245625 0.21752539 -0.01995374
-0.00237241 0.18945631 -0.00735751
0.01577115 0.11263638 -0.00655626
0.01055812 0.18201591 -0.02827000
-0.02803077 0.18462828 -0.02109018
0.00958067 0.22399434 0.00010146
-0.00642730 0.20620072 0.00130546
-0.03194369 0.08250076 0.00172239
-0.03779738 0.08843995 -0.01784387
0.01406539 0.17747349 -0.03194272
-0.01927021 0.16269106 0.00365886
0.01436153 0.06217553 0.01849968
0.03441685 0.20570830 -0.02204160
-0.01755070 0.24059579 -0.01714398
-0.01292416 0.06013565 -0.01627844
0.03669725 0.21133012 -0.01519438
-0.00903402 0.06288959 -0.04147707
-0.02422205 0.05891466 -0.03630891
0.01248856 0.15220666 0.02154445
-0.02713639 0.08633517 -0.00857337
0.01841245 0.22723284 -0.02497420
0.00926544 0.06352175 -0.04625251
0.02315235 0.07019421 -0.03001204
-0.00809102 0.17847329 0.00246631
-0.01623806 0.09288111 -0.00184571
-0.00732382 0.24244905 -0.01802842
-0.03469492 0.06691343 -0.01524503
-0.02215450 0.13414414 -0.02679724
-0.00177503 0.17124304 0.00305647
0.01154603 0.05045477 0.01850388
-0.03196352 0.10670573 -0.02293793
-0.00062256 0.05180601 -0.04196206
0.01182832 0.18293008 0.01394143
-0.02738256 0.09638289 -0.01470114
-0.03598910 0.07946217 -0.03203611
-0.02230076 0.16558707 -0.01740599
0.02717287 0.24684787 -0.02622722
-0.02497546 0.23929687 -0.01150935
0.02263572 0.11569719 -0.01413461
0.00351340 0.21223360 -0.02570961
0.02174783 0.07229888 0.01112790
-0.02128742 0.18125007 -0.00709515
0.00139227 0.24473707 -0.01458158
0.00359233 0.06514604 0.03270027
0.02864893 0.18229349 -0.01482962
0.02082618 0.21364422 -0.02384991
0.02421229 0.24367121 -0.02402470
-0.03756705 0.12560986 -0.03029214
0.00234786 0.11536244 -0.03957402
-0.02835306 0.11947643 -0.01997983
-0.03077863 0.16009885 -0.02359664
-0.04187562 0.05071341 -0.01298183
-0.01402440 0.10477931 0.00407443
-0.00007227 0.11246752 -0.00041289
0.02624348 0.06160278 -0.01188140
0.02445506 0.23985642 -0.02113172
-0.00608627 0.14090580 0.01951062
-0.00252257 0.07238149 0.02735003
-0.03604463 0.12001339 -0.00350644
0.02076282 0.13105866 -0.02859830
0.00166324 0.11342005 0.00525994
0.01821786 0.05503751 -0.02220796
0.00716961 0.20573695 -0.03025934
-0.04444066 0.07140210 -0.02231891
0.01215895 0.24567004 -0.02018436
0.02311331 0.07024021 -0.02296941
-0.01110101 0.06300963 0.00479733
-0.01212222 0.06081706 -0.04745351
-0.02726463 0.10569693 -0.00506699
-0.03157199 0.10050774 -0.01660683
0.03139878 0.20342666 -0.00792696
-0.00480743 0.18020746 0.00517375
-0.00073812 0.22892460 -0.01173158
-0.03121760 0.13084862 -0.00588622
-0.01639546 0.07399259 0.00610619
0.03195818 0.08017223 0.00136065
-0.00729974 0.08234706 -0.01593358
-0.02428580 0.07817013 -0.02019780
-0.01701209 0.20160908 -0.01359995
0.01555872 0.24157178 -0.01143584
-0.01493227 0.12871586 0.00884022
-0.01712250 0.09394440 -0.00228051
-0.04139810 0.07003259 0.01463950
0.01830657 0.14143322 -0.03517864
0.02628421 0.08038744 0.00389971
-0.02197365 0.12932479 0.00459961
-0.00472571 0.06820152 -0.04211150
-0.02367919 0.12406886 -0.00218194
0.00718982 0.07342183 -0.04365221
-0.01458036 0.24385405 -0.01365924
0.00258629 0.23948029 -0.01631421
0.01414846 0.24598405 -0.01968068
-0.02363544 0.15604758 -0.01073912
-0.02233532 0.11093856 -0.02182079
-0.01130950 0.21439469 -0.00218298
0.01521139 0.06389564 -0.03536382
-0.00217079 0.09799561 0.00430735
0.02130558 0.06478561 -0.01509582
0.01592803 0.11787981 -0.01203949
-0.02728986 0.05030148 0.02099832
0.02430500 0.09757195 -0.02152171
-0.00602017 0.05664811 0.02225467
-0.02235646 0.20637555 -0.02872643
-0.03094110 0.09022298 -0.02183084
-0.01287970 0.19798085 -0.00511727
0.01071148 0.13083202 0.00898262
0.02357241 0.14269735 0.00078234
0.01331879 0.06656598 -0.04020769
-0.01346832 0.22167408 -0.03090224
-0.01896937 0.18364543 -0.01176416
-0.03283703 0.05200541 -0.01656980
-0.02957642 0.10983182 -0.01291363
0.03375138 0.16454694 -0.00330300
-0.02558996 0.11738230 0.00254215
-0.03751761 0.06422737 -0.03037545
-0.02256139 0.14364327 -0.02916665
0.00698588 0.05890767 -0.01984478
-0.02834638 0.21082911 -0.03304111
0.01900237 0.09518282 -0.02659716
0.01406396 0.06846922 -0.04073009
0.02794793 0.11161195 -0.01108067
0.00267553 0.17143783 0.01803233
0.01387294 0.08246872 -0.03526627
