-0.53724754 -0.15789630 0.72788131
-0.13841841 -0.77418298 0.38082105
-0.75725806 0.41222498 -0.17007622
-0.35302898 -0.28431877 0.76064062
0.28344300 -0.73958725 0.11826704
0.75103080 -0.15494913 0.19974457
-0.11986718 -0.83458251 -0.43900460
0.44877452 -0.64243770 0.17452723
-0.67454362 -0.06416386 0.49703678
0.08421459 0.85063428 -0.18133488
0.38013127 0.64568645 -0.30734941
-0.05003333 -0.87020403 0.14968957
0.42196107 -0.21608865 -0.72854555
0.00695894 -0.14616512 0.80633712
-0.03372291 -0.29653662 0.76292741
-0.26391312 -0.63869524 0.46631640
0.29341808 -0.01230405 -0.89123952
-0.34636724 0.65137124 -0.49017888
0.62954152 0.21853408 0.52262485
-0.44640142 -0.05892702 -0.78807211
0.34717712 -0.64390182 -0.41601458
0.43659642 0.00710617 -0.89323437
0.11337147 0.58961552 -0.64285755
0.52052379 0.38459489 -0.53409278
0.49469244 -0.36150137 -0.40689737
0.25652838 0.37812221 0.73214149
0.82558310 0.43910360 0.00966443
-0.19737673 0.01172689 -0.89898264
-0.15797259 0.78481537 -0.39383227
0.56294334 -0.63360047 0.13390452
-0.36183131 -0.33681136 0.63435149
-0.76421428 -0.15867268 -0.21930331
0.25905922 -0.65518337 0.55047286
0.80869901 -0.31529444 -0.01400558
-0.55530584 -0.53153384 0.28629050
0.17486416 -0.41674170 -0.69737065
0.40713957 -0.68869191 0.21491778
-0.24177009 0.76300633 -0.09860522
0.28664473 0.70372993 0.19454260
-0.18052708 -0.77334797 -0.40044579
-0.43271601 0.02364922 0.86011481
-0.49532047 -0.07748193 -0.82081819
0.50335717 -0.68169928 0.11198375
0.07812684 -0.81518734 -0.29539844
0.05779359 0.14039284 0.78955603
-0.00872771 -0.88395053 0.00351669
-0.01824444 -0.69514525 -0.53363419
-0.18845722 0.78472209 0.45043007
0.48777661 -0.13783532 -0.77537620
0.56076694 -0.64764017 0.13048200
-0.55898547 0.54936570 -0.29145426
0.60940981 0.49142477 -0.18714629
0.63634562 0.08199872 -0.47211125
0.40513945 -0.47410628 -0.57454932
-0.54033363 -0.63450104 -0.10443124
-0.74152708 0.40875331 -0.15676509
0.04329586 0.54272109 -0.58486557
-0.63882375 -0.38146129 0.33649525
-0.69799507 0.11699160 0.22928756
0.76985061 -0.19297507 -0.27770674
0.00194633 -0.87684858 0.26915917
-0.68284404 0.00353439 0.40373671
0.32780623 0.50358069 -0.53577495
0.33589855 -0.37714019 0.64742160
0.75027156 0.55609190 0.04873506
0.27210903 -0.72021508 0.15184639
0.13179618 -0.80637103 -0.10768065
-0.78922963 -0.46501824 -0.16351558
-0.45462134 -0.54562545 0.50253153
0.37441441 0.32526460 -0.70578504
-0.37676555 -0.04857666 0.82966959
0.07151317 0.31512684 -0.74756134
-0.47668800 0.62767953 -0.30865481
-0.50987041 -0.40784216 0.48338634
0.00392515 0.82284576 0.32866254
-0.60420275 0.24150401 -0.58005810
-0.37748340 0.23726536 -0.70011640
0.00310494 0.24894346 0.71251345
-0.07950889 0.75111669 -0.43986160
-0.12291762 0.49435198 0.64439368
0.80299699 0.19360252 0.13326293
0.59121633 0.13151632 0.69583189
0.58442473 0.59158760 0.12639308
0.71008134 0.17608497 0.28816229
0.66500020 -0.13204516 0.49340224
0.66892815 -0.57541692 -0.14221241
-0.39636070 0.29906446 0.65279043
0.37744766 0.77648479 0.14589871
0.19426396 -0.02767780 0.84825683
-0.25757059 0.07296966 -0.85726404
-0.31264803 0.60077536 0.49195096
-0.04420077 -0.67349529 0.61839116
-0.73968542 0.49869204 0.08404538
-0.03084310 -0.74644351 0.52364171
-0.27610070 -0.54748315 -0.56155169
0.11838691 -0.83905774 0.19151019
-0.71249640 -0.35607654 0.24709411
-0.33134541 0.75621176 -0.04195283
0.10423439 0.12324629 -0.77473116
0.76232600 -0.25699261 0.26953149
-0.08670714 -0.83491611 0.19381201
-0.10670421 -0.37068209 -0.74590123
-0.71891236 -0.02704975 0.27108619
0.48170954 0.54201335 0.33438563
-0.60288250 -0.10809192 0.72628331
-0.12557180 0.31003907 -0.66321111
0.20873725 -0.78154469 0.09291449
0.02195744 -0.81828278 -0.01145382
0.23218939 -0.80091178 -0.21253468
0.04031581 0.59990060 -0.61544728
-0.07270961 0.83510512 -0.32642418
0.70871079 -0.26633462 -0.30700234
0.20082286 -0.83026159 0.36316934
0.22844167 0.74900478 -0.04856338
-0.56239200 -0.50031012 -0.22231130
0.49933562 -0.49707925 -0.34209585
-0.61253762 -0.26397306 -0.49178198
-0.47706020 -0.32035103 -0.62299919
0.40977651 0.03916180 -0.82238817
-0.14573514 0.75007188 -0.03987581
0.61690187 -0.03752640 0.72670925
0.17885737 0.14246666 -0.73461604
-0.59762168 -0.18468463 0.57875693
-0.82184184 -0.05409339 -0.12408366
-0.03067752 0.69607627 0.52970564
-0.31958714 -0.66275793 0.46263143
-0.47233030 -0.60082799 -0.29569530
0.38078940 0.42489263 -0.51181507
-0.68335128 0.17208640 0.37911198
0.17561710 -0.22290872 0.71782231
-0.38200527 -0.32520857 -0.73485982
-0.73352134 -0.28271022 -0.22170280
-0.41936526 0.54859823 -0.48121250
0.59220183 0.60336971 -0.13265824
-0.39224711 -0.49903348 0.50807548
-0.72241068 0.31726193 -0.39506778
0.84823322 0.05959565 0.11425816
-0.85327995 0.21399531 -0.09716658
0.32362321 -0.39987355 -0.63594341
0.38818634 0.75128186 -0.29024932
0.13242377 -0.63786590 -0.56568587
0.59107733 0.48494563 -0.29076102
0.21919063 -0.77656978 -0.22397651
-0.17638455 -0.36918473 -0.75755179
-0.62546337 0.29595438 0.52053034
-0.04144714 -0.84430528 -0.55083096
0.65595925 -0.25321206 0.55833900
0.12081397 0.31856439 0.68640840
0.42075348 -0.71906567 -0.05020644
0.06256460 -0.84320873 -0.20420639
-0.09915940 -0.38103080 0.67318547
-0.84233916 0.39785919 -0.12300302
0.33504263 0.75498807 -0.13704830
0.50756645 -0.73124033 -0.23698974
0.69969726 -0.54163444 -0.05959405
-0.01091609 -0.89948779 0.40590018
-0.36378655 -0.60886788 -0.38000444
-0.77729464 0.36590225 0.24136199
-0.53392112 -0.35380504 -0.50309432
0.15335079 -0.50641888 0.56621861
-0.39986345 -0.65450746 -0.29253751
-0.40868777 0.30847213 0.68813097
-0.55346990 -0.09691347 0.69716918
0.01394377 0.16802703 -0.80572069
-0.27935308 0.64763844 0.37540358
-0.22965944 -0.73439693 0.44121656
-0.25578687 0.57694924 -0.57625031
0.09493318 -0.50305039 -0.66639102
-0.26372990 -0.04009477 -0.81125593
0.48201677 -0.55649751 -0.21609589
-0.79040658 0.48478788 -0.05630223
0.18186019 -0.75806522 -0.09784487
-0.08000067 0.76324153 -0.19297613
0.77135313 -0.28552687 -0.13139565
0.04635512 0.84891629 0.22708072
-0.54796374 0.61334336 0.07326850
-0.39352494 -0.02692551 -0.85054386
-0.81911671 0.14313231 0.07043479
0.70754755 -0.23634982 0.40046257
0.16562201 -0.00966046 0.87568557
-0.21267086 -0.28730196 0.72383261
0.61145031 0.34262961 -0.41180956
-0.28414145 0.45361215 -0.60752928
0.26954266 -0.72381866 -0.33279184
-0.68247426 -0.25746113 -0.30369088
0.45360890 0.36472312 -0.53162038
0.16032918 -0.31568468 0.71818006
-0.74172044 0.38638699 -0.29162270
0.21085995 -0.76303762 -0.06639301
0.74689090 0.11234990 0.21941584
0.16096109 0.66522712 -0.39225477
0.06540282 -0.88509792 -0.10405704
-0.79056013 0.55467868 0.03937652
0.16984741 0.45161375 0.70809126
0.74891150 -0.09424505 0.31803972
0.55367601 -0.59388733 -0.06706310
-0.62215590 -0.03593915 0.50921714
-0.29370081 -0.77561498 0.31035489
0.04193030 0.79734898 -0.07058121
0.77255905 0.05534950 0.14770140
0.37739581 -0.32650158 0.67561018
-0.20961471 -0.75733328 -0.25251508
0.15591231 -0.69213146 0.57790542
0.78958130 -0.34538135 0.07786507
-0.74602735 0.11846460 -0.25794086
-0.68225265 -0.44102713 -0.34626454
0.38879615 0.68112189 -0.23523776
0.07630186 -0.59384674 -0.59070408
0.78347886 0.34628054 -0.23074932
0.23024304 0.42191812 -0.70244038
-0.06033913 -0.80520856 0.49301359
-0.29677415 0.74511546 0.11024950
-0.13240848 -0.79311001 -0.33483914
0.11355454 -0.02671733 -0.76808774
-0.81368899 -0.05639246 -0.06157739
0.25575787 -0.77243942 0.15503733
0.04203226 0.29756054 -0.68694723
-0.51015770 0.37023330 0.48322254
-0.27457249 -0.13223226 0.78895938
-0.57265413 -0.02999876 0.68242657
-0.10335504 0.52701050 -0.63837945
0.67330515 0.17330360 0.32597306
-0.63816047 -0.04973552 0.53892922
0.18919966 -0.74378556 -0.31922463
0.55814898 0.64501631 -0.02085893
0.32936469 -0.59106725 -0.51214027
-0.23097444 0.78506535 -0.35730812
0.77940464 0.59150004 0.03296296
0.58070815 0.52931803 0.28660849
-0.39305836 0.67027348 -0.36789817
-0.31311405 0.70257252 -0.13940156
-0.38247687 0.24448903 0.70367563
0.42759019 -0.20319252 -0.75512254
0.76433921 0.12812077 0.00844366
-0.31834772 0.69822204 0.36867124
0.60030472 -0.00576521 -0.65601468
0.14576975 0.76365089 -0.26447931
-0.63676107 0.46438149 -0.23592971
-0.76941562 -0.34990504 -0.07099963
-0.32759073 0.64184856 -0.34150299
0.63338149 -0.30840769 0.39947233
-0.33732668 0.18793388 0.75136125
-0.41623724 -0.46284333 -0.43854892
0.00301763 0.90443259 0.30380490
-0.71606266 -0.52451491 -0.22231779
-0.48373175 -0.59107471 -0.27657798
-0.44629717 0.69327193 0.05401649
0.85795152 0.01832935 0.13762039
0.79064083 -0.41690859 -0.00789514
-0.27986714 -0.63761896 0.42535195
0.05844021 0.26431268 -0.76173520
0.01534532 -0.46974209 0.69461799
-0.55841112 0.37005761 0.52091861
0.18195617 0.83250242 -0.20945294
0.11579422 0.52005166 0.64226902
-0.76627874 -0.17209047 0.10968583
-0.02954513 0.32868701 0.70979106
-0.48835775 0.32218841 -0.52089727
-0.39842224 0.72890705 0.11958529
0.30244881 0.38034514 -0.66777349
0.82066488 -0.53289145 0.11105121
0.84905446 -0.38901293 0.01610211
0.87888503 0.45919761 0.05012897
0.02766262 0.83288443 0.45075849
-0.55572319 0.64271337 -0.03866325
-0.59166265 -0.61736685 -0.05911097
-0.49672815 -0.67137134 0.35848892
0.20585252 0.76245886 0.07543884
0.10732888 -0.84688640 0.31401724
0.15357880 -0.13839796 0.82494473
0.05141247 0.85420477 -0.46029425
0.00606614 -0.74279559 0.61652231
0.53358161 -0.00656507 -0.88953817
-0.69023108 0.43649969 -0.23730753
-0.11436937 -0.68221581 -0.51052940
-0.42124224 0.65080684 -0.22773460
0.05877763 -0.66448808 -0.64249432
-0.38659179 -0.77439374 0.11211142
0.21898103 0.70680326 -0.01987610
0.77513576 0.44982660 0.18555723
0.72770059 -0.33314455 0.34910887
-0.16563125 0.13375758 0.77227080
-0.83134210 -0.25796619 -0.05195490
-0.38185900 0.49271917 -0.47419563
0.77467024 -0.50473654 -0.07852532
-0.16191584 -0.60902137 -0.56330311
0.50007117 -0.27835542 0.56288695
0.29566076 0.49697092 -0.60368562
-0.48354131 -0.61158061 -0.25775212
0.82911360 -0.06928389 0.01746809
0.35277516 -0.49304315 -0.41569415
0.56924117 0.54736495 0.18605153
0.11546340 -0.29717964 -0.75475287
0.75858617 0.08205205 -0.32807717
-0.14831012 -0.58367604 -0.59360075
-0.32316676 -0.56426895 0.45738459
0.66347873 0.08226415 0.54247606
-0.64346766 0.11083468 -0.48396021
0.45119488 0.35754260 -0.50842059
-0.32673776 -0.37789461 0.65637672
-0.14922886 -0.85961562 -0.39395770
-0.44830331 0.52101779 -0.45715013
-0.34553427 0.28756040 -0.72463071
-0.79627287 -0.29777104 -0.07309204
0.30028394 -0.60120386 -0.51644790
0.27878967 0.29683793 0.65123975
0.61394894 -0.35117278 -0.45659167
-0.23530477 -0.67426360 -0.48257619
-0.07003199 -0.79613239 -0.12805225
0.58326578 0.45503843 0.36647746
-0.41749924 0.35485876 0.63995290
-0.41681939 0.72411823 -0.29101634
-0.83336353 -0.31312054 0.02730721
-0.23261164 -0.76270050 -0.16879918
0.52439332 0.46214235 -0.37090638
0.69367874 -0.11449176 -0.49945197
0.58880043 0.25744301 -0.45855537
-0.77748644 -0.12016132 -0.16400917
-0.17855650 -0.81420672 -0.24082533
-0.07088740 0.87756044 -0.11091077
-0.38069794 0.46531308 -0.53171659
0.39858681 0.32912961 0.70965540
-0.62337494 -0.57863903 0.05653429
0.64976466 0.52457005 -0.20907894
0.32466379 0.51853776 0.66008925
0.58638978 -0.17457853 0.63170195
0.11396421 -0.47053471 -0.69506347
-0.45080116 0.62334961 0.31810868
-0.49449825 0.44212416 0.38597029
0.17831919 -0.81971467 -0.19941168
0.85459864 -0.05976611 0.00727709
0.79165399 0.28634924 -0.22886966
-0.50101984 0.62992305 -0.20706965
0.17327856 -0.48957190 -0.69702458
-0.20109624 -0.73982453 0.09837142
0.81302106 -0.07499040 -0.20438084
-0.40639102 -0.33260551 0.61070681
-0.84257901 0.25429371 0.08264226
-0.74758923 -0.16989255 0.26660714
0.34259105 -0.47304609 0.61287439
0.65705514 -0.57083279 0.20130308
-0.14846577 0.76400435 -0.00155522
-0.22329268 -0.21203202 0.84799325
0.58978724 0.28293824 -0.47647372
0.05180418 0.17063774 0.73650908
-0.73978007 0.13751364 0.13444228
-0.80898404 -0.15702102 0.18450752
0.88063526 -0.11595872 -0.03565770
-0.00767301 -0.75658613 0.54232657
-0.21033941 -0.78029859 -0.07529239
-0.27564916 -0.55452400 0.44657469
0.46393588 -0.66245633 0.04795886
-0.65833855 -0.50200212 0.13612771
0.25745958 -0.70254940 0.27792937
0.52129829 -0.11418613 -0.76350451
-0.79792750 0.34670073 -0.19919789
0.17979360 -0.39035511 0.71338308
0.28346834 -0.24708378 -0.75630963
-0.01182061 0.81784564 -0.55239952
-0.59791005 -0.10399088 0.63327241
0.12692320 0.14613266 0.80207253
-0.50811768 0.36049849 0.49002239
-0.68355966 0.31608391 -0.38812432
-0.73031855 -0.02961031 0.46137795
-0.07192753 0.81536686 0.11697668
-0.08134276 0.49200124 0.59646285
-0.12099156 0.61960745 -0.61850739
0.70002639 0.28512561 -0.33768636
0.01490652 0.74470383 0.17267272
0.43044439 -0.69468009 0.07650846
-0.49571681 -0.34231979 0.45066381
-0.03211449 -0.59531456 0.62935519
-0.19957556 -0.75563592 0.38400212
0.78327143 0.29372540 -0.02972331
-0.54541159 -0.53763467 0.31887013
-0.71392620 0.43123549 0.18203191
-0.00173603 0.49636960 -0.70715618
0.38083535 0.74852467 -0.09464585
-0.44333720 -0.28276205 -0.59572542
0.54367220 0.63760364 -0.04771167
-0.01952116 0.05306499 0.81046999
-0.06061444 0.84580141 -0.50368679
-0.05516268 0.10383855 0.82042432
-0.18540862 0.05854397 0.79619992
0.77752268 0.41168037 -0.13603202
0.28747857 -0.78646541 0.01402608
0.61979198 0.37554953 0.38536906
-0.67272043 0.58527637 -0.00007621
0.68451357 -0.04974644 -0.44957817
0.62800360 -0.63726622 -0.05624789
-0.48362273 -0.05781517 -0.84865689
-0.84259951 0.12362465 0.00914074
-0.79476762 0.48485279 -0.05669755
-0.28921151 0.23468964 0.75026965
-0.13798943 -0.01215975 -0.84648967
0.03384124 -0.79667133 0.23189095
-0.22014569 -0.56565750 -0.60352099
0.77260816 0.17859787 0.26769125
0.19533968 0.34796539 0.72102785
-0.70457745 -0.44185403 0.27631187
0.13586953 -0.15204060 -0.78734756
-0.76365650 -0.18199404 -0.27583012
-0.58045352 -0.59548217 -0.18167755
0.61132395 0.36049384 0.43780118
-0.19805253 -0.16274820 -0.81939852
-0.35995451 0.68799168 -0.02563744
-0.29564214 0.66202646 -0.44930878
0.37388405 0.41648495 -0.55632782
0.22031888 -0.78287214 0.37322232
-0.57480335 0.59584785 0.10916649
-0.00199662 0.73219013 0.56240070
0.64323366 0.24306764 -0.44593441
0.17229897 0.75929189 -0.03446835
0.63113904 0.14293911 -0.66810656
0.20395800 -0.78215092 -0.04563005
-0.49526852 0.59358191 -0.26921222
0.32226709 -0.66511977 -0.36950842
-0.83996141 0.42234474 -0.05760835
0.78803289 0.45801693 -0.11995519
-0.37741882 -0.74965274 -0.02945113
0.45824021 0.26465517 0.59350502
0.31771716 0.05840560 0.81438017
-0.23545370 0.74130636 -0.38913399
0.59283364 0.29850271 0.54335713
0.06563339 -0.76194358 -0.32044423
0.14664936 0.78708452 0.19202174
-0.08377946 0.04512262 -0.83779860
0.20510097 0.84371692 -0.12498898
0.86144555 0.19152792 -0.07489370
-0.28594890 0.57973289 -0.62944818
0.50238299 0.41726822 0.48265195
-0.26790205 -0.12574072 0.82428718
-0.42943403 0.66244715 -0.18841887
-0.82515109 -0.49846116 -0.00153257
0.05909708 0.06902160 -0.83543849
0.13525175 0.77053356 0.10640957
0.30928805 0.67187583 -0.02305988
-0.52998376 0.16200872 -0.64302361
-0.09758989 0.29081228 0.71049953
-0.66959178 0.28316313 0.35501707
0.48561695 0.62983853 -0.35513183
0.57168972 0.63438785 0.18435788
-0.83671749 0.23295715 -0.05133262
0.75797129 -0.42520994 -0.20690273
0.51536167 -0.18194880 0.65100920
-0.15065750 0.32110018 0.72960496
-0.15250751 -0.09208522 -0.77311230
-0.80913591 -0.32980108 0.09394829
-0.73625040 0.06953344 -0.31313562
0.21917404 -0.75270838 0.42138693
0.84609246 0.17786197 0.10337269
-0.55299449 0.63092065 -0.04407059
0.81893337 -0.41804495 -0.06391648
0.00506206 -0.26194653 0.73410475
0.40151590 0.38870904 0.68420470
0.42141831 0.46069729 -0.52885556
0.68400502 -0.15590568 -0.38096067
-0.51671016 0.60664946 -0.24856733
-0.02457773 0.41405725 -0.67283070
0.61809564 0.16585538 0.64406228
0.40166396 -0.66503441 -0.00493454
-0.64786816 0.15207511 0.46455738
0.00337913 -0.78018290 0.09191214
0.07493778 -0.84284759 0.45367247
0.78738177 -0.07813658 -0.30930507
0.70087886 -0.22142212 -0.37557125
0.08919808 -0.14595655 0.72290766
-0.30113164 0.77596921 -0.02265860
-0.25876582 -0.75001216 0.30958533
-0.18523659 -0.15560919 -0.78448617
0.42214638 0.64776337 -0.30646247
-0.71080077 -0.43642157 0.22345020
-0.43289903 -0.22627558 0.66431749
-0.03447133 0.37847865 0.76705539
-0.02604246 0.19189268 0.77982903
-0.80800843 0.01129520 0.14171225
-0.35276926 0.28072673 -0.68787920
0.39019427 -0.44981474 -0.50296974
0.36989936 0.35743454 -0.64739192
0.25781274 0.05427806 -0.76104128
0.78881490 -0.02570929 -0.17337587
0.64604998 0.21472187 -0.56777728
-0.70849574 -0.30095997 0.35168102
0.13268739 0.73276019 -0.54665160
-0.70218956 0.48307779 -0.20355043
-0.53109956 0.62144095 -0.16588385
-0.75530827 -0.02035871 -0.31997934
0.11333573 0.78524053 -0.54713881
-0.65754688 0.16546157 -0.50853896
0.38423946 -0.56303114 0.48503596
-0.70993781 -0.02285775 0.40167961
0.50519586 0.69713396 0.07487427
-0.27059942 -0.02008325 0.90239835
0.40969977 -0.40733647 0.47547665
-0.40407827 -0.05245184 -0.81551135
0.11909349 0.00498779 -0.81234026
0.50568330 0.66455054 0.17948604
0.70543706 -0.15658145 0.51691127
0.40971637 -0.18094525 0.73233795
-0.85239387 -0.41975731 0.04822047
0.14591400 -0.15481973 -0.77354038
-0.05031017 0.84663057 -0.53625071
0.07187115 0.06840621 0.78359902
-0.63116562 -0.03436328 -0.54453671
0.74626625 -0.13328277 -0.32942966
0.15927045 0.34135208 -0.73040414
0.28897187 -0.58805662 0.53173542
0.01184538 -0.83958822 -0.26214746
0.18043958 -0.23150928 -0.73573387
0.13443621 -0.22606267 -0.73613846
-0.37149698 0.50889909 -0.54751718
-0.75632334 0.17377456 0.32378000
-0.42331478 0.16589485 0.81381869
-0.59702408 0.07317237 0.66155827
0.53425765 -0.66620600 0.10607988
-0.79941952 0.36165610 -0.01091807
-0.62865162 0.26254234 0.47758007
0.40110511 -0.67660928 0.13721576
0.60859883 -0.61119103 0.01144929
-0.41232735 -0.72634292 0.17680635
0.75744677 -0.61053437 0.07867418
-0.11852752 0.31992850 -0.73949945
-0.75286400 -0.38530457 0.25176698
-0.17462099 -0.65520561 -0.56354630
-0.16180511 -0.81412107 0.04444396
-0.36003238 -0.01804015 -0.81635773
-0.04886037 0.10698732 0.83881807
0.12348301 0.42508093 -0.69822478
-0.37934175 -0.63028413 0.34304073
0.44573569 0.67198670 -0.28575042
0.04822438 0.38315144 -0.68000436
0.79442239 -0.35890839 -0.17975718
-0.04121078 0.51233315 -0.63035357
-0.12755311 0.75328332 0.14491121
0.01040803 0.82560289 0.51486385
0.15764065 0.77503449 0.20430686
0.35950401 0.47549850 0.53564084
0.24797635 -0.70188218 -0.39447522
-0.34088993 -0.05654121 0.81928670
-0.09964484 -0.29908222 -0.76830781
0.57706618 -0.40924165 0.44066888
0.48384243 -0.28267461 0.61588514
-0.60307944 0.32181716 0.48888028
-0.28237468 -0.73453945 0.10299474
0.03724505 -0.83581609 -0.44854802
0.68993533 -0.15258704 -0.41030595
0.85545480 0.01551936 0.01335132
-0.11943976 0.80617183 0.11407146
0.69470680 0.17199568 -0.34017605
-0.58797443 0.54522091 -0.20842019
0.43652919 0.31480834 0.69774139
-0.28364375 -0.61618018 0.47805429
-0.17272699 -0.73902243 0.51750493
0.26552331 -0.71778417 -0.43208292
0.26966059 0.61226559 0.59794188
0.07717453 0.86286056 0.15830499
0.72260094 0.34772852 0.21331041
-0.49237558 -0.25640747 0.58807063
0.23900069 -0.73218489 -0.05025451
-0.29399776 0.41298726 -0.66264522
-0.33649847 0.48029834 -0.46220264
0.46077067 0.52279085 -0.43013835
0.16531658 0.76591879 0.06455085
0.09711104 0.80180866 0.03627940
-0.71064329 0.15990345 0.49719882
-0.82890248 -0.34080496 0.07795949
0.11746215 0.46702459 0.64741766
-0.54657221 0.24853443 0.61406195
0.28343967 0.70081061 0.22450715
0.15721706 0.38322404 -0.69600022
-0.81080246 0.03862552 0.09554506
0.10729579 0.43296349 -0.63756931
0.14837344 0.34258121 0.72835147
-0.74650812 0.57844073 0.08035209
0.29078826 -0.60197157 -0.47093838
-0.68023396 0.10237011 0.64682984
-0.03111334 -0.90430021 -0.11734664
-0.56407583 0.57439280 -0.22524332
-0.79068780 0.45339683 -0.10607712
0.68358994 0.56947029 -0.02512001
-0.46825546 -0.20092000 -0.65869665
-0.14633244 0.68765789 -0.61754239
-0.63325703 -0.11987870 -0.61155307
0.33679643 0.17862962 -0.76635528
0.70583725 0.01534535 -0.36587492
0.57402277 0.56474680 -0.23978992
0.10407809 -0.71856594 -0.54094946
0.12850897 0.70301735 -0.56296587
-0.35690612 -0.07553732 0.78637373
-0.43407419 -0.72168058 -0.14917497
-0.78437924 -0.27252376 0.20859745
0.81488848 -0.40587279 -0.01553989
-0.00749019 0.33700088 -0.71518540
0.39320073 0.60079062 -0.28276679
-0.78330970 0.13568147 -0.17994858
-0.06230272 -0.52867758 0.65739238
0.06623007 0.82546496 0.40971425
0.24655046 -0.70815712 -0.38931647
0.84403610 -0.28071329 0.00255998
0.40110326 -0.51092088 -0.42611349
-0.12529834 0.78297275 -0.04772056
-0.21864286 -0.50934255 0.62884223
-0.69840288 0.07838701 0.34549412
-0.27962857 -0.55609190 -0.51202381
0.82519734 -0.08365387 0.10663655
-0.35284972 -0.70656967 -0.02311016
0.11128125 0.81043273 0.28356555
-0.56772685 -0.05279437 -0.79465127
-0.69206727 0.59654760 -0.05890828
0.21711232 -0.61534286 -0.52591968
-0.63301647 0.59383661 0.18538515
0.07849044 -0.68597108 0.55615628
-0.55999434 0.32735977 -0.41225860
0.41648757 -0.64091986 0.35778183
0.57184231 0.43441361 0.40481317
0.51303744 -0.60595703 -0.21725287
-0.47446635 0.04479374 0.82085955
-0.10685918 -0.37616488 -0.75880265
0.34801278 -0.02038283 0.84477556
0.70977128 0.18175255 0.30237073
0.54036999 -0.01207889 0.79557228
0.35027149 -0.13698830 0.77415860
0.38006154 -0.69012451 0.00586970
0.50500107 -0.66706842 0.08704522
-0.40379351 -0.64478505 0.04437507
0.14984529 -0.02327779 0.78743815
0.43378726 -0.68575394 -0.09848092
-0.34745175 0.73860478 -0.36842513
-0.37562153 -0.48040217 -0.51699543
-0.02293752 -0.37365279 0.74685478
0.82221639 -0.12832999 0.01941977
0.47730491 0.21893714 0.54459786
-0.68724310 -0.17742281 0.45574352
-0.46219131 0.46149909 0.39460310
-0.24766387 0.76636589 0.34416664
-0.71901190 -0.15756157 0.34444356
-0.06174430 -0.88488209 -0.03749521
-0.54086471 0.04360538 -0.71838832
0.39487734 -0.68588763 -0.34833696
-0.13676953 -0.81093925 0.46057013
0.68117714 0.09181119 -0.50700796
-0.76439452 0.17339770 0.24531515
-0.41184086 -0.68884063 0.25103459
0.32448858 0.51726091 0.54083538
0.30761772 0.57492733 0.53304732
0.65630567 0.17115483 0.46275616
-0.05784974 0.83912092 -0.46073738
0.67205322 -0.32142738 0.38157395
0.51710403 0.49546951 0.44501576
-0.00932357 -0.87755477 0.14597638
0.27591780 0.38499439 -0.68973470
-0.32038122 -0.72024345 0.18506815
0.62306130 -0.56084740 -0.17903446
-0.81037629 -0.36838454 0.06567086
-0.48744231 -0.13347796 0.77784157
0.71228635 -0.00792361 0.30337927
0.26148412 0.75408208 0.15914217
-0.07606173 -0.13858527 0.79640949
-0.22650068 -0.79775321 -0.11723429
0.03802226 0.86789900 0.11724704
0.72892678 -0.00811329 0.29071549
0.53363550 0.63867563 -0.27585033
0.81463182 -0.27805486 0.06048777
0.56351626 0.60552120 -0.23975518
-0.61846519 0.03038349 -0.65511346
0.52342463 0.19947673 -0.69901705
0.33475477 0.70979971 -0.07900609
0.65331209 0.55868942 0.10692088
-0.35143542 0.75143433 0.36215243
-0.37774551 -0.71516722 -0.13710091
-0.19738649 0.21291001 -0.75103104
0.21578707 0.76717192 0.17213185
-0.81231725 0.26529974 -0.17433158
0.25219682 0.77623177 0.32549867
-0.25735131 -0.74114490 -0.26545113
0.82322598 0.03889655 -0.05976028
0.31507340 -0.38418213 0.75470042
0.85721624 0.16518854 -0.03973433
0.35946587 -0.04305548 0.86297929
0.52087831 -0.58658856 -0.20138057
-0.21601181 -0.67253745 0.42016697
0.43646896 0.17738926 -0.80702627
0.80861557 0.30391732 0.08170666
-0.28633553 0.65891814 0.43700615
-0.57225609 -0.39630258 0.42627701
0.18287674 0.71166486 -0.53305316
-0.78163171 -0.01732074 0.03650397
-0.24669549 0.77398211 0.11166262
0.70077503 0.05260247 0.43760490
-0.70464551 0.60734200 0.10607412
-0.68648481 -0.61264414 -0.07198261
0.05295587 -0.09854706 0.81003785
0.47667891 0.16133866 -0.76415277
-0.23199438 0.60291576 -0.60729635
-0.15665141 0.76771450 -0.46825883
-0.07033280 -0.09275053 -0.81271541
-0.65398633 0.48175111 0.27101105
-0.69822776 0.34856305 0.41682193
0.83029699 -0.39967459 -0.03863728
0.07351476 0.85159767 -0.17726205
0.79729843 0.51275527 0.13584447
0.31766364 -0.45328498 0.65503168
-0.01546791 -0.45477682 0.62454939
-0.38504100 -0.17139369 -0.75338757
-0.59651494 -0.54991990 -0.21474542
0.27053139 -0.76950455 -0.20674913
-0.05767667 0.23884015 -0.74718916
0.78205180 -0.20968466 -0.24234630
0.00358743 -0.32347155 0.69492197
0.00314597 0.79721278 -0.32455647
-0.22683811 -0.79982018 0.38311413
0.61109114 0.20525481 0.50095642
-0.31799161 -0.24468251 0.74019969
0.74229860 -0.31212842 -0.33348534
0.40433776 0.53348351 -0.47286189
0.22387269 -0.49549198 -0.64976811
-0.77685440 -0.25677904 0.19893551
0.32926869 -0.48891518 -0.57625949
0.65939701 0.09509890 -0.60424602
0.22939105 0.75048947 0.04440681
0.49391973 -0.59409058 0.34287542
0.67717707 -0.04938168 -0.57495463
-0.70671761 0.04768729 -0.21404862
-0.38025507 0.64099157 0.35631403
0.91950917 0.15008324 -0.05601069
0.80260551 0.38261491 0.12126528
0.62874401 -0.13684808 -0.51125002
0.55025220 0.10110583 0.70349622
-0.00959127 -0.24453963 -0.71201336
-0.41149288 -0.71768904 0.06340627
-0.76409841 0.09802492 -0.24058922
-0.21512270 0.12398026 0.78416288
0.02536860 -0.25789526 0.70672786
0.23268293 -0.02528106 0.85048020
0.06516235 -0.21063735 0.71353066
-0.66280234 0.57794619 0.09944379
0.14594209 -0.11660699 0.85020030
0.86905324 -0.08532740 -0.01059723
0.05418409 0.72957462 -0.55771136
-0.07842631 0.80529338 -0.55023754
0.56545091 -0.63131684 0.07012302
-0.13556896 0.62666976 0.65527105
-0.06235467 -0.11193487 -0.81327248
-0.83169818 0.41533118 0.14173517
-0.80721354 -0.10814141 -0.00752905
-0.02346162 -0.04055865 0.84673476
0.25282368 -0.77989548 0.29963100
0.54544103 -0.23215461 0.51761711
-0.11604762 -0.10533858 -0.83083069
-0.62772751 -0.55286521 -0.31743604
0.73422277 0.55384874 -0.01267581
0.52527189 0.35788357 0.45683149
0.23694734 0.68799895 0.41816843
-0.42159775 -0.66940093 0.09019492
0.42807296 -0.15498227 -0.74199510
-0.63937581 -0.00337251 -0.57022607
0.08639444 0.56258941 0.60339665
0.31676698 0.72183919 0.01598590
-0.35440451 0.71851861 -0.03918089
0.71858764 0.43520236 0.16088329
0.66413176 0.15165615 -0.42419425
0.82934785 0.10186107 0.14578757
-0.52348912 -0.62752718 0.13972454
-0.85686374 -0.18714088 -0.01729741
0.79829156 -0.39133593 0.16910636
0.12172617 -0.63788962 -0.56747365
0.15061274 0.13836627 0.82958293
-0.83790600 0.15298858 -0.06135375
-0.55158210 -0.61089420 -0.08857302
-0.37217206 0.71021956 0.40101224
0.51820195 -0.33952853 -0.46825030
0.51345098 0.67180204 -0.10417126
-0.60298848 0.07064449 -0.57330537
-0.21632212 -0.82424581 0.03682787
-0.34370580 0.71184993 0.19252382
-0.34605500 0.63187271 -0.09537430
0.22328989 0.79624051 -0.35373098
-0.70140576 0.22656681 0.38579345
-0.61631215 -0.53657150 0.14509003
-0.45511854 0.39318383 -0.51518881
-0.78582132 -0.09922142 0.06089634
0.26823458 0.54535103 0.54439640
-0.27729970 0.08347555 -0.82278407
0.79169905 -0.12749855 -0.21399415
-0.29437315 -0.37522936 -0.71061933
0.70691156 -0.14297880 0.44116235
-0.79167759 0.44892386 0.16917886
0.80907965 -0.04188326 -0.10200612
-0.69202566 0.08450828 -0.32817730
0.10466683 -0.26626226 0.77840805
0.62182343 0.25411016 0.52725255
-0.26697788 0.74942493 -0.29748240
-0.46085799 0.44924903 0.45866627
0.78987706 0.00276603 -0.35413843
-0.25509441 -0.78667837 -0.22149524
-0.70604503 -0.54169297 0.08928566
0.10638782 0.04244168 0.83707714
0.09188415 -0.80364525 0.02718390
0.59905136 -0.28836936 -0.45131433
0.67945421 -0.44599354 -0.27666232
-0.36567828 0.66107219 -0.36220089
-0.58867097 0.19700535 0.55456758
0.84274364 0.21972401 0.00373724
-0.00462856 0.86118257 0.45062146
0.20072950 0.79615790 0.12249725
-0.02086731 0.07912718 -0.87887001
-0.22325040 -0.40247673 -0.65893459
0.70881820 0.19550239 -0.36901781
0.48516393 0.34279886 -0.57816947
-0.25623405 -0.43948048 -0.69731164
-0.70249522 -0.09861750 -0.35597038
0.85264182 0.01046444 -0.02781940
0.60653961 0.53728807 0.32324043
0.19718224 0.61689830 -0.60397828
-0.55430984 -0.43369329 -0.30201152
0.69447064 -0.17475460 0.56527638
-0.21358012 0.66008210 -0.46289250
-0.39480850 0.25009972 0.70178401
0.51134729 -0.45791465 0.44336811
-0.73223341 0.04436480 0.16766486
0.78588271 -0.56100553 0.02963959
-0.76134050 0.27081123 -0.15058114
0.18197037 0.74853319 -0.28391790
0.54607081 -0.53929520 -0.32440063
-0.74152541 -0.10050597 -0.22731774
-0.39290696 0.71481419 -0.15529504
0.40212488 -0.55275130 -0.36288378
-0.77355289 -0.26440960 0.26616573
0.73112357 -0.34113213 0.32043505
0.17724784 0.41998318 0.70094991
-0.69869947 -0.54203075 -0.04112691
-0.40332228 -0.63383222 0.33204204
0.38575953 -0.72748268 0.05840676
0.27631408 -0.58334720 0.52021515
-0.05240865 0.67351633 0.51828778
0.15310712 -0.73807323 -0.12890372
-0.79563296 0.00073924 0.15765183
-0.37489712 0.42287222 0.61123705
-0.20122699 0.14442348 0.77256894
-0.50925744 -0.17605962 0.75328302
0.71843338 -0.58003867 -0.03431473
-0.75079727 -0.32299882 0.09695370
0.09948388 -0.74903446 -0.53827846
-0.67741919 -0.64119089 0.02595643
-0.19387437 -0.73873341 -0.23827499
0.67015529 -0.23584208 -0.46537983
-0.23032476 0.77695507 -0.29042149
0.45256874 0.07426868 0.80643499
0.17113066 0.21811461 0.71694326
-0.72103679 -0.43731511 0.23228425
-0.05309417 0.74243873 0.58921313
-0.80582154 0.15049899 -0.24053286
-0.67191088 0.37233931 -0.30099168
0.63392675 0.36751345 -0.39319345
-0.41851586 0.56148475 0.38849035
0.52449417 -0.00777518 0.82767415
-0.20920193 0.45243844 -0.67940974
-0.46984008 0.11221390 -0.73774457
-0.18471745 -0.44851649 -0.69944847
-0.41761959 0.61270136 -0.32180989
0.69944441 -0.29787534 0.30009198
-0.62186980 -0.09486501 -0.60065234
-0.68186522 -0.62019503 0.12755647
0.82996225 -0.00263318 -0.02338663
0.73552752 -0.41177136 0.17237456
0.10714260 -0.81969661 0.28915125
-0.09289312 0.78962708 -0.20909072
-0.45617765 -0.04953185 -0.82994616
-0.09917707 0.65347874 -0.51386619
-0.01515120 -0.75192249 -0.57049322
0.29967850 -0.79783988 0.16124636
-0.27334839 -0.44741881 0.60780740
-0.06794367 0.75058258 0.53902066
-0.84512818 0.27545124 0.02960937
-0.27642614 0.75151402 0.25513428
-0.39907786 -0.69584256 0.04600038
-0.55784285 -0.49170601 0.37560216
0.61514699 -0.17550500 0.54648995
-0.07719158 -0.88469774 -0.51869261
0.22436908 0.76365489 0.33317539
-0.19445264 -0.00646554 0.87013221
-0.46116346 0.63841432 0.30460823
-0.12197234 0.84696048 -0.31593251
0.04760787 -0.45433378 0.68681908
0.62418973 -0.46412307 0.20757528
0.39847037 0.50492626 -0.53793168
0.47539821 0.70115358 -0.10772403
-0.61794245 -0.17246185 -0.48905736
0.07857903 0.79621994 -0.25590944
0.88357604 -0.36147717 0.05155027
0.66239595 -0.08318736 0.44818574
-0.23165801 0.82157779 -0.00603473
-0.51848698 -0.56079859 0.04184386
0.78434300 -0.16737050 0.28016397
-0.73519230 -0.18175986 -0.31529874
-0.82421231 0.22022659 0.12312081
-0.01091524 -0.19979861 -0.78883111
0.66784906 -0.39684296 -0.29167414
-0.49104655 -0.25091815 0.66649818
0.61426485 0.16198888 -0.63042736
0.07085123 0.82421041 -0.12997815
-0.79009736 0.58829457 -0.04841881
0.05626034 -0.38976684 0.70488882
-0.83341968 0.17233732 -0.05834214
-0.87777555 0.18316346 0.06251290
-0.00438524 -0.85822612 0.08242472
0.66848826 -0.56985199 0.17399825
0.03992649 -0.15481617 -0.79328978
-0.26531962 0.07413218 -0.87693512
0.36908153 -0.54441649 -0.41867495
0.09517745 0.82147372 0.34306458
-0.09998446 -0.83485889 -0.05834930
0.61094248 -0.37633556 -0.47049981
-0.75930071 0.31869283 -0.09616674
-0.37142968 -0.55341685 0.55372357
-0.00649470 0.10715099 0.82842338
-0.79460311 0.21229820 0.10648412
-0.30625644 0.18513077 0.80655670
0.13766174 0.73792404 0.08856999
0.31936315 0.52767837 0.48965633
-0.20090006 0.00598748 -0.83236408
0.32364476 -0.48295632 -0.65951717
0.09141904 -0.83979851 0.39038241
-0.15178025 0.85064572 -0.06225880
0.05865017 -0.86755359 0.29852605
-0.11631004 -0.14713664 0.81589019
0.64989495 -0.12944545 -0.55613351
0.59694695 0.60341680 -0.00343823
-0.12702286 0.69055426 0.44608811
0.08908884 -0.75904638 -0.40489256
-0.85353804 -0.16725613 -0.14133543
0.09986131 0.78561413 -0.05192503
-0.76811218 -0.35248888 -0.28892457
0.65658629 -0.29029039 0.40350723
0.02176343 -0.28707948 0.75891542
-0.07914666 -0.25237367 0.74392033
0.38989112 -0.10104428 0.80414176
-0.04504992 0.37938133 0.68736386
0.19028991 0.32858509 0.74280632
-0.38563633 -0.00617280 -0.87038231
-0.48267230 0.63001019 0.00522129
-0.70085537 -0.21196601 0.48192054
-0.24194828 0.11027946 0.83319771
-0.30057034 -0.06860355 -0.80357718
-0.76013076 0.47011167 -0.13906626
0.20409156 -0.15317862 0.78193498
0.07651266 -0.63544399 -0.59483218
-0.15158907 -0.61259961 0.64870107
-0.61363769 -0.46296042 0.28125641
0.28191406 0.41902763 -0.69415307
-0.34758815 0.67165065 0.31824195
0.27053460 0.69086283 -0.40282229
0.80146921 -0.29679084 0.23921937
-0.30380598 0.19187562 0.74748194
0.68629146 0.25663108 -0.51456952
0.73433661 0.35136530 -0.28123558
0.64700723 0.04950162 -0.44756535
0.30072597 0.48090154 0.60380077
-0.72236490 0.21879655 -0.25814515
0.68285453 -0.58480507 -0.03782431
-0.14797185 0.03105862 0.78957546
0.21549727 -0.77008504 -0.28472719
0.41190585 0.00639515 0.79052532
-0.67653668 0.01742384 -0.53109312
0.37509349 -0.20539531 -0.72722101
0.74496984 0.34775370 0.27149573
0.40170899 0.14368176 0.73936951
0.20999026 -0.59613913 -0.60239947
0.58432519 0.10023496 0.69463968
0.69605899 0.46036640 0.34897235
0.32027486 0.69675601 -0.33460751
-0.31481361 0.14135276 -0.82906938
-0.23822646 -0.52634031 0.62837625
0.39756280 -0.63707799 0.30187112
0.54223514 -0.23208587 0.61124051
-0.51004303 -0.61605459 0.18909542
0.22023635 -0.75531405 -0.28967628
0.05897747 0.70115018 -0.53397429
-0.00435841 -0.58987582 0.63699543
-0.28913480 -0.66866934 -0.49952769
-0.54620004 0.05643823 -0.93241525
0.77996576 0.31645107 0.11947526
-0.36293659 -0.70264304 -0.04807956
-0.62758350 -0.31148556 -0.36811712
-0.75149989 -0.17529939 -0.14731823
0.16598429 0.43873745 -0.65290737
0.17421377 0.81426257 0.21608102
0.43701613 0.30021128 -0.69674015
0.55640495 0.62325293 -0.17094344
0.42549446 -0.34052101 -0.49506548
0.31744486 0.54888248 -0.58419669
0.72436309 0.15550780 -0.41380763
0.43555355 0.03895257 0.84943426
-0.82602537 0.35899174 0.04933036
0.54901791 0.31594110 -0.57492709
-0.53224409 -0.08841228 -0.76016009
-0.63212073 -0.20306528 0.52160454
0.66853225 -0.49513632 0.14580125
0.32136163 0.08889207 -0.79272449
0.27980593 -0.75495619 0.32257295
-0.02403941 -0.85820919 -0.55021560
-0.58101523 -0.16648901 0.57788348
0.62200820 -0.54224461 -0.20686552
-0.79410279 0.57998395 -0.05013679
-0.47700432 0.62771672 0.07778048
0.17507145 -0.81144875 0.13589831
-0.53110170 -0.68196517 0.14494924
0.23129643 -0.71246088 0.01662107
-0.04938613 0.86285597 -0.35610944
0.24543628 -0.63449585 0.44194770
0.54382932 0.36437529 0.51809502
0.51555169 -0.21437699 0.56495428
0.06508522 0.85506326 0.11569507
-0.57391977 -0.40594900 -0.47992092
-0.00170594 0.45349723 -0.74878335
0.45848387 -0.70381904 0.10897280
-0.64044607 -0.01201735 0.57823086
0.38285363 -0.36397514 -0.53508127
-0.34757641 0.74059629 0.14498651
0.36708862 0.10861730 0.80753422
0.13335487 -0.79015094 0.10248192
-0.77830839 -0.04137954 -0.17097126
-0.70511985 0.33311909 -0.28644657
-0.86579370 0.20824027 -0.10634928
-0.84226716 0.12190916 0.04737188
0.10316323 0.77388901 0.30533653
0.82799983 -0.16499227 0.03120190
0.46319017 0.41108945 0.42631441
0.65327990 0.32121980 0.41643882
-0.38624999 0.26216882 -0.76632261
0.89366543 -0.45706955 -0.00721101
-0.44384098 0.22912011 -0.77664006
0.91462743 0.50277627 0.03787573
-0.42541820 -0.02086555 -0.87182200
-0.02073620 -0.74382871 0.53781843
0.71375358 0.01412176 -0.44762146
-0.04251321 0.89388132 0.41105404
0.17966338 -0.76135796 0.03295848
-0.19260126 0.00986681 0.82497358
-0.30872601 -0.77938586 -0.16937341
0.70045495 0.60251439 -0.04555172
-0.74945760 0.40803158 -0.16442622
-0.14078031 0.55199409 -0.64889240
-0.16302504 -0.17799619 0.80637753
-0.72177434 0.54224879 -0.18168624
0.47902367 0.60864580 0.28951067
-0.25433698 -0.48668322 -0.63404059
0.15377685 -0.40311506 -0.67291272
-0.48334414 0.64886963 -0.29768735
0.33559436 -0.00136945 0.80430317
0.30025676 -0.31014273 -0.75808311
0.18780908 -0.79940921 -0.16515759
0.01849341 -0.75330192 0.62583303
-0.12822498 0.73118955 -0.52387619
0.77938485 -0.25601941 0.31753713
-0.61258984 0.00004860 -0.67675018
0.29104733 -0.40037659 -0.66480350
-0.42391115 0.63585180 -0.17826432
0.59905791 -0.29924065 -0.58897007
-0.75256455 0.06445816 0.28502020
0.61756992 0.33839983 -0.44437340
-0.37940666 0.45165390 0.59347749
-0.68560088 -0.08956957 -0.35869211
0.12971221 0.80099565 -0.06041994
-0.43314442 -0.18393108 0.78255785
0.80884004 0.53559142 0.06259572
-0.03842049 -0.79869044 -0.14981003
0.60747910 0.35694078 -0.51089418
-0.62593377 -0.35790887 -0.46542096
-0.25556147 0.17990409 -0.77162981
-0.12892862 0.17956555 -0.79074419
-0.37655023 -0.35362631 0.63631094
0.40483248 0.14108883 0.85300863
-0.84108412 0.13852474 0.12554139
-0.66036987 0.02870688 0.36716351
0.77840424 -0.26553598 -0.21919048
-0.00529961 -0.87419844 -0.19559908
0.60727394 -0.32817197 -0.47838917
-0.07539775 0.63423097 -0.63634300
-0.56025958 -0.44749874 0.32161653
0.60460031 -0.60305101 0.02534579
0.39862373 -0.67141902 -0.19956021
0.75209975 0.27834624 0.31469262
-0.13523793 0.63340950 -0.55458677
0.53482115 0.42443123 0.53358459
0.52704465 0.37115625 -0.49753064
-0.71667230 -0.61182499 0.10273257
-0.46581995 0.35194671 -0.57197547
-0.24863261 -0.57318461 0.56840253
-0.79424965 -0.12103631 -0.10400375
-0.53557765 -0.18485437 0.63646877
0.11693651 0.80187017 0.08534188
0.44373164 0.67156178 0.23209624
-0.80627608 0.13770586 -0.20197409
0.11813097 0.84354287 0.04300813
0.15314698 0.44845775 -0.64321840
-0.06466417 -0.83650601 -0.26157102
0.37726325 0.44476897 0.56809139
-0.77475739 -0.03596946 0.35172272
0.23429106 0.19646151 0.77008545
0.69517314 0.18482737 -0.29349020
-0.28005075 -0.00687273 -0.81585205
-0.67003882 0.57910097 -0.15353204
0.66369963 -0.05478106 0.57372510
0.81142688 -0.16409792 -0.18366805
0.25698516 -0.50334346 -0.64514005
-0.21488027 -0.68756109 0.36846164
0.69847023 -0.04136813 -0.46114498
0.02693723 0.33837920 -0.71982110
0.36691433 -0.11029303 -0.72077739
0.37976742 -0.17583008 -0.81155705
0.51078808 0.57600725 0.22368544
-0.54427791 -0.15701039 0.64917183
-0.46755692 0.36310327 -0.62357843
-0.20155345 -0.75226754 -0.04325267
0.47850788 0.48530936 -0.27466246
-0.09912188 -0.57812607 0.58658290
-0.08438466 -0.35050538 -0.70763493
-0.48106444 -0.32913089 -0.69500637
-0.10383907 0.83962846 0.00018978
-0.36762705 0.32128394 0.65560186
-0.28666180 -0.25489423 0.80838978
-0.38175744 -0.14398195 -0.79245150
-0.65286541 -0.27866349 -0.43400452
-0.80091321 0.33973411 -0.21796793
0.60098612 -0.00668913 -0.72812808
0.06574684 0.88406324 -0.03704792
-0.58886898 -0.24500225 0.54275060
-0.41687796 -0.72903174 0.24264820
0.27297404 0.71193004 0.43263102
-0.70218551 0.36660665 -0.31101775
-0.03386351 0.81273842 0.01709837
-0.69935238 -0.35528228 -0.39220363
-0.37083825 -0.34512636 -0.66475666
-0.81201589 0.16495772 -0.23276988
0.54527843 0.04498251 0.81105375
0.13834897 -0.35220206 -0.66609693
0.30760288 -0.37062675 0.68714571
0.15141591 0.78287858 -0.02198139
-0.01677419 -0.23792265 -0.78339219
0.10964122 -0.34811425 0.75202787
-0.65580606 0.10485019 0.49106008
0.68624008 -0.20042525 0.36332074
0.59034681 0.04636827 -0.68790472
0.66048121 0.27797014 -0.41988882
-0.73064590 -0.12373424 0.30834928
0.76467872 0.46485642 -0.15307029
-0.04067816 -0.87765563 -0.16109632
0.04258945 -0.89065033 0.28795004
-0.61891341 -0.62881142 0.03398674
-0.01163867 0.29280683 0.72277248
0.70013189 -0.30258825 -0.39033383
-0.84079397 -0.04043668 -0.02662251
0.10405561 -0.60493261 -0.59323716
0.17348115 0.72626519 0.32527503
0.80252552 -0.15117194 0.25367993
-0.20762782 -0.76160854 -0.42133418
-0.68531179 0.40009305 0.33891758
0.14363824 -0.36696953 0.69999540
-0.14005512 -0.45540613 -0.69602501
-0.63932180 0.39932248 0.34909084
-0.68561387 0.04745406 0.57398820
0.27706525 -0.74520701 -0.08399543
0.68362832 -0.37217847 -0.48508996
0.23191756 -0.58659875 0.62811232
0.35803711 -0.28464746 -0.79568374
0.19138812 0.77781844 0.38826990
-0.25523108 0.37717685 -0.67558682
0.48657244 -0.64759445 0.04737780
0.84007919 -0.43978193 0.10237433
-0.41793215 -0.16099440 0.73608041
-0.23226839 0.31830800 0.73345399
0.69821680 -0.01348208 -0.26102352
0.80024064 -0.48359922 0.09431396
-0.83396232 -0.44610485 0.01312519
0.03083678 -0.15908861 -0.75954401
0.38109294 -0.76007205 0.24022660
-0.20857765 0.82127798 -0.17350820
-0.28925893 0.58643377 0.51822519
-0.51405931 -0.43910727 -0.42904857
0.83221972 0.26726025 -0.11333288
-0.26986369 -0.36322516 -0.66199327
0.40972087 0.63069522 -0.26147193
0.12693492 -0.77528208 0.45297721
-0.33576578 0.53036374 0.50648320
0.78332579 0.11915299 0.31271243
-0.18490969 -0.73569071 0.47042334
0.56438494 0.21151066 -0.54571652
-0.66083896 -0.08714963 0.40513229
-0.23871616 0.57527143 -0.54800308
-0.51299441 0.64094818 0.11761253
-0.16936690 -0.77298564 0.42060539
-0.82460737 -0.05728428 0.02714314
0.00660353 -0.80114353 0.54336977
-0.11401434 -0.33938041 -0.68425882
-0.23763703 -0.14879277 0.81405497
0.04677810 -0.26711652 0.73488629
-0.88050020 -0.53786534 0.00529849
0.15280801 -0.22575819 -0.77780819
-0.82851350 -0.33740845 0.04064517
0.14153607 0.42286393 0.71830738
-0.07231671 -0.81061965 0.07718999
0.13115510 0.54580247 0.62965286
-0.12690368 -0.81811285 0.03330090
-0.27520233 -0.61077660 0.41065854
-0.13115482 -0.10464085 -0.82816255
0.79623508 0.04689071 0.10641918
0.80259824 0.24163538 -0.06934694
0.43415287 -0.23411749 0.59903455
-0.84932816 0.12996145 0.00040310
0.13652191 0.31787401 -0.70536196
0.60594356 0.56657034 -0.17439169
0.00477492 -0.19512068 -0.77802014
-0.27788788 -0.36348185 -0.66882777
0.23044319 -0.60577273 0.46154007
-0.03589743 0.72952622 0.58020782
0.27519244 0.75778884 0.31960434
0.53847718 -0.16262229 0.67408657
-0.77081025 -0.09125982 -0.19082098
-0.56755924 0.51191413 -0.25840682
-0.04309856 -0.23373896 -0.76630080
-0.33130383 -0.56273711 0.42164376
-0.82531178 -0.33284461 -0.12251904
0.25475731 0.73812187 0.20696449
-0.83547902 -0.44968283 -0.08819684
0.03542559 0.87379336 -0.24573430
-0.03925698 0.83918023 0.36975121
0.61762595 0.30041298 0.41663185
0.35837278 -0.62406200 -0.07165534
0.54607582 0.60180324 0.19427422
0.36472571 -0.53814143 0.46558222
-0.71911156 -0.23113813 -0.32727140
0.12702414 0.73922133 -0.51038671
0.04986842 0.55916262 -0.60397851
-0.20131288 -0.54432040 0.62394047
-0.52978921 0.12187235 0.79665530
0.85467207 -0.32870844 -0.05538410
-0.76727331 0.57335424 0.00412428
-0.60399687 0.55250525 -0.23656087
-0.01582994 0.47754663 0.63887656
0.14683545 -0.80849183 0.19888540
0.43962491 0.69826448 0.16855924
0.29733935 -0.71036696 0.19499710
0.45448866 -0.60958052 0.37612090
0.62569463 0.16536410 -0.50769305
0.46042818 0.64476395 -0.20914312
0.65366912 -0.20773314 -0.49362427
0.35611942 0.60086393 0.46944481
-0.65842116 0.55893272 0.11223436
0.26494613 0.17059088 0.77974892
-0.09403620 0.30551350 0.74541414
0.16224083 -0.14154714 -0.80292964
-0.61878049 0.47510862 0.26030856
-0.34154108 -0.09270399 0.76512849
0.38923433 -0.29049459 -0.74534965
0.34929118 -0.63788635 0.48138371
-0.02937030 -0.46760467 -0.60064006
0.73707891 0.35267368 0.23017150
-0.86377358 0.21496615 0.00061539
-0.12466197 -0.62220794 0.59644663
0.67446458 -0.21010634 -0.46934706
-0.03568256 0.77028835 -0.56279874
0.54103827 -0.51721358 0.27283400
-0.76180387 -0.23099208 -0.41548684
-0.06826335 0.83893818 -0.11341445
0.35201755 -0.05393787 -0.79813373
-0.26740122 0.62065202 0.41170943
-0.70906806 -0.03011804 -0.25105289
0.28233016 -0.76070040 -0.11515589
-0.52558374 0.63035065 -0.17082003
-0.25942799 0.22140296 0.77693868
0.29651928 0.76071799 0.19603160
-0.17381975 0.68459231 0.63162565
-0.73579669 0.46906629 -0.23232533
0.56558394 0.14484631 -0.72134829
-0.53004682 0.69649202 -0.03525894
-0.50650120 0.38346609 0.53934097
-0.01108023 0.81711221 -0.51260626
0.38035101 -0.69022727 0.12698920
-0.60094845 -0.11016463 0.63785243
-0.49677008 -0.61809212 0.29309341
0.73520768 -0.22576968 0.46658295
-0.33334193 -0.33331412 -0.60955811
0.25725654 -0.34607828 -0.74860919
-0.40854928 -0.71468675 -0.02878272
-0.10581386 0.81199378 0.31708324
-0.59907198 -0.61604708 0.17243294
-0.33152702 -0.31981394 -0.63907158
0.02180206 0.63581234 -0.59461033
-0.54570186 -0.26816005 0.64119565
-0.45980358 0.08180728 -0.83186460
0.24434371 -0.62826300 -0.50876880
-0.21073133 0.73258895 0.04802186
0.31289718 0.72282422 -0.03549216
0.62873948 0.15074663 0.53900588
-0.43504149 -0.77452821 -0.08834643
-0.11247306 0.08724219 0.82577658
-0.12832817 -0.80858105 -0.26061037
-0.23819721 0.15071818 0.75877237
0.83637512 0.32931566 -0.08825438
-0.64997756 -0.00066084 -0.55376625
-0.29415363 0.20447069 0.71531355
-0.78352737 -0.36646685 0.22783679
-0.34950098 0.35204276 -0.68359780
0.06816163 0.73043692 0.58330834
0.69035566 0.04800189 0.24989188
-0.70337594 0.32122225 -0.33346233
0.37738335 -0.41269037 -0.57237387
0.25191349 0.57373255 0.61335206
-0.70162427 -0.62679219 0.03918482
0.38354892 -0.54869729 0.48608363
-0.79048610 0.38506436 -0.04941886
0.32977736 0.52330494 -0.47051209
-0.24966091 -0.01547586 -0.84347570
-0.30192384 -0.55692208 0.49376401
0.08585260 0.83176142 0.43572512
-0.45210147 0.18549585 0.73331130
0.42962971 -0.17292592 0.80618358
-0.78219128 0.34058198 -0.14567891
0.72977602 -0.32958823 0.24078093
-0.77914524 0.58421689 0.05993162
-0.62282419 0.05850472 0.50560546
0.41512999 -0.66926616 0.33456215
0.27020201 -0.34030756 0.74372506
0.65528905 0.37886935 -0.23714447
-0.07604130 0.84255517 0.01577765
0.57338834 0.15584055 0.69378650
0.43569493 -0.10523366 0.81071675
0.34354705 -0.45756939 0.53884423
-0.02633133 -0.21388645 -0.70970786
-0.08240345 -0.75889111 0.52612054
-0.73205602 0.47230592 0.10100064
0.03643776 0.82530159 0.06074585
0.12827528 0.85386467 0.12058267
-0.46583286 -0.22778273 0.68678033
-0.09626926 -0.84212524 -0.36775476
-0.67604852 0.08017012 -0.45376453
0.36820555 0.34400615 -0.65721071
0.02014454 -0.36697176 -0.69743609
-0.60147047 -0.19469887 -0.59335077
-0.17907733 -0.71983308 -0.49263367
-0.67595708 0.05316595 0.51289594
-0.20836352 0.51212019 -0.58721411
-0.11536245 0.80466723 -0.41044664
-0.00779645 -0.31413722 -0.73047864
-0.28330016 0.66958845 0.37508640
-0.39213806 -0.69435096 -0.02981240
-0.63661754 -0.21949232 -0.41372609
-0.30436161 0.58949256 0.52895916
0.70041513 -0.32365584 -0.34514484
-0.17860994 0.76852542 0.29321274
-0.52343750 0.12729535 0.71788263
-0.79967976 0.30910483 -0.10851390
-0.35511306 0.10465960 0.79331601
0.38811722 -0.36021957 0.60020840
0.39669856 -0.21626976 0.74560654
-0.24048562 0.48022643 0.60540080
-0.30486855 0.67669463 0.42386445
0.70315075 0.12470623 -0.51486766
0.29741025 0.75086796 -0.11533808
0.30017269 -0.76808143 0.22660591
0.74702680 0.26811722 -0.38427034
0.21662003 0.33072415 0.72985923
0.54059994 0.26155496 0.49891567
-0.11248055 -0.63179541 -0.62472737
0.70662987 -0.41477489 0.19204247
-0.06689976 0.08513417 0.83138752
0.81484902 -0.07160646 0.18784058
-0.05936972 -0.14572629 -0.76508236
0.85614884 0.33041424 -0.04030472
0.18020159 0.80490804 0.13411456
0.25208989 0.59017223 0.51115048
-0.52439368 0.64503032 0.01171999
-0.59553277 0.54467452 -0.22037777
0.75301158 -0.13465072 -0.26589030
-0.38202366 -0.58180130 -0.38669798
-0.36142614 -0.41031909 0.53736901
0.08293676 -0.76746619 -0.21321499
-0.05921437 -0.36022374 -0.72275686
0.23656854 -0.60670745 -0.50224757
0.28182381 -0.78835380 -0.12052685
0.78741992 -0.22896570 0.09766366
-0.11469265 -0.79374522 -0.34860575
0.54709792 -0.61833215 0.04184726
-0.85690081 0.17727269 0.06705148
-0.19995491 0.73799074 -0.28048766
0.22350007 0.58758932 -0.65203321
0.51185870 -0.61573774 -0.29849556
-0.20168638 -0.15733534 0.79805839
0.74282265 0.05273454 0.24874839
0.11333123 0.51032060 0.67089295
