31.46479797 -1.59207726 18.94284439
26.08600998 -34.88307953 24.87923622
3.13686371 -21.55754852 3.72502327
20.70469475 -0.65254974 25.00053787
10.24724865 -26.97430992 -2.35804367
32.40890503 -35.40328217 43.92356873
8.71812344 -11.38033962 2.45438766
49.09542465 -36.06132126 51.61668777
17.59869385 -6.25605202 17.99366188
12.79658127 -31.98150444 11.47554684
27.47318077 4.74675560 35.01476288
22.41376114 -37.19194031 14.88101578
-0.34267426 -20.71216965 -10.82967567
27.81361198 -0.80300331 31.91982651
17.59610939 -9.24992371 20.11313248
28.31942940 0.94437218 15.75230217
16.82259750 -40.47043610 18.60434914
43.39736176 -27.29762459 34.56669998
40.73406982 -26.52211761 37.44780731
8.58771706 -38.52466965 22.03916931
32.66311264 -7.39773273 23.99552155
34.86862946 -7.04649544 28.37159348
12.44294739 -25.41207886 -0.26582146
35.34654999 6.39015198 20.68913460
31.31401825 1.25672150 19.11379814
22.23373985 -26.48745728 41.09421158
37.90352631 -17.48537636 41.66811371
11.40288258 -18.03961563 0.38413239
18.04486847 7.24881363 14.78131294
32.97877502 4.24313354 19.91276741
26.79671669 -0.94449139 33.72377777
22.64522934 7.36837387 14.74185371
38.98722076 -15.74428272 33.49058533
37.37196732 3.40957260 41.50363922
20.24516296 -15.26025772 5.75650120
1.59019279 -35.92337799 14.48969841
19.53018761 -25.75756454 2.07702637
20.34799004 -0.33995438 25.69043350
5.12950706 -30.95142555 -0.59584236
45.58747482 -30.52146530 49.63352966
19.68677330 11.08132744 22.70405960
15.27885532 -33.97761154 16.71890450
22.95052147 6.46993256 27.77404785
49.63562775 -39.74771118 49.58873749
16.91206360 -24.64954758 27.73507500
41.53923416 -23.79066467 39.73480988
18.87261772 -35.44700623 31.67262650
47.67801666 -38.20290375 48.33496857
46.80155563 -37.35041428 50.83663559
12.33412552 -34.19126129 26.06097412
18.22166252 -34.15248108 13.26074028
18.52983665 3.16250801 25.44631195
38.80699158 -0.62133408 35.79987335
15.11152363 -30.75154877 16.89985657
18.06177139 -40.12899017 18.06439781
36.06301498 -6.25941467 23.77055550
43.65371323 0.91554451 30.88465118
15.91628265 -37.34795380 18.00894737
22.48365211 -7.65691614 12.66683578
43.26361084 -28.66143036 30.57539558
3.33100128 -40.96358490 2.74613571
5.62664700 -26.41211700 19.87047577
21.14145851 -31.08321571 -0.37706375
36.14101791 -0.36144161 34.58940887
32.40452957 -31.50913239 32.01580811
26.14331818 -38.16378784 11.73595524
31.58959198 -6.96308231 36.66473770
37.58812714 7.33507919 27.40416145
27.08822060 -0.98503876 34.81865692
2.30637741 -18.84944153 1.22051239
10.44308853 -12.82811832 18.77648163
-3.33690834 -31.17659760 -0.73928642
24.04850197 -1.46407127 28.95673180
9.38558865 -21.71416473 -1.96180916
11.42252064 -39.52045441 2.17153931
0.72276306 -29.30347824 11.04993153
38.42427444 -10.39392948 29.48130417
23.66545868 -34.99912262 18.26671982
20.35279274 -38.27891159 18.01825523
38.40643311 -16.91185188 27.43586349
20.44775772 -8.78669548 30.30579758
14.04210281 -39.96039581 8.53445816
31.10635948 -13.71244526 15.95268059
40.73196030 7.01218414 26.20587540
19.99963760 -2.47405815 21.21453476
29.96559906 4.98863411 37.46632385
41.77377319 -30.20226669 29.03707123
22.71094894 -0.36134624 26.86279869
3.35482216 -33.85039139 -4.48248863
37.43581390 -28.42369652 24.24277496
4.71030426 -21.03509712 15.03513813
15.21926498 -31.29273605 29.36928177
31.82019615 -3.32218647 20.10465240
37.95651245 -37.91371155 21.11471939
26.45588112 -8.84061718 12.99348545
24.61240578 -18.79357719 2.59492683
35.62341309 -35.31798553 19.18910408
6.43579483 -16.50505066 4.56858253
19.15011597 -26.62056732 34.34543228
0.66188240 -19.49944878 -1.45292854
17.50339127 -42.29688263 2.19609070
22.18014526 -34.04789734 7.38381481
41.54037476 6.34819412 31.04204559
31.77612877 -22.48454857 15.81258583
25.56758499 1.25521088 16.12118721
17.40513039 -34.11702347 32.80052185
27.40465546 -26.70706940 46.29405212
28.07218933 -10.28087139 39.06418610
32.00312042 4.60908318 18.99083710
23.96952438 -32.73514175 7.89381027
8.61599350 -18.32331467 -0.76711655
39.55249786 -1.29408455 39.17015839
25.11447906 -36.02827454 10.63246632
46.28096008 -28.08910179 46.76618195
39.15247345 10.23061943 34.54634094
34.71110535 -3.96783447 24.04246140
-0.09270287 -25.48052979 0.85394859
46.75045395 -41.38950348 49.07312775
13.67572784 -23.44666672 26.70304108
1.61252785 -36.98423386 3.79977036
22.20997238 -27.99330521 35.29428864
39.97783661 -15.64762688 35.30366135
50.14230347 -33.15308380 51.27619553
11.44957352 -28.90957260 18.32337189
16.57010651 -40.71359253 4.68900871
18.42766380 -25.03646469 14.40832138
4.14440918 -20.71238518 -8.63600349
43.82893372 -39.90140533 49.48985291
21.88502693 -12.13959599 34.00305939
35.38179779 -10.54371071 28.11403465
15.76517296 -27.78942108 29.68783951
18.42519569 7.23974228 14.80625916
26.87611198 -12.32056427 36.63082886
47.66740036 -37.04712677 48.43074799
13.91918087 -41.75105286 7.55089092
35.90270996 -26.52791214 18.99173546
39.04259109 -32.81677246 36.16570282
18.12363434 -28.64314651 18.70918274
35.92928314 -0.85813332 40.29386902
21.58919525 -2.41162586 30.02749825
19.00776672 -28.43977356 9.42425156
19.02469635 -5.99467468 25.84848022
40.76718903 -22.65920258 41.49672699
34.73563385 -36.27170563 16.78454208
34.18347931 0.63798618 36.50369263
41.61706924 -19.01962090 27.69580650
24.00526047 -26.68424606 12.92644691
20.35528564 -40.40974426 15.05722713
31.00227547 -1.60931969 22.21313667
40.67714691 -32.62017822 31.52591705
23.50247955 8.07914162 15.88204956
15.50579929 -36.55566406 27.91662216
39.10613632 -18.19260788 25.64400291
35.04481506 12.67778969 29.59999084
4.96752167 -17.03151894 0.76442909
26.75564384 -38.79064941 12.36952877
6.40206432 -18.15024948 18.57740784
5.97627068 -15.21636868 2.78703880
20.66199112 -43.08287811 21.03569984
22.88804436 -9.60140228 35.81730652
3.15979958 -27.22067261 11.89456940
20.78747559 8.20138931 19.38973618
35.51895905 0.96800041 26.98642731
25.04379845 -22.31719017 39.91311264
3.55721664 -16.96121216 0.30014229
46.93783569 -27.02923203 45.97556305
-4.29380989 -36.25347137 2.65585136
19.70655823 -32.92553711 4.84705544
22.01368523 -35.66315460 3.74907684
20.61329269 8.15156555 20.82304573
37.17105103 -29.54830551 42.91355896
13.66812515 -26.31213760 24.21878242
40.12300110 -30.29868698 29.40609932
2.66548157 -24.17840958 -7.47176361
18.85561752 -35.22943115 -3.69043350
15.92930031 -44.45843887 6.28912544
21.98241615 -31.84580421 11.42082024
15.82301044 -39.11500931 17.29723549
3.52993011 -28.88461685 16.67008972
20.14833832 -36.40288925 25.56295395
19.18330383 5.01196480 26.98199463
34.59764481 -13.67509651 23.72785759
24.88602829 -34.60174179 42.68457794
1.39186668 -42.11838913 9.66011906
27.61264610 -7.67030668 18.02354622
18.50430298 -44.72411346 27.83860207
7.26687336 -11.09323120 14.17045593
2.96022034 -40.33249664 14.59449291
33.34512711 -33.39662170 16.46919632
13.27642632 -38.85287476 4.26000595
4.86646461 -22.89910889 -1.44193077
4.24678993 -35.94584274 16.91322517
21.14336967 -34.89665222 3.91639328
22.81776619 -32.29920197 24.48717880
1.33395004 -29.52482414 -5.47809219
6.03518772 -10.70856380 -3.17202759
1.87520218 -39.51900864 10.79369068
35.35726547 4.74607086 23.93836975
44.14071274 -31.64806747 42.60752869
32.63890076 -6.75206470 34.24959564
45.60399628 -35.77553940 51.17359161
21.75943565 -39.12639999 14.28312683
28.36473083 -36.14981079 29.92370987
3.22329903 -20.85566711 0.43536568
30.78055954 11.19805908 25.33281517
10.58516502 -39.90768051 13.81322098
42.13508606 -31.61470604 46.64227295
16.02929306 4.45254326 16.83377457
30.19207191 -31.10566330 35.95146179
40.07244110 -20.86793900 41.51187134
6.36405945 -14.64212132 13.29007053
8.28192711 -14.38282108 13.47286797
18.55031586 -9.41883469 7.56378746
7.64090443 -24.68040466 1.20286560
35.61120605 -37.69013977 21.52589035
35.12902832 -7.75259113 24.35695648
22.39388084 -42.50228119 19.82613373
6.44800282 -28.01839828 -1.15647507
13.18208981 -7.80223846 15.39535999
39.07971191 -3.50238514 29.85350227
42.87270737 -30.33758163 39.37490082
8.28195190 -27.83109856 -1.54622650
9.76996231 -30.77223587 18.76865005
1.66289711 -16.12209892 12.77287006
0.78627968 -22.48500252 -8.78020287
36.77016068 3.89128304 40.90863037
6.36606789 -36.92766571 4.95779991
14.09321404 -36.27523804 18.83996391
7.30035400 -13.45973015 1.28530884
10.84237099 -33.10250854 17.72045326
21.98644447 -41.05520630 17.36057663
14.53439140 -5.52112484 10.90928268
32.61890793 3.55554008 37.82027435
32.31330109 -35.97240829 15.99352455
49.91424561 -32.51862717 46.36370850
47.53800583 -36.78025818 53.35858154
-1.29540634 -26.35411072 -0.18510056
43.65430069 -36.02883148 44.96427155
21.69234276 2.69811058 26.79636574
7.50877094 -15.51143456 20.12311745
-1.94132042 -32.13654327 -3.34640312
18.59816360 -40.09033203 33.36624146
24.98065186 -35.03692627 9.93020821
9.89171886 -26.70815277 20.04299736
21.44338799 -39.26679993 36.37147522
38.08165741 -19.57890320 28.99784088
4.53107262 -36.09175110 17.22342110
16.51142883 -29.80850983 -0.89822578
13.48850441 -34.57035065 25.54128075
13.10479736 -12.09259605 20.46857834
40.55417252 -30.07043457 30.06192398
41.30322266 10.11375237 39.25529480
6.17396164 -16.80016327 -5.05249977
39.35303497 0.34980297 30.14395142
4.88248634 -29.73297691 -10.31765747
17.18201828 -40.51976395 2.16612816
39.28966522 -26.71550369 28.32789230
32.90139771 3.75629425 37.22360992
16.93168449 -28.57345963 29.98224258
22.90703773 -25.07271957 10.81159592
16.34161186 -24.75219727 -1.91189194
-1.69680977 -17.13438034 -5.26744461
8.04578781 -19.67504120 -3.25447655
29.84031296 -14.38830376 13.66113377
6.67071342 -11.62978935 12.80909157
6.35170174 -25.83267593 18.84854507
18.95614433 -30.10243607 1.02959442
17.25185776 -29.34890556 1.90379715
34.36935425 -4.42642593 34.19964600
42.41186905 -31.03467941 48.60424423
-0.02256393 -28.29581451 -0.27957344
41.55287170 -22.07822800 42.46733856
46.87110901 -28.13272476 43.81410980
41.36549377 11.42254448 40.33193207
20.66426468 -41.42328644 29.96509171
18.55467415 -37.11146545 2.63177299
20.20161438 -4.74935818 25.08194542
14.37531662 -25.74074554 26.50341988
24.60998154 10.25926590 12.26555729
24.85256577 -9.54129791 33.39621353
15.27844524 -28.63585281 31.21242523
31.01518059 3.94849968 19.33524132
13.61960220 -29.16964722 20.59267044
27.55241394 6.94914246 18.57042503
29.42339897 -8.27442551 16.98455811
39.90242767 1.46395111 27.29286957
25.51835632 -35.46987915 46.34198761
38.65867615 -32.03144836 42.15082550
17.20213318 -39.79033661 26.66629982
8.46814442 -29.28685951 22.72660446
19.29535675 0.00013256 27.12296295
4.56004333 -34.56268311 18.08384705
10.01102448 -39.90500641 24.49583817
42.73040009 -33.56674194 38.40513992
49.90290451 -37.92522430 44.63242340
46.81892395 -38.78412628 50.99171448
23.63177109 -35.08406830 7.65901375
9.59780216 -19.63882256 1.66850853
41.67976379 -0.81682682 40.04609680
8.07795715 -37.03067780 0.62365341
37.47401428 -38.23884201 21.53457069
20.64457512 -7.42251158 23.52937508
16.18597031 -5.80115128 11.45587349
38.99941254 -29.59579468 39.51110840
35.23871994 13.36311340 28.77966690
39.60597229 -25.21176529 29.75460815
11.35169315 -18.58294296 21.55950928
35.80368423 -22.01687050 45.70904160
19.08838844 -1.41930103 18.81949234
33.49373627 -12.90193462 38.66165161
20.84393120 -8.08820915 30.24061203
15.33158493 -39.34796906 6.13827610
19.90328217 -34.91957092 15.79403877
17.66030884 -24.05818558 32.14787292
22.72325134 -36.47805023 8.08933735
29.56085777 -27.50479889 41.94721603
12.37563515 -10.49290276 13.60989952
24.48274231 -10.53580093 12.28004646
6.32045650 -11.91669464 10.39010143
36.86648178 -21.05717087 20.81019783
38.51167297 -17.91203690 25.18307304
36.71396637 8.73938942 25.20441818
20.93709373 -24.78189850 2.79248619
14.53091240 -22.43428802 -0.67814636
20.94046021 4.56921577 13.17803288
13.82968044 -33.03852463 15.30811691
12.99613190 -7.23918772 14.61495209
28.34857941 -33.93121338 40.69215393
39.54222870 -38.10117340 25.73329353
4.85369301 -17.37407494 15.46596146
19.55534172 -35.13304138 1.09043121
41.02228546 -13.95735359 32.47187042
10.20839214 -34.17253113 23.12776184
31.33773041 -4.17602539 21.74695396
30.87298584 -5.05430031 32.39582443
2.01937485 -25.61842155 7.02745247
15.19345093 -35.04794312 20.85446548
31.89858055 -14.66195869 15.69460392
10.31350803 -30.09499359 -3.61174774
15.55301666 -9.81648636 26.05044556
-4.00148010 -18.61406326 -2.00966644
19.94009399 -42.94779205 28.36008835
16.26810455 -30.17137527 24.78365517
40.05168533 -22.37814140 43.84222412
0.82429123 -22.78829956 2.36408997
23.60445976 -35.74571228 5.79197884
3.68708420 -14.70283890 6.28495216
21.25677872 -25.56948471 3.13204765
11.08095837 -16.69695854 0.49529839
38.56879425 -24.98405266 25.22332191
28.07817078 -38.41814423 19.24275970
10.79547691 -28.35406113 19.70441055
21.38560677 -8.46117496 17.31247330
38.01276398 -1.02187157 29.73953438
14.29353714 -43.09194183 23.41077042
19.33744049 -30.39856529 4.44946861
28.53190422 -15.44625282 15.01534557
12.40212059 -25.71042252 1.29123306
39.81549072 -18.43501091 27.20935822
40.76979065 0.98451233 28.42699051
22.34895325 -37.85912704 37.97585678
31.83994865 4.93078423 19.41799545
29.63051987 -30.01229477 34.66118622
18.94076920 -2.40404510 24.90135384
22.92369080 -34.76555252 13.49682999
22.91963959 -28.52103806 17.19141769
1.17259979 -11.19633675 -3.64837646
25.98253250 -20.02981567 14.18270874
32.36744308 13.69956589 30.35613060
22.10024452 -21.54232597 39.10791016
25.90855026 -39.21266937 40.55832672
38.45014954 5.93957138 26.29789734
30.99220848 -13.29739571 18.34058380
1.32314682 -20.61831093 13.45123005
23.74954796 9.11206245 15.09734917
39.63032913 -36.96011353 30.23578262
34.02405930 -1.08308887 18.11504173
41.22582626 9.57366180 36.21269608
40.65460205 -12.18016434 37.12271500
19.87679291 -6.08161545 14.63072872
-0.33133507 -33.24233246 -1.34971046
23.73571968 -35.84661865 23.17848969
20.30874252 -26.45705414 4.61857605
19.80389977 -32.44364929 -0.06201553
17.85808372 -9.86941433 31.25385666
27.91702271 12.45576859 22.90378571
0.47274399 -21.32743645 3.99690628
31.13210678 -35.78458023 13.34270668
10.42190552 -10.01160812 13.28710747
36.49432373 -6.08448696 31.73661804
35.05345535 8.54650879 27.44502258
24.84831047 -27.79572678 43.49504471
2.53091431 -24.99305916 -10.62483025
9.45470142 -38.07397842 20.91185188
30.86468315 -1.66242695 37.76430893
32.14528275 -34.83087921 32.66933441
23.11040306 -34.79528809 18.17862320
17.83559608 -37.99521637 34.36810303
42.44020081 -25.66909790 30.49945450
30.29160309 -24.62669563 19.23456955
0.98927116 -31.38028908 -1.37791634
29.82389069 -12.05833912 15.14809132
27.29100990 -36.40643311 38.21050262
32.26845551 -30.52968979 41.22931671
12.31150341 -39.70189667 17.01023483
23.13155556 -29.01594162 3.58730125
4.15268326 -17.75855827 13.41902828
7.17302418 -35.48409271 20.00208855
27.78401947 -33.62912750 24.54637337
17.91378021 -36.39654541 33.90566254
13.18928623 -38.73902130 16.84930801
-4.36377525 -20.61507988 -0.79470634
7.99825668 -21.66407013 -7.78841019
25.51178169 -15.84278393 9.30766392
41.58109665 10.10530663 40.41838837
27.18367958 -10.75917339 13.04734039
21.03285027 -35.76097107 0.62224960
8.78861904 -40.81330109 20.48071098
25.05429649 -41.14759827 24.52319908
29.29933357 -5.59395695 19.53465080
10.71484470 -8.66516304 12.81734657
0.37148094 -18.35102272 -8.23308754
17.42547989 -40.51839447 14.00664330
13.38739491 -33.54571533 25.45403862
23.42171478 -28.11629677 17.19839096
7.56919575 -32.37979889 17.70178032
41.75032043 -17.58794594 42.44458389
48.45370483 -36.39992905 48.89674377
11.15375614 -40.88514709 23.40385437
-3.62376022 -24.70975876 -3.04705048
32.61786652 -21.37914467 41.10591125
1.28504753 -28.45746994 6.46772385
36.81726456 0.26696682 35.21877670
23.03996086 11.67139244 25.83987045
4.20327568 -39.91999817 7.92179108
3.84560013 -28.94155121 15.49553490
24.95020294 -24.96965027 13.19411182
20.96620941 -2.79563427 23.56264305
23.33098602 -33.30388641 20.49395752
3.52537155 -23.00715828 5.53440094
22.84449577 -7.70172119 18.50724602
28.79292488 -37.83402252 31.54037476
24.28316498 -11.00649261 32.59150696
36.34348679 -30.90617943 18.39668274
41.80164337 -31.38375092 40.17261887
24.23348808 -28.41140938 16.46416473
19.09280396 -38.51227188 14.52315903
0.78257561 -18.54568863 -1.36592293
18.64528275 -1.53890514 20.51310349
41.97040939 6.69345093 40.14758301
-3.18348122 -33.52536774 6.98008251
17.16805267 -28.16663933 24.21400452
11.13023472 -31.17718887 -2.90263367
20.11669540 -27.95304489 15.73539925
30.33638000 12.48619843 26.69063568
20.28712463 -26.84128761 4.81634331
6.80820179 -38.56160736 2.27620697
23.73759270 -39.22323990 21.85921288
34.25088120 6.55421066 21.53432846
9.53627205 -11.90937614 19.48788452
34.22833633 -4.65358162 23.44601059
43.15320587 -29.74335670 34.02865219
9.31927586 -34.89757538 -3.67573357
42.18294525 -26.32408524 47.93233109
35.61408234 7.76729774 29.71439552
9.48414421 -37.33730316 19.43589020
35.07759094 -4.86576366 34.61291122
7.00967979 -30.85258484 16.45364952
10.58025265 -34.00416565 -1.17974472
31.65803528 -20.83461952 17.21167183
23.48184013 11.79340744 24.91568375
18.45643616 -11.35602188 30.66098404
13.91105080 -22.95608521 -1.09971809
27.92153931 7.86915588 19.86025429
46.52215576 -29.86565781 48.60417938
27.63794327 -36.83760071 23.97245026
13.17197514 -40.58061218 15.60028934
30.89071655 9.65840912 23.67764282
29.66846848 8.99117851 20.08769035
20.57008934 -1.10727882 22.09188843
3.48970032 -40.81423569 9.05812740
39.36210632 9.60044670 41.39698029
36.87886047 -7.94425678 33.87209320
9.99852848 -19.65832138 -0.48200417
37.38271713 -30.88426590 35.35313034
18.85789871 -6.72229290 24.91333961
34.12562561 -4.32057381 30.96176338
7.12722683 -15.55960464 -7.26793671
35.84878540 3.49357224 28.66958427
20.66248322 -36.98841095 39.75173569
8.44247627 -22.94866562 -8.61114883
4.66290665 -14.46136856 -3.91615868
20.34614944 -39.83322906 24.09510231
42.74864197 -31.65594864 40.50646973
36.86012268 -4.93183327 32.34811020
34.69026947 -20.62581062 45.63493347
42.91337967 -24.91865540 40.11326599
29.49154663 -10.98604298 16.22669029
48.58229065 -35.62711334 46.91582489
30.23917770 1.95872879 36.47100449
32.08153534 -5.73124313 21.19503593
38.04312134 12.37337303 36.23291016
38.56170654 -3.76263237 38.11235046
15.99577522 -40.48699188 8.10103798
26.50638962 -2.71256447 17.69671822
44.42584229 -33.95748138 45.56786346
39.67483521 -18.61973000 42.30235672
24.42686462 -33.46955872 14.53048325
37.17105865 -16.40304947 28.42638779
34.69115067 0.17025280 24.88957024
21.69109535 7.76198387 27.16190529
5.08482742 -16.15504074 2.04235268
29.63020706 -34.86306763 37.04336548
30.59942245 -1.15361309 16.70647240
39.55816650 -34.87197876 25.94907761
30.50396156 -40.90940857 13.86680794
40.53956604 -20.19656563 41.92913818
30.38117409 -27.53026009 42.29935455
7.58499050 -37.88622284 20.46131325
28.76475143 12.29640770 23.83232307
35.75856018 0.21731663 23.34894562
35.66853333 -6.62205124 27.71535683
8.86674118 -25.28167343 21.14792442
-1.35973930 -29.56694603 6.55501175
8.67341709 -20.56578827 0.79682922
16.65530205 -31.83515167 17.25020599
-2.21021652 -15.05415344 -3.55426788
11.75612926 -31.24787331 -1.37122536
5.33125305 -23.29406166 -3.71557999
40.11244583 -21.52109146 22.83629417
28.50846481 3.03062630 15.57154655
28.61409378 6.88242531 32.62421799
-0.21697426 -33.31583405 3.33184242
19.45281792 -5.69898891 11.60167599
23.91641045 -5.28930283 33.84449005
40.27558517 -30.89163208 22.52731323
15.78611469 -28.76548576 1.56421852
3.40816498 -33.08157349 -3.93365479
16.61833572 -14.90536308 26.25329018
26.99986458 -7.74573851 35.42902756
43.03078079 -37.20750809 44.70184708
1.17640495 -22.81451797 -1.90751839
23.67673111 -15.96602440 9.66814709
27.61367035 -39.23314667 27.32684898
12.93242645 -32.66825104 30.93865204
15.04265213 -38.98263550 11.12150478
15.89190674 -19.52345657 32.78964233
11.98936367 -11.43600655 7.18101883
42.01834106 8.16974068 36.12820435
20.43056107 -37.99486542 38.17485046
9.54210377 -17.49935722 20.07187653
42.17115021 1.40119171 34.62349701
19.19463348 -26.07350159 0.46393204
11.14361858 -27.43132401 -3.19259453
42.17399216 -17.00901604 38.02853394
41.50875473 -30.46905899 33.08644104
36.85149002 -32.11110687 20.76533318
19.92227554 -9.13743401 33.20359039
13.92794228 -39.80391312 7.44633675
28.19630623 -37.53836060 19.98877716
17.24952126 -17.44998932 5.52024841
43.55558014 -40.57270050 46.49977112
-4.49946213 -19.42394638 -7.27730942
25.10015678 -28.63291168 15.68912888
0.40957260 -40.20981598 3.12628937
12.91320133 -22.96813583 -3.17663574
24.09977531 3.29662323 30.15328598
31.69356918 -28.10120773 42.56385040
8.36431408 -15.57829571 19.09105873
5.74435806 -12.33502197 -3.04885864
12.07793713 -37.22875214 16.33365250
11.41828728 -7.29085636 14.10562515
35.32044220 11.44259071 31.78626633
46.19514465 -26.16657066 40.17552948
8.98203468 -40.23671722 -2.44419289
24.73454475 -29.21102524 20.66326332
3.83251572 -15.22389030 5.71347809
34.48697281 -9.52528477 34.76835632
24.34486580 -37.99044800 10.80929852
18.90535736 -27.54603195 13.10849285
21.14712524 -35.08678818 13.61896801
9.87909794 -17.89233017 17.40689659
40.23397827 7.71500778 42.84131622
40.05060577 1.68249702 28.34914207
24.40360260 -20.05569077 5.70877647
-1.86714935 -20.99028969 4.83201408
8.01162148 -23.95178223 23.99748039
41.35812378 -16.15497017 31.81280899
5.42698860 -22.36277771 -4.80708313
0.24573517 -18.10468483 -10.39336586
25.09872055 8.90242767 21.95680237
27.83796692 -3.56478310 30.85437012
38.07402039 -35.24401855 22.42075729
24.31230545 -40.02289581 40.13262177
20.02958488 9.44014740 16.84789467
11.58259010 -9.79339790 10.42890072
33.12709808 -33.62226868 35.34927750
27.29998970 -43.07740784 16.01561165
24.89414978 -28.61528015 6.99265099
17.11935234 -28.28306580 33.37180328
-1.29969788 -24.34801483 -6.90200424
31.01025200 -3.17367744 18.43170357
30.24659920 -36.27629852 16.14558411
12.00435257 -24.75654221 0.00975418
31.94725227 3.69276237 12.66185856
27.01307106 -18.89895821 42.30559540
-1.67068481 -30.54770088 -4.09884453
38.63294220 -31.08200836 39.16949463
17.34942627 -27.12430573 27.73324203
3.11011887 -9.75399971 -0.75030327
2.90363503 -9.50995827 1.35763741
22.69033241 -22.09266281 7.27051449
18.42801857 -3.09818554 24.58802795
37.02703857 -33.31103134 33.37483215
27.76096725 -33.17947388 20.35131645
24.75820732 -30.22553062 43.13849258
37.71799469 -20.34435272 23.11928558
36.07579422 6.52774429 28.25138855
26.65244675 -36.59515381 22.75210381
12.88228512 -15.91341591 2.67968559
3.77998543 -14.12204075 10.96800232
30.34042549 -28.20620728 16.50243378
8.29802799 -38.20894623 16.57452965
20.96013069 -30.72152901 20.94673157
32.97366333 -41.79583740 17.86384583
22.35920715 10.05434418 25.15744019
9.08415794 -22.75517845 -3.05334091
26.95606041 -3.90536785 11.57073879
41.28311157 -20.97509766 36.70976639
30.44655228 0.46500683 36.27718353
40.55366516 -17.80444336 40.37469482
10.83169556 -36.85240936 -6.19386101
5.64096069 -17.43150711 19.42578506
38.58834839 -31.37877846 34.59793091
31.37687302 13.06581879 28.33076096
-0.83077240 -16.77128601 -0.57625771
29.62491417 -17.66736794 14.52963161
38.94114685 9.90341759 32.92127991
31.88555527 -1.92032814 36.64651108
15.11042595 -32.84433746 27.29564857
8.36648655 -19.96519852 16.15299797
26.51732063 -0.42160702 28.08465576
22.68529129 -34.23897552 14.23386478
26.64248848 -21.18658829 5.88636780
38.73960876 7.44573784 29.57676697
15.23542881 -40.28590012 9.73139286
27.74685669 -33.60008240 13.39058304
16.86371422 -27.88106918 20.08418083
27.13255310 14.71218872 27.28789902
5.54639721 -22.44272995 19.62400627
6.79357052 -17.03617859 -3.09719086
30.03727531 -41.89984131 19.03471375
34.41660690 -32.71282196 36.06835938
45.21972275 -32.96141815 43.31887436
33.40063477 -22.47232437 15.75510025
31.07281494 -39.03631592 21.99906158
36.29055786 -32.72055054 15.74479485
10.12100315 -40.24113464 1.58487320
45.56374359 -26.48552322 42.32076263
40.73194122 -32.59890747 31.11317253
41.60126495 -34.63887787 22.66287994
30.11643600 -8.83994293 17.77018547
43.00374222 9.43459129 39.05540848
16.35437584 -24.94709778 15.96963692
8.58865166 -38.95498657 15.76635647
-2.64775848 -18.32840729 -2.47809410
22.12723732 4.82366180 27.01107788
15.71631813 -37.88117218 10.38123798
18.70835304 -21.27606201 30.45379066
20.91407013 -10.31477547 30.22807503
-0.53407097 -36.50899887 2.37829590
19.15405655 -44.19107437 29.80732918
25.86562347 1.38002014 15.09829330
35.17985153 -3.90607262 34.85953140
33.65900803 -21.32058525 18.77643585
28.73210907 -41.53574753 20.79311562
18.07177734 -20.07382774 32.71578217
18.37702370 -14.48217010 3.83503914
46.01407242 -34.28229523 43.94910812
17.94848824 -38.75985718 28.26708794
26.02914619 6.93598366 16.32646370
21.89293098 6.52820206 19.89094353
37.38709259 9.99362183 36.46503067
30.03484535 13.95385742 25.56047821
35.42552185 -9.81319904 29.98245239
40.72647858 -15.47152042 31.99318314
40.47164536 -35.80600739 33.47593307
5.13042068 -35.00289917 20.44220352
16.71392822 -2.69593239 11.44900513
33.78685760 -29.61699295 39.72022629
23.56788635 -36.52908325 14.54438972
18.17216301 -31.21970749 0.04812241
30.68310547 12.79710770 24.38016701
18.24503136 -22.67247200 33.14092636
42.81070328 2.98704720 31.18060112
22.78216553 -12.81267452 14.61347580
0.92089462 -25.51329041 9.63292122
36.52796936 -29.06181335 40.25819778
25.22349930 11.75168228 26.73058510
30.75528336 7.30269623 18.63260460
11.99326134 -29.83234596 -3.85351944
4.54585075 -31.88886642 19.28495979
9.96815491 -15.61792755 24.71089554
13.85343742 -40.04469299 -1.40368462
45.35944366 -30.44750023 39.44730377
-2.60618401 -30.60789108 -6.68782234
44.27349091 9.18557358 41.49702835
22.64644432 -16.53846169 4.94579315
4.22782135 -17.09935570 -9.50105095
-1.30248451 -16.86026764 -1.23543739
11.11996746 -36.42104340 -4.69198608
40.25296783 -35.61202240 24.40813446
48.84191895 -36.08113861 47.74958801
43.46962738 6.97481918 28.80408096
10.13918972 -41.36463165 24.50779533
0.96611404 -30.49137878 12.90789127
36.93270111 -23.13681793 42.64059448
30.86293411 4.39044380 19.69585991
18.71634865 -32.57917023 32.08462524
31.67372894 -39.71362686 22.55790710
18.79999733 -7.53641367 11.96232796
19.84261894 -5.13919830 14.17853737
17.83888626 8.28877640 28.82194138
-1.53543854 -16.98564720 -3.60649109
8.21589851 -41.23746490 18.36088371
6.31077862 -31.40352058 0.49795341
13.11025047 -38.88837433 30.18630219
24.82678986 -38.98818970 16.68905449
18.54205322 -4.93111801 24.58220100
7.53188705 -24.58562088 -3.72382736
24.08794403 -15.27748013 34.52207947
29.76496696 -39.03266144 25.87506104
22.70075226 -9.43917847 35.88366699
22.90229797 -34.53665924 42.34262848
34.90794754 4.96747017 37.88605118
0.52695274 -27.95843124 11.43910122
6.46132851 -35.27577972 -2.79780388
29.84705162 -8.08110809 18.65431213
19.57736588 -31.26869774 15.92234516
40.31170273 7.57540703 40.95186615
38.74919128 0.02928257 38.94352341
14.02905083 -42.55966187 0.46298027
5.45020676 -21.72656250 -9.11901093
27.01732635 5.88845825 35.75329208
33.81365967 1.78545952 21.32218170
25.75158310 -39.00747681 40.02529526
12.47844028 -31.15323257 15.46587753
43.56859589 -37.18973160 49.33970642
12.61135578 -8.33526230 20.14831161
23.98745155 -34.34094238 40.07791138
9.38160229 -14.58176899 22.02453804
4.05069542 -35.96506882 2.51173019
4.89542770 -18.99154663 -8.25613594
39.86365509 10.79146385 33.25877762
22.13002586 -5.91334152 28.57497025
34.70351028 -25.06987762 18.26905823
0.44483376 -17.95974159 -6.48512459
12.78251076 -30.16602325 -0.85362434
41.04206085 4.52357864 28.87472916
-1.23236084 -27.78627586 -3.17706299
13.60935020 -6.05795956 11.95021820
42.82532501 -18.19969368 33.83184052
27.09622955 -8.14411831 36.23890305
24.37986565 -13.77515316 38.63396454
19.52631760 -40.03147888 10.79717159
1.40489578 -11.46251869 -4.27230263
16.18300247 -32.06051254 25.35972786
28.87338829 10.38053703 29.99940872
37.88299942 -12.08555412 35.88921738
10.23263741 -5.60355377 7.54827213
33.08576965 -36.89476013 31.23193741
29.98128891 -33.97256088 13.86246681
20.28653717 7.18446159 23.17816544
18.01432991 -40.99346161 6.95699501
28.17901230 -5.99288750 36.04422379
30.58833694 6.84636688 31.06595230
25.35176086 6.09441566 28.75103760
39.86710739 -31.10256195 39.74866486
43.76953888 1.56826973 37.33623505
11.53559875 -28.08103943 -4.12434387
38.19590378 -13.19480324 39.24597168
13.45603371 -31.80445671 18.77792931
10.96372604 -41.59149933 22.68926620
-0.36131477 -11.84704304 1.42582130
34.61196136 -8.64411545 25.64327621
37.17583847 -39.69664001 25.81388283
5.86338425 -37.87324524 1.89495659
-1.00948906 -20.89874649 -11.00676918
16.82843399 -26.38389587 29.73881531
31.65515327 -10.04191971 34.78591919
5.48056412 -26.35770416 -4.38793182
25.80033302 -37.03190231 30.86517715
43.03726959 -25.12101746 39.58363724
8.60889053 -25.78149796 -6.09211349
34.76890564 0.24015331 38.05292511
-2.34674072 -24.85265923 -7.39613914
39.68399811 8.53001022 28.47698975
8.29554558 -14.47212601 1.85371399
23.42999840 -0.19005966 27.87450027
42.75305557 -13.73817921 39.68445206
3.53295326 -25.28977013 14.45050430
49.23564911 -28.22241402 38.50525284
11.89545250 -8.29974174 6.13447952
32.05516434 -30.08936310 43.31520844
19.75334167 -9.98509407 28.54118538
15.88788509 -25.23602867 19.20051765
35.46038818 -5.74803066 29.54293823
34.20250702 -1.29757786 20.96153259
25.94836998 -36.22510147 41.91183472
2.94515228 -27.45330048 13.43380928
18.23346710 -40.06586838 37.70987701
44.19918060 -35.87871170 52.10053253
-1.58409500 -30.29395676 1.69797897
29.73626137 8.10193825 21.80820274
34.22209167 -34.29647827 25.36362076
23.69623184 -35.87706757 37.70073700
25.98164558 -24.98716354 6.57445145
21.75532532 -21.76115799 9.92098904
34.52858734 -33.29610443 36.19908524
21.78468895 -2.57991409 26.56348038
11.62742043 -20.97451591 26.53876877
18.45789719 -41.28447723 19.70042801
33.57808685 -39.14216614 23.26951218
23.66246223 -40.83626556 15.50705719
27.06341743 4.98976135 31.06913757
36.57684708 -9.18731117 28.20836067
20.36166000 -3.42118645 26.30530357
18.48192978 -1.04804039 17.08102417
29.60399246 -14.71291542 15.21041298
45.03449249 -39.84246826 47.57520294
37.70742798 -18.55414963 27.43457031
4.00799942 -29.68438721 18.75424385
30.30891228 5.97767258 31.28300476
26.10045624 -36.27307892 29.36418343
0.85795021 -30.61428452 7.08640003
28.42275620 8.28040695 30.26085281
33.07149124 -1.56270123 19.41893387
11.91680622 -8.35051346 2.43870544
13.83265591 -41.04628754 5.11752319
21.07547569 -5.18594742 29.62279510
21.90172195 -31.49387550 5.21069145
-1.91641045 -38.34735107 9.88927174
32.32397079 -9.09159279 23.23745155
3.03697968 -40.77477646 15.62656021
3.40268517 -22.30665588 12.70597553
26.61482620 -17.32183266 10.55721664
1.85220528 -24.00322151 -6.61626053
20.70963669 -26.42902946 32.68093109
1.65058327 -21.70066261 5.21860695
24.64492416 -37.89588547 32.17599487
37.11852264 -28.58906364 38.94165421
-1.96138573 -30.60041428 -3.81053162
28.25912476 -36.99625397 14.84132576
24.72388077 7.22542953 14.92496872
19.36706924 4.06466675 22.13816643
21.97441292 -36.95983124 24.79227829
33.67765808 -31.59034920 33.68016052
24.31370544 -18.45327377 9.96485710
46.57513809 -40.70686722 55.25340271
39.75819397 -15.63517284 33.87028503
40.56686783 1.30707169 40.98111725
19.94196510 -41.52302170 33.52747345
18.75020981 -27.68954468 17.71823883
19.98161507 4.67255783 15.24844551
4.38263893 -22.93551254 16.39360809
17.03349304 -26.20743561 20.56222916
16.03847885 -30.48675728 28.73501587
20.06331825 -32.88085938 3.43578720
20.87493134 6.29649353 19.94933701
27.81419945 -14.65343952 7.70934963
11.03971004 -10.66825771 18.45114326
26.66824722 -13.67943859 15.02888489
43.61519623 0.50451183 33.15483856
38.68595505 -4.49630260 39.15530014
27.60894394 -34.19871521 15.82275867
17.81152153 -26.70393944 21.62474060
37.93397522 -2.33637619 28.62788010
7.88381195 -25.55922699 -1.24191093
34.73715210 6.20019531 42.25723267
48.96280670 -34.76731873 44.82072449
42.39715576 -1.70208549 40.63919067
-5.88776207 -29.65767097 -2.16641617
2.19919586 -33.26415253 -1.98544312
0.96094322 -19.81209183 -2.67304039
7.15423393 -19.00141907 0.99475670
34.83698273 -11.87685394 40.34702301
3.07652092 -21.08552361 10.19558048
24.65290833 -19.77855682 8.63721275
-0.99174118 -21.50697136 -9.79695511
27.59549332 -34.93544006 11.81361103
14.36002159 -28.27928925 23.92415810
14.98497581 -35.60680008 25.67019272
22.82209969 -22.48512077 6.69975090
15.21986580 -31.04373550 -0.17316246
42.37427521 -2.84785652 42.74483109
22.91932487 -26.27018929 40.74598312
36.07420731 -7.16472721 29.29447937
36.35724640 -16.93803596 39.16797256
0.40550423 -30.85266495 -1.59157181
25.90784836 3.09646416 36.44296265
-1.72975731 -39.02467346 4.87131310
44.74356842 -36.58353424 44.23553467
8.41590500 -9.85184669 5.09104538
16.74205017 -33.80366898 31.20730591
0.63577843 -29.30207443 12.47867870
14.51020527 -10.42524815 6.25850964
6.24456024 -13.85609245 4.06759644
39.20041656 -32.67178345 32.84152985
3.79503250 -24.49355507 4.28979492
38.37910843 -33.85609436 21.06412506
7.19913673 -30.42115402 18.39552879
11.46499157 -20.54463196 24.11610413
43.69564056 3.66395950 36.95416260
32.43004608 -36.12918472 16.52398491
42.75613785 -33.57940292 32.47029114
43.54076385 7.78570175 39.35788727
13.04406261 -27.08860016 27.12785912
41.73456573 2.30644226 34.76116943
27.80705643 -27.85914612 44.15087891
32.73936844 -39.66224670 25.25543976
17.76919746 -39.37580109 6.35440445
2.91543770 -25.15670013 12.61200523
44.28947830 -34.85476685 47.95239258
18.71892166 -32.15605545 3.57548523
13.43427086 -24.48898697 28.49434853
38.37700653 -13.63024616 33.46605682
20.30128860 -14.31524658 9.91422081
18.24694633 -32.81300735 33.14815903
27.98012924 -30.07407188 15.88268185
20.18626785 -2.39947605 24.15160370
30.87672043 -29.23652267 16.90082741
15.49181938 -37.59855652 5.45271111
20.69945908 -6.83296394 24.89524651
23.01644516 -34.44849014 19.19312096
43.48943329 -33.14023590 29.44767380
37.90061951 7.76882935 38.06454468
-0.61351204 -34.30651093 -0.49423790
15.11995411 -38.50984573 28.66697311
3.44529533 -35.56562424 17.66501236
24.41887665 -9.55500221 15.28653717
17.27515602 -5.94887543 18.24338531
34.34573364 8.79620361 33.07578659
38.76634216 -19.89784622 45.84084320
22.84093857 -16.65200424 37.76446533
37.71870422 -14.49621487 42.02970886
2.98612595 -8.61189270 -0.81342316
19.90141678 1.35822678 23.45894814
31.26979446 -18.28821945 42.88373566
20.77562523 -2.68147945 16.12446976
9.83927059 -19.96475983 -4.64602280
43.44221497 -26.38520432 40.99460602
26.90900040 -19.32176590 9.97722626
39.70473099 -26.24464417 35.23656082
10.12987614 -11.56353855 5.05847168
18.65648460 -41.52392578 12.91215706
26.71094131 -35.39225769 43.47533798
14.82627869 -38.18151855 30.70723534
45.92084503 -37.34700012 54.37007141
30.66033173 -14.32715225 15.93996239
21.71329117 -35.13244629 10.13506031
41.50864792 6.16730499 39.03262329
8.83665466 -19.75640869 25.44257164
34.65230560 -21.80418205 19.97514915
20.23274612 -39.54935074 34.27237320
-5.78924751 -30.04937553 -0.26291466
22.27420235 -37.91704559 2.81978607
23.07879257 -27.43311310 17.15444183
44.91504288 -31.30433464 48.78878021
24.75510216 -40.97301102 26.25040054
-0.16495895 -16.01987076 -2.48142815
12.48584461 -34.17061615 25.08594322
5.02143288 -17.66063309 18.47966766
22.93857956 -38.75258636 19.76176262
7.61481571 -10.35061646 11.60056782
5.40512085 -27.39407349 -2.60809708
30.54825211 -10.29777527 15.33053493
14.01428032 -25.50347328 21.15380478
3.23601913 -11.40558815 -0.77480888
14.42517567 -34.76063156 17.65170479
36.39874268 -38.86828613 28.10522270
8.42909527 -9.14097881 12.29395485
34.23670959 -42.15520859 17.28574181
6.01468849 -40.11977386 19.40017509
19.16954422 -7.41341352 14.13664246
21.77407074 7.45697212 28.47201347
-0.62273026 -34.74703598 13.11091518
18.64687729 -38.85010529 33.26038361
-1.43626213 -26.63763809 2.52701950
16.29325867 -25.97195816 -2.81095886
1.43875313 -18.78169823 10.01992035
26.78439522 -12.03818703 12.48671341
22.46449089 -39.39870071 8.04479790
-0.72937012 -22.93702698 -6.63712883
26.82144928 3.68356895 16.65378571
30.78481293 -31.26675034 44.48400497
40.13692856 -4.62865925 38.03137970
33.03058243 5.43531418 39.41053772
21.57545853 0.48646545 27.25571060
14.61518192 -31.94858932 16.03565979
30.42869568 -20.76023483 15.28602028
16.28721809 -7.35130787 3.91955185
24.40779877 8.30769730 20.80694008
18.62516403 -32.03614807 15.50538921
20.73027420 3.86297417 15.76001740
37.75473785 4.16503716 24.51661491
30.71099281 -37.33093643 13.29005241
31.91379547 7.69568253 28.77844620
5.19012451 -25.84874344 -10.76528358
33.30115128 7.22559357 38.44995117
17.10744858 -3.84381771 18.19350815
16.55587387 -36.76152039 0.81909180
15.12393188 -35.41399384 21.57190895
15.40507984 -44.53544617 19.70768166
24.58634186 -38.50888824 31.15414429
18.48699379 -40.06214905 5.72692299
9.26910400 -42.63335800 21.23475838
1.97756767 -30.85893250 0.77448082
40.54502869 -29.55461121 41.43791962
37.30920792 9.01194572 25.78208542
27.71570587 1.34401321 32.91242599
-1.29829025 -27.58740997 -0.04099464
17.78946495 -8.63327503 24.69176674
24.35230637 9.54516411 24.68538857
29.86727333 4.68093109 16.81546593
-2.15373039 -22.82318878 -10.37100601
38.66767883 -34.70595169 38.03732300
27.45396042 -18.01456070 10.02961159
14.42413521 -27.91087341 29.06171227
12.69124031 -28.83179855 17.48056030
38.98878860 -36.75129700 23.99889755
29.97843552 -18.98684502 18.11170197
16.18645859 -39.48287201 29.22947693
32.72686386 -4.87760353 35.39538956
41.78768921 -37.95182037 25.35426903
30.64315033 -17.84594727 17.38178635
6.17879772 -34.39593506 18.02863312
38.29511261 -29.97964478 32.52508545
39.27854538 -14.10211945 39.25697327
12.22921944 -30.67301178 -0.90995407
0.83605003 -9.99250317 -4.90107536
21.62240219 -31.37346458 20.72330856
17.98059464 -14.68643188 4.09476280
11.92433071 -32.81989288 12.06811905
40.52299500 2.48592377 30.23776627
30.61619949 -38.09821320 12.54905224
33.10973358 2.59313965 36.91694641
34.66555023 -5.87364006 26.28605270
42.23314667 6.20466232 37.25981140
19.65513611 -32.02656937 1.08480263
0.91687775 -21.19559097 14.86897659
22.43204498 -21.06557274 7.27060986
40.83204269 -19.29028130 34.58074188
15.54316711 -39.50497437 32.76737213
1.10142136 -12.05128384 -4.05476570
13.04703712 -9.87551689 18.83492279
31.45821762 -9.78203392 20.56220055
24.99311447 -0.36129093 16.75077248
6.55012131 -18.57300568 -2.59177780
23.01882935 2.65424919 29.65703583
34.22479248 8.77173424 32.05210114
-0.38774681 -16.26593208 -0.82884026
40.56829071 -1.01308060 42.81599808
29.62010002 4.57704353 15.84222984
7.48278618 -26.62250900 22.56007576
33.06917191 -39.17394257 20.68088722
20.40845490 1.16037560 16.65330124
-5.82864189 -19.08276749 -3.58071327
41.78293991 -21.65829659 26.65087128
27.24013138 -36.61346436 36.03511047
39.73724747 -29.21753693 27.80977631
30.66963196 -17.06009865 43.95194626
18.49313354 -28.61112213 29.83981323
7.57273579 -31.47199059 20.88703156
1.76204872 -40.88651276 9.33371830
44.98457336 8.02528763 39.47568130
-0.71568298 -7.76277828 -4.20596695
37.63849258 6.99349403 44.63782501
22.36669922 -26.81091499 40.64398956
15.32129383 -11.27366066 18.86244583
26.10846710 -7.18835926 16.38587952
41.06904602 -27.44176102 24.70223045
31.89418411 3.41192245 20.41287804
29.36275673 -12.83783531 17.42471695
28.45138931 -32.60786057 33.48241806
4.62672043 -34.37108612 19.33606148
41.81041718 -25.17656708 42.29611969
27.12382126 13.19732857 27.13862419
37.20210648 10.18272591 24.13411522
36.34865570 5.66543388 30.43577194
27.71849251 -37.00348663 45.18103790
43.27357483 -25.26221085 44.41676712
30.43898392 -33.82168579 41.58893585
0.87632751 -22.88178253 4.26371765
43.27042007 9.76837158 40.19997025
22.56532097 5.11414719 25.42945290
49.55812836 -35.24671173 48.82947922
15.00986481 -27.28805542 18.28067589
45.12294006 10.07697487 39.62184143
14.42578888 -40.27600098 2.70784187
20.26100540 -40.95141602 13.79669571
36.66225433 -32.63104630 36.83943176
6.83046150 -13.69985104 11.17206383
-2.46096039 -15.19423771 -7.04845238
16.97481918 -33.00326157 8.15519714
24.09698296 -27.20089912 21.97713661
30.84351349 -28.91538811 44.29283524
35.33888245 -18.22775078 42.90554047
19.26975822 -14.29783154 0.05182648
9.16845798 -21.03632355 -0.13452721
12.67638302 -35.39892578 -5.92050743
19.09400368 -31.55970764 14.15926361
40.94740295 -36.14978790 27.08984756
28.16987038 -26.38254356 40.35343933
32.40407944 -9.44329834 26.53323936
3.68425941 -8.15586281 -5.46291924
-1.63662910 -15.22220612 -5.71416283
2.85012054 -15.47508812 -7.92429352
36.08953857 7.34878731 27.88238525
25.51745796 -5.16826534 19.38221931
38.33251190 -14.19409180 33.08280182
7.00792980 -14.58287907 16.69252586
6.55596066 -39.49464417 16.01852036
15.51834774 -43.94937897 23.36735725
40.03613281 -4.56543922 37.91515350
17.52442169 -8.36141968 22.01289177
16.08749390 -41.16074371 16.37731934
14.09138489 -41.46775055 8.51969910
0.94479370 -23.03299522 9.48976231
30.68673897 -22.93637466 17.10614395
27.40894699 -34.30433655 48.77569199
37.46415329 -30.47089767 41.59048080
27.48008537 -15.16626167 13.00329781
36.28881836 10.67183495 28.85066986
15.77561665 -26.43624496 19.26943207
32.05895233 5.35662270 34.61533737
33.23884583 -32.54389191 17.29451752
15.04930019 -5.24813652 17.85084343
11.00980091 -39.53466797 -2.70232010
43.41636276 -21.92055702 39.94998932
23.78935242 -4.91128826 31.21051407
35.76406479 -22.00232315 23.51047897
1.57195473 -36.64554214 3.14824104
9.59723473 -40.83377075 -2.67278862
36.33448792 -6.36457062 23.88647461
13.17091751 -16.28625488 21.12851524
2.24247169 -29.82216263 0.88142204
11.28073978 -17.66669464 20.53650856
5.90276337 -18.48958588 -8.70227814
7.97988987 -22.56352997 -6.67200279
37.47537994 -36.42210007 32.08440018
-3.58799744 -35.12654877 3.13644791
0.22832680 -15.09075260 -10.40787697
28.35621452 -17.55511093 41.93139648
-5.98623085 -22.84404755 -5.37576866
9.04223824 -26.74956894 19.90444756
1.20448494 -37.54936218 0.30251694
17.11718369 -21.97100067 29.90966034
0.06706047 -37.83432770 3.16342545
22.18976212 -31.44818878 41.20441818
19.94696236 -34.07501221 14.72696877
-1.33061028 -28.18223572 -2.06751251
5.49184227 -33.21153259 -0.43022728
16.68939972 -7.65519571 15.74355221
1.92331696 -20.51548958 7.84455967
47.10778809 -33.34690475 47.98684692
37.55772781 -15.97540665 42.44570160
46.53391647 -38.52764511 52.67970276
17.94515800 1.25862694 26.73016357
-2.41302681 -39.80436707 9.96118641
18.00609398 -7.88717222 10.60350895
1.82456779 -32.99468994 -8.24873734
-4.84263611 -18.77074051 -2.11853409
18.44212341 -42.51739502 30.28166199
41.89296341 1.37694359 42.51274109
-0.13844299 -15.48134613 -8.87871552
20.77678299 -17.95068741 3.51768494
0.54877472 -33.04618073 13.58555031
22.31018639 -26.60951042 1.27856255
25.00418282 -5.80155659 34.20296860
9.32339478 -38.45345306 25.38067818
26.14743805 10.18909454 27.52635956
40.73451233 -33.74460220 21.67860985
44.39653015 -32.01374054 42.04247284
41.34001923 8.05741119 37.06338120
35.54132080 7.77892876 40.56695175
37.32609940 -22.60160637 43.78574371
1.15732193 -39.74594879 4.68794632
0.15825653 -28.63511276 11.52361774
22.48432922 -34.76251221 6.55667782
25.04327965 -36.77824402 29.51958466
-1.18807983 -36.14268494 10.06335831
4.47902489 -15.11616421 -1.17414474
-4.94311905 -35.12755585 0.16440010
25.38372231 -5.44866276 33.08219528
6.66371155 -31.48386955 17.42289734
5.88893604 -23.69560623 -8.98958015
27.49968147 -5.84417534 34.03385544
20.82389450 -38.75658417 25.15214157
21.94871902 3.44483948 11.02784252
34.78011322 -6.11254215 33.99929047
31.32887650 5.52826309 21.13292313
34.29016495 -6.52236271 24.79154205
3.89761925 -30.84354401 -1.73572540
23.88291550 -29.73974228 22.66598511
4.11978912 -22.59372902 -1.95792198
13.11680889 -42.11445618 10.63022709
23.37926292 2.16398811 34.27745056
25.78513718 -31.76949501 18.72106743
22.56245041 -26.14664841 14.66554832
11.64602852 -9.71528244 18.02080727
29.10930061 -18.69622421 12.22107220
6.58750820 -32.83765411 18.66155434
3.88234138 -40.52558899 8.24715137
21.53503609 -24.77078247 4.15898705
46.30445099 -37.66997528 46.96476364
31.01791000 -24.66186905 15.30440807
28.02251053 -0.67623234 15.99558449
15.98515511 -34.05725861 24.78453064
15.43677330 -20.67018127 20.99160004
35.42375565 -9.60011673 31.21302414
1.30954170 -16.41177368 7.66160297
12.11599445 -15.51430607 2.99966621
32.30899048 -8.12553978 36.01437378
21.59160614 -26.04001999 5.65330029
25.81406784 -32.38611603 20.93534088
22.75517273 -7.11244774 33.04792023
32.62948227 -18.80611420 20.28890228
16.43466568 -32.51166534 19.71199036
35.09865570 -26.42115784 21.02994919
34.67852402 -16.30504036 19.57229614
9.14454079 -8.29147720 16.03133392
17.35281372 -32.79124069 14.07692719
30.84773636 14.22470856 27.72182274
31.59570503 -37.58934402 17.84153557
18.75594139 -25.96337509 0.24246025
-3.38739777 -32.45262146 1.30234337
15.09034157 -40.74348450 10.80143833
24.97336769 3.39797974 15.41224766
41.59940338 -33.82421875 31.36999130
23.06854439 -25.71327019 5.36871910
46.11627960 -37.25481796 42.61871338
5.83558941 -17.13541794 -2.63592911
26.34886360 -26.75102425 10.31303501
43.31626129 -28.14983368 43.52203751
29.06291389 -36.95448685 12.61124134
21.32252502 -36.40552139 4.25105858
26.25672150 -35.53500366 42.33185196
29.12312698 -21.45626259 17.25631905
6.12479401 -22.70808220 -2.98761559
5.02911949 -30.63621330 -1.50828934
25.71126747 -3.26503849 18.00512505
26.31318283 -33.32518005 13.66041565
12.06235600 -7.49251223 7.38175106
10.32100677 -37.04795074 23.65726089
31.35056686 -14.30786991 38.60493851
25.61230087 -12.05043888 37.42330933
9.47263241 -41.76491547 6.74976730
23.26165771 -41.65779114 34.31187820
15.51264286 -16.73162270 0.87427902
23.19756508 -30.58753204 17.20852089
43.34742355 -0.33342648 41.63307953
-3.33599281 -23.25429726 0.78822327
14.05850124 -29.69723511 29.74183655
-0.23567963 -35.90544891 10.08298302
38.35768890 6.09359550 41.80717850
14.18385124 -15.11101818 24.53907013
38.34144592 -25.91153717 22.76903343
36.40451050 -23.87450027 25.28238678
16.38484955 -42.82114410 25.23085785
16.70625305 -17.98920059 28.27926254
8.89925957 -11.17383003 13.51034164
-0.45426941 -31.27963448 6.16279697
19.12629700 -2.14031506 16.09477043
0.44616318 -27.24049377 -2.82711220
10.44209480 -7.98153162 6.16272449
20.12208176 -21.87911987 1.23383331
38.99882126 -34.23973465 26.19989586
35.16560364 -33.82655334 33.74428177
37.93653870 -20.96450233 21.83160973
28.08864784 -28.59128952 42.22911072
1.51379204 -17.34616852 -1.14846420
5.21795845 -21.22242737 -0.74217987
28.80962753 -19.89038086 42.39313507
16.76460648 -7.91951466 26.15133476
24.77869797 -39.05712509 18.67201996
23.19574547 -32.92622375 40.84704208
2.28098488 -42.12552643 8.53334904
32.95117188 -10.62554932 28.41540718
29.27126312 -7.75945425 19.45469666
1.07068443 -19.26634598 8.74791908
28.84948349 -27.42155075 17.45642471
41.39623260 -30.51707649 24.46352005
43.83312225 -0.36226940 37.47318268
39.68423462 5.53927231 32.71753693
34.82036972 -28.57984352 41.01230621
19.78301430 -36.98367310 15.62770844
0.20347595 -34.32747650 2.01569176
38.78042603 -10.79588890 32.39550781
20.37623596 -21.18105125 4.67059135
38.21009064 -21.95226288 43.60901642
22.19400215 -13.17995644 10.69725895
30.05024338 -9.84313965 23.85188675
2.13392830 -34.26488495 13.71491718
23.11759758 -27.70373154 18.93379974
0.54395103 -30.88001251 5.49377346
43.52613449 -25.15534782 45.12506485
-0.05680656 -31.93459892 7.12535858
32.50509644 -21.62502289 45.70350647
25.00955391 -40.74840927 17.99765015
27.65294266 -12.91529465 35.72578430
4.66403389 -25.28435898 -4.64615822
1.14081001 -30.26210213 -3.69443512
21.58506012 -27.21188736 40.82364655
11.47317791 -40.05989075 8.78610611
15.63276196 -9.13246918 2.37561989
22.99849510 6.54714966 12.76750374
13.74569321 -12.16464043 4.83992195
4.85271835 -16.51924896 -3.85907173
25.02932930 -40.40059662 12.51374340
0.41396332 -28.61131668 9.79348183
19.73897362 -35.34137726 37.47254944
43.02675629 -32.85231781 40.53231812
