-11.70874882 -0.72202629 5.26791000
-11.49688148 -0.12000956 6.23142624
-10.83724594 -1.01111042 5.93045425
-10.85574818 -0.48420203 6.39767265
-10.98749352 -0.48389837 6.25694227
-11.02408504 -0.66055965 6.09083652
-9.98954105 0.19709377 5.80343056
-11.12873840 0.18726911 6.57954788
-9.93309402 0.76285100 5.07042980
-10.97250557 -0.45329517 5.50644207
-11.39311981 0.58543134 5.21915674
-10.65472412 0.62072980 5.55148077
-11.33180618 0.11061228 6.37752914
-10.71353531 -1.00228500 5.83757067
-11.46384430 0.63107485 5.52546740
-11.04491329 0.00417941 6.43450117
-10.21361160 -0.46522686 5.21126032
-11.55586338 -0.93751931 6.70890141
-11.17500305 -0.31922254 5.31556034
-10.14312077 0.62296432 6.43760633
-11.08902168 -0.64645582 5.88369465
-11.13350964 -0.25043619 6.53470278
-10.56621265 0.56150854 6.05921936
-10.06063271 0.19593513 5.77659750
-10.26896381 0.11407630 5.48146963
-11.22097397 0.65971583 6.51850700
-11.25972939 -0.71073794 5.44639349
-10.52008820 0.51722538 5.70694256
-11.44748497 -0.62347734 5.12664700
-10.48076916 0.63060337 6.39613247
-10.44818878 0.61380583 5.30143833
-11.63057804 -0.65963155 6.84778595
-11.61944866 -0.91419762 6.92713833
-11.45237732 -0.28871322 5.79714966
-11.80169678 -0.11571307 5.86485577
-10.24615383 -0.00008214 5.55645323
-10.18151665 0.20565218 5.48434162
-11.54664135 0.75396311 6.59711456
-10.86030197 0.26629016 6.70629978
-10.89401340 0.68634635 6.15353537
-10.93939114 0.47695118 6.31732655
-11.49599934 -0.82757312 5.14652681
-10.79261208 -0.17512283 5.12828064
-11.60883141 0.80348265 6.56354952
-10.43370724 -0.13384598 5.51079702
-11.33901215 0.29900813 6.42558479
-10.24364376 0.03230609 5.54542637
-9.99383736 0.70336550 6.78223848
-11.43425941 0.32061160 6.11759996
-10.55395985 -0.03400109 5.22988367
-10.89277458 0.23997970 5.24120617
-11.77255630 0.89246786 5.22895288
-11.77227879 -0.97602063 4.88540983
-10.83320999 -0.40019411 5.51121616
-10.91150856 -0.17919731 6.68868828
-11.36256123 0.21548513 5.90586376
-10.96908760 -0.53114414 5.55130243
-10.47529984 -0.56230134 5.91099215
-11.37528324 0.70694613 6.35842896
-9.97245979 -0.88292348 5.10272503
-10.08030605 -0.44017693 6.19623566
-10.33491325 0.52283520 6.24005365
-10.17930031 -0.23447058 6.17416620
-11.13910866 0.63610101 6.03626204
-10.88983536 0.73922753 6.17918396
-11.20208931 -0.64446324 5.29757166
-11.63946152 -0.68320614 6.63783503
-10.81817818 -0.18925282 6.69195032
-9.85715199 -0.83928883 6.82684612
-11.43772888 0.24827027 5.83565283
-10.31194305 -0.41600594 5.75959778
-10.74483013 -0.36263657 5.37649202
-10.30204582 -0.00028549 5.60697460
-11.10463619 0.53228301 5.78976583
-10.59945774 -0.27369133 5.32876110
-10.73836136 0.05233072 4.83638000
-11.63565731 -0.94744617 6.86200237
-10.20514870 0.60231864 6.30574512
-10.95820618 0.50904489 5.43734169
-11.03033352 -0.21812348 6.57904482
-11.52787018 0.13545521 5.66913700
-11.59472084 0.22351836 5.99725580
-10.58045006 -0.65139747 6.27509546
-11.19814301 0.66827732 5.56929207
-10.39934254 -0.53343111 6.47435904
-10.70526695 0.16945612 5.16198874
-10.04576778 0.66115516 5.41623306
-10.86638355 0.96345794 5.78012133
-10.60164356 -0.53999728 6.47817802
-10.55222607 -0.52818143 5.46578741
-11.27057266 -0.59705234 6.52484083
-10.26985741 0.31188178 6.09569073
-9.99113274 0.63241452 5.18087864
-9.97416496 -0.72409320 5.37267780
-10.77504539 0.96600860 5.91522121
-10.21633148 0.34548390 6.50640440
-10.06046867 -0.69474173 6.73270178
-10.53261757 0.71822625 5.90127420
-9.99392986 0.56874967 5.21402502
-11.73932838 -0.92409021 5.04676342
-11.54115677 0.07966076 5.75424004
-11.68942356 0.09134227 5.99092579
-10.40796280 -0.00212772 5.41781807
-10.15956879 0.56776130 5.09271812
-10.91983032 0.83449847 5.86979961
-9.64130402 -0.10917696 5.85313463
-10.74513721 -0.15649275 5.10345268
-10.92891884 -0.88670820 5.98698711
-11.36579227 0.34250006 5.92902184
-10.30023766 -0.57441169 5.53122854
-10.73323154 -0.24445122 6.85615969
-11.50426769 -0.76561660 5.14689159
-11.05922222 0.56333208 5.89499617
-10.39904308 -0.56717104 5.68731165
-10.66457748 0.24378222 5.30359364
-9.98433876 0.30419618 5.82629681
-10.44380760 0.59147704 6.16717815
-11.10221767 0.53599679 5.80281782
-9.83017349 0.88165385 4.89546585
-10.85165977 0.00021534 6.99012184
-11.51537418 0.74546677 6.57769012
-10.85885906 -0.35710871 6.56617403
-9.97020531 -0.16019124 6.05262375
-10.84749031 0.44177392 6.19153643
-11.16697025 -0.59245116 5.40373278
-10.24266720 0.54772800 6.29069662
-10.85704994 -0.03691455 5.08745670
-10.69086456 0.58375514 5.38826847
-11.12111568 0.52928936 5.33811188
-11.18283749 -0.63273376 6.32217169
-11.48140144 -0.52819657 5.35994625
-11.51244640 -0.78973395 5.10112858
-10.14491272 -0.85212713 5.18548584
-9.98909950 0.87615389 6.76913643
-10.75928783 0.33718038 5.14776230
-9.89348507 0.88842136 6.60902977
-10.11389637 -0.46158457 5.27368832
-10.80599213 0.74516302 5.67709351
-10.35054970 -0.31866786 6.55440187
-10.64526653 -0.27727056 5.32863665
-11.69798851 -0.91043007 5.17720985
-10.87931824 -0.68273121 6.19121408
-11.54661274 -0.61635029 5.20228052
-11.31173897 0.33518851 5.93707514
-10.15161133 -0.68564582 5.17696333
-11.06050396 -0.37904811 6.52423382
-11.48455524 -0.79180944 5.18337917
-10.98469543 0.55779195 5.39527655
-10.31398010 -0.48771736 5.74720240
-11.62934113 0.84176922 5.34838200
-11.09506989 0.34838566 6.49819851
-11.43243790 -0.69301838 5.35481644
-10.69876194 -0.80759376 6.06638336
-10.40877342 0.63011956 6.41344452
-10.56755924 -0.63520366 5.66362095
-10.85627747 -0.55791241 6.28924370
-11.57961941 -0.15795749 6.00297546
-10.43068027 0.13718715 5.31807613
-11.51749897 -0.80539787 6.63858128
-11.52910805 -0.14846645 6.07955837
-11.24231529 0.58121455 6.27731276
-10.22385311 -0.68063235 6.75802469
-9.84848976 0.88707292 5.01383543
-11.00712109 -0.11327606 5.14696598
-10.27697563 0.47912887 5.37536860
-11.64894962 0.82100004 6.52997780
-10.23456955 -0.36315677 5.78188181
-11.34029865 -0.59713984 5.54098368
-10.17995453 -0.56324017 6.22235489
-10.45638847 -0.54778266 5.35628223
-10.28210163 0.00557654 5.60441256
-10.70331573 0.64846390 5.72515965
-11.55490494 0.62795627 5.21294260
-10.62683296 -0.48465744 6.44979286
-11.02955151 0.54994160 5.55701256
-11.51334953 0.06342904 5.73727512
-11.16793346 0.56951028 6.42297363
-10.15418339 -0.06745697 5.70603323
-11.64559269 -0.75762856 5.10135651
-10.18303490 0.89960921 6.60829687
-10.02333927 0.57039517 5.25074816
-11.32180691 0.35907105 5.63269711
-11.47188377 0.83668029 5.12855577
-10.88214111 -0.53102964 6.42613125
-11.32479095 -0.79712063 6.56866503
-11.56691933 0.17933476 6.07124138
-10.71900845 -0.21580233 6.72744226
-10.18751335 0.46425667 6.41094160
-11.16528130 0.07429580 6.53622961
-11.02146816 0.80710423 5.90696335
-9.91361904 0.91323400 6.68458271
-10.97004032 -0.37525702 5.28924036
-10.07783794 0.85073090 5.16639614
-10.22781277 0.30310258 6.45612001
-10.66189384 0.54256958 6.19949865
-10.19062614 0.42789072 5.31094694
-10.25505066 0.69230998 5.38539410
-10.12520695 0.02198380 6.15369272
-10.75462818 0.88493377 5.66356993
-10.48266411 -0.56512791 6.01260757
-10.85874271 0.96142113 5.87990046
-11.42970276 0.31598815 6.04912233
-11.76394272 0.98811334 6.88611794
-11.24167633 0.53997391 5.70206213
-11.67659664 0.93065542 4.97420359
-10.28957558 -0.43672869 5.23958635
-11.33388329 -0.51832598 6.20113850
-10.28861141 -0.25689670 6.01021719
-9.98620319 -0.09117670 6.18995047
-10.40998363 0.62913126 6.55357361
-11.12255478 -0.47024074 5.54355812
-10.58299828 0.27944458 5.29268694
-10.17646503 0.09070151 5.71941805
-11.63227177 1.05316544 4.98475218
-10.41662216 -0.52972311 6.15682697
-9.92192078 0.77076507 6.81871462
-11.15073109 -0.57253247 5.72755718
-11.28030586 -0.34158292 5.29982615
-10.74965477 0.44842747 5.45697212
-11.69697285 0.92000324 6.76405430
-11.03464317 0.15485513 5.25420618
-10.38014507 0.67426378 6.33564186
-10.92389107 0.01116727 6.69228172
-10.30931377 0.81369954 6.52127314
-10.11884022 -0.12170587 6.08797503
-11.62224674 -0.86739582 6.94025421
-10.53786373 0.29181820 5.34045649
-11.12074852 -0.55296898 5.50231028
-10.48382187 0.25275263 6.52777338
-11.24435616 0.34892023 6.56757784
-11.26174545 -0.32169271 5.27739906
-10.51487732 0.51299059 5.87089396
-10.15110302 -0.46527338 6.51418018
-10.15495491 -0.60525560 5.16113663
-11.90465355 0.15853864 6.02106142
-11.08651352 0.08906257 6.51459694
-9.94149113 0.79609764 6.72707558
-11.71920776 -0.94151276 6.86869001
-10.21002197 -0.82435465 6.78423214
-11.59867764 0.86765105 5.03382301
-10.56137562 -0.35439631 6.47514057
-10.60227871 -0.60083741 6.07641935
-10.53295517 0.60023350 6.36403513
-10.30982876 -0.56087267 6.60719252
-11.31301594 -0.64056689 6.57881117
-11.15496349 0.55087888 6.01920748
-10.94380856 0.07287045 5.42595577
-10.78171539 0.13457143 5.14259958
-10.27620506 -0.59014994 5.18908262
-10.21959114 0.82288784 5.34420824
-10.28691959 -0.57322538 5.24286890
-10.48116493 0.01010211 5.35147238
-10.56877708 -0.83699095 5.79275417
-10.98286152 -0.09927088 6.61342621
-10.91340351 -0.24737652 5.23078823
-10.22042179 0.47949392 6.70978546
-11.78669071 0.11570346 5.79235840
-11.53840351 -0.54305923 5.38486195
-10.67033768 0.51030964 6.38634109
-9.81062698 0.19481994 5.90253115
-11.18269920 0.53068393 5.95925093
-11.61939812 -0.64001369 6.65050697
-10.93537426 0.92425472 5.85498762
-10.62056732 0.17710553 5.17926216
-9.88734245 -0.19981857 5.82033062
-10.68061066 1.03397834 5.86418200
-11.15421295 0.62171632 5.91403818
-10.33868504 0.69607294 6.38332462
-10.30429363 0.61751390 6.14948654
-11.15705395 0.67213809 5.23381329
-11.08202839 -0.44158801 6.57031775
-10.89789486 0.39686900 5.38412809
-10.99825954 -0.56006169 5.49415302
-11.26004219 0.68067133 6.25163507
-10.03641796 -0.69932878 6.43872690
-10.42560101 0.53208923 6.08126020
-10.01650143 -0.13929848 5.85198498
-10.66322613 -0.04456906 6.79153156
-11.52140903 0.79308742 6.52587080
-10.15306664 -0.23649284 5.82500935
-10.61617947 0.02970304 6.67277241
-10.44802380 0.56793320 6.37671375
-11.15814972 0.55697936 5.32175446
-11.45581245 0.59861082 5.55307770
-11.68825245 -0.76625866 5.07189560
-11.35840607 -0.71690959 5.22053623
-10.84480572 -0.09395070 4.86014271
-10.71103382 -0.94959122 6.05206156
-10.81730843 0.16561863 6.73543406
-10.27920914 -0.62522906 5.43700647
-10.26554298 -0.12942928 5.60604429
-11.47254467 -0.41261610 5.44656181
-11.35065842 -0.58762252 5.28004408
-11.40249729 -0.61738640 5.46877098
-11.38156986 0.10255681 6.24540997
-10.15295792 0.36517349 5.64441633
-10.68673038 -0.17356910 6.69040251
-11.45188046 0.48706403 5.16987467
-10.85985470 0.39516380 5.41762638
-10.20494461 -0.61997306 5.54675627
-11.42059803 -0.44590583 5.29456520
-11.66610718 -0.96061110 6.95261288
-10.89138222 0.49685332 5.43051195
-11.17578125 0.23724937 6.42989683
-10.14520550 0.62270129 5.12842894
-11.12652111 0.62605089 6.38012457
-10.98800468 0.06419868 6.72875309
-11.69837761 -0.82407391 6.68811035
-10.50981808 0.31574634 6.61696148
-11.19295216 -0.29994243 5.46890831
-11.70564938 0.75524449 5.18493462
-10.90662861 0.75288397 5.86516094
-11.40148258 -0.34203541 5.67523050
-11.12260056 0.50846612 5.87356949
-11.42586613 -0.73598516 6.56531429
-10.97689438 -0.43482324 6.42273998
-11.05991554 0.12335347 6.47375965
-11.27554703 -0.61360055 6.51269865
-10.17281437 -0.20963971 6.13399792
-10.46136570 0.51811266 6.08296061
-11.18736362 0.56188101 5.40809727
-10.30751038 -0.54281992 6.19201183
-10.49132824 -0.37295869 6.51822567
-10.87729168 -0.54448533 6.16567135
-10.59874058 0.35048643 5.45774651
-11.56096172 -0.67898816 5.24883461
-11.31967831 0.34123683 6.06622744
-11.18601513 0.58477855 6.27277708
-10.29937458 0.24486290 5.45103884
-11.38459301 -0.17773716 6.17507648
-10.08486462 0.56817126 6.37109995
-10.65213203 -0.03466032 5.08729649
-11.36080933 -0.45590937 5.24423504
-11.88589764 -0.01659495 6.05204964
-10.15047455 0.17955874 5.72282457
-11.60357952 -0.71401030 6.69407749
-11.03109360 -0.37515998 5.38669634
-10.40670681 0.62326431 6.49981308
-11.23390770 0.59054077 5.36571836
-10.14383888 -0.55838388 6.35049677
-10.65371323 -0.57191694 6.25987720
-11.30412960 -0.04851694 5.64713764
-10.30463314 -0.40313330 5.29010201
-10.49365044 0.58401459 6.09962606
-11.36494637 -0.22453119 6.49919462
-10.22233105 -0.24135768 5.78434610
-11.55970860 -0.65376890 6.55745935
-10.30046272 0.40368173 6.50050831
-10.28811264 0.67380911 5.47297430
-10.20418072 0.67752653 5.25742483
-10.86118603 -0.71093154 5.68178082
-9.72961044 -0.03395462 5.83781385
-11.16162300 0.55973804 6.09416771
-11.48603535 -0.56773680 5.22442341
-10.31932068 0.07481170 5.52188587
-10.19060898 -0.06468548 5.56717014
-9.87571526 0.91373926 6.84646893
-10.03204536 0.72461981 6.80000687
-11.29082203 0.49117449 5.74523401
-10.03527069 0.62468761 6.57424593
-11.46560383 0.61708796 5.44945574
-11.75635529 -1.07304692 5.04378891
-10.60999107 0.32532477 5.40044785
-11.20021343 -0.56465393 6.18099213
-11.14278889 0.73921007 5.92454720
-10.02525043 0.74422532 6.71226501
-11.74940109 0.97160912 4.98646021
-11.09934616 0.61411071 5.48057604
-10.07851982 0.51887846 5.15574884
-10.19543457 -0.83090860 5.27268457
-11.52758694 0.14914800 5.94018030
-10.92174625 0.36336684 5.28119469
-11.40325546 -0.38801345 5.77531958
-10.93068218 -0.96191442 5.92937565
-10.61573410 0.31070095 5.30992508
-10.89553165 -0.20163012 6.75710058
-10.86275578 -0.11407114 6.75215530
-10.34045601 0.72576475 6.65096617
-11.18983746 0.07885343 6.58202744
-11.14639378 -0.59380436 6.11112499
-11.37693310 -0.01912978 5.55592728
-10.22838116 0.16618338 6.25045729
-10.65431595 -0.10345189 4.84653378
-10.90494442 0.99694878 5.93543530
-10.71844292 -0.10163753 4.79322290
-9.87422943 0.98975170 5.06920576
-10.74694920 -0.02385066 6.84903193
-11.44561863 0.70168686 5.24364090
-10.09781551 -0.48236251 6.41058969
-10.27300835 -0.48331916 5.27166843
-10.10152245 -0.55140716 5.18647575
-10.94587040 0.05367036 5.28966427
-11.26472282 -0.57075888 5.69416428
-9.94537067 -0.12237311 5.95605469
-11.33243656 -0.02352116 6.20977879
-11.44644737 -0.57338423 5.20207119
-10.43539238 0.03443236 5.34755039
-11.06334877 0.01480636 5.24062300
-10.54278755 -0.26157355 5.33496809
-10.42263126 -0.57329392 6.22876501
-10.88384533 -0.26749521 6.47181988
-11.48012733 -0.61744517 5.18158054
-10.97251606 -0.54546857 5.64694881
-11.41303062 0.65482551 5.42796040
-11.57672310 -0.49142206 6.64760780
-11.07147980 0.06058611 6.62402916
-10.31778812 -0.57236272 5.56381369
-11.55949020 -0.81701601 5.26316786
-10.59995270 0.02672017 5.28328371
-10.62025261 -0.46190229 5.71409988
-10.80320740 -0.27085394 6.78515625
-10.44520378 -0.69019049 5.48454285
-10.65493298 -0.76797152 6.05896282
-11.02908039 -0.04428946 5.32480431
-10.33199883 0.01065355 5.42490053
-10.60686779 -0.84566212 5.76858330
-9.87700081 0.66803575 5.21611643
-11.65709686 -0.98386306 6.87277031
-11.27084351 -0.29840514 5.32838678
-11.09488678 0.60534251 5.30624294
-10.62253284 0.13937581 6.64800596
-9.93595219 -0.73201811 6.64781427
-10.93101883 0.67028159 6.31903696
-10.25079346 -0.02209598 5.55884171
-10.43214417 -0.45305341 6.57454062
-9.85105515 0.00866497 5.76476812
-10.51377106 -0.50558954 5.44484138
-11.59708118 0.26045635 5.88009214
-10.31283379 0.54605341 5.20528555
-10.69112778 -0.24441971 6.60503769
-10.47492123 0.68065798 5.37634039
-11.36697865 -0.68785870 5.28193712
-10.58167362 0.18817216 5.42346478
-11.26706219 -0.56763536 5.14923906
-10.44855022 -0.61917490 5.49284744
-11.19838333 0.48631015 6.15120125
-9.77796555 0.95126837 4.96084404
-10.41443157 0.19580394 5.34824610
-10.90820217 0.88610744 5.89530516
-10.27804184 0.45431712 6.24727917
-11.47148037 -0.66709960 5.43919420
-10.02237511 -0.92275155 6.77073717
-11.13949966 -0.63075078 5.39925289
-10.16051006 0.26109707 6.08215046
-10.96222878 -0.08428076 6.62240601
-10.77879238 1.11118603 5.77835798
-11.02067661 0.89358264 5.93976831
-10.24170208 -0.64373922 5.44448376
-10.44593143 0.56779861 6.17076445
-11.29165840 0.40641347 6.12772322
-11.00040817 0.01590374 5.17382860
-11.66904926 0.16335893 5.92686701
-10.62243176 -0.14847216 5.23825979
-10.84573269 0.28576699 6.54731560
-10.59720230 -0.01492119 6.88827753
-11.36864185 0.33937356 5.89759445
-10.85054207 -0.42231327 6.47893524
-10.32730579 -0.40396523 5.91005230
-11.59684944 -0.83260781 5.13941860
-10.75013256 -0.08993404 5.08021498
-11.37621212 -0.13052003 6.31391335
-10.48337650 0.55166465 5.36606264
-10.56905651 0.51337427 6.39352894
-11.39002514 -0.46339092 5.54657221
-11.25395775 0.56121975 6.62061930
-10.01641941 -0.18459654 6.01477098
-11.31330204 -0.38233969 5.42721891
-9.81391716 0.80740565 5.18492603
-10.23305035 -0.35909852 6.21341085
-10.59012413 0.48647884 6.56262875
-10.04444790 0.89702797 6.58045673
-10.97724056 0.16265605 5.12364292
-9.88896751 0.04908193 5.90536165
-10.64705753 -0.01145971 4.87252617
-10.90911388 -0.89696407 5.91028309
-10.55442142 -0.70377111 6.02710581
-10.90470791 0.51014036 5.64113522
-10.60014439 0.62957865 5.88671684
-10.22071075 0.44285223 6.45720577
-11.76668739 0.97654456 6.97712994
-10.10026646 0.71253103 6.44475555
-10.91428947 0.42915219 5.36459541
-9.94434929 0.88912779 6.78933096
-11.74123096 -0.94576001 4.90772009
-10.00255203 0.70123392 6.80164480
-10.88251591 0.73505878 5.84572887
-9.83766174 -0.05294246 6.03219652
-10.48842907 0.36719003 5.40044832
-11.13480091 -0.63229996 6.44475842
-10.48319435 -0.53150743 5.99836636
-10.29188156 0.04664346 5.57625341
-11.44303894 -0.35937870 6.32263470
-10.02998161 -0.10321514 5.70901680
-11.09434223 0.59052080 6.07042885
-9.94803238 0.81045389 4.92393255
-11.39405537 -0.47954869 5.63363457
-10.60168171 0.44382811 6.38009882
-10.71725273 -0.78883183 5.65672970
-10.88782597 -0.81353390 6.10628033
-10.20093346 -0.12658459 5.63710642
-9.90025806 -0.86674970 6.67568827
-10.76254749 -0.30396605 5.12931919
-10.28732872 0.54027104 5.73307657
-11.04930115 0.36511022 5.25379324
-10.39531612 -0.54496306 6.22040892
-10.09256458 -0.27067968 5.69879341
-9.92649746 0.79996198 5.19320059
-10.81889153 -0.04290111 6.80155611
-10.42542458 0.58035362 6.51130772
-11.49798489 0.58584666 5.45166779
-10.57337093 0.56061423 6.47394943
-11.45307255 -0.78512126 5.10281277
-11.76249123 0.00954845 6.07811546
-10.24859619 -0.31470299 6.21679354
-9.96300983 0.87053287 6.90839863
-11.31838226 0.19262345 5.49071646
-10.06564426 0.01369549 5.72504759
-10.86962318 0.45657119 6.38138103
-10.35406876 -0.39889327 5.87930822
-10.72897530 0.27868649 5.20614195
-10.21068192 0.44298416 6.26551962
-10.11423111 -0.81209517 5.06585026
-9.95265293 0.60846061 6.72008753
-10.71952057 0.59723192 5.71876478
-11.00329113 0.74469751 5.89212084
-11.62295246 0.11550132 5.92113590
-10.12768269 -0.39197043 5.24043751
-11.20580196 0.01914218 6.43427277
-10.71443272 -0.10316630 4.95943165
-11.69950390 -0.89473349 6.92580748
-11.00989628 -0.00657233 6.86124849
-11.69831944 1.00339186 6.80837202
-10.56307125 -0.16812713 5.21117973
-11.33750248 -0.71550131 5.36031342
-11.02093792 -0.66093874 6.08839607
-10.38132763 -0.53621566 6.01066780
-10.95664310 0.74761510 6.02953529
-11.56555653 -0.65073782 5.18929768
-10.01093578 0.69721073 6.48033810
-10.89883995 0.10748085 5.08067226
-11.62898540 -0.93341750 6.90457344
-10.04389668 0.60717243 5.19706917
-11.52588749 0.70525593 6.45259476
-10.02785873 -0.73405874 5.44309998
-9.94710159 1.01562357 6.85035181
-11.62576199 0.72574025 6.57840633
-10.73354053 -1.05981088 5.87723207
-10.19967079 -0.32648650 5.91422606
-11.05950069 0.61551863 5.81529808
-11.69671631 -0.80577093 6.52326298
-11.23935890 -0.63864344 6.40296507
-11.32962227 -0.52118117 5.26733303
-10.75424099 -0.90663928 6.08991003
-10.55428219 0.51613504 5.52033520
-11.23141479 -0.57311326 5.19222736
-10.38755894 -0.65868461 6.58116674
-11.33083630 -0.32714653 6.27697611
-10.09397316 -0.07843567 6.08958769
-10.19346619 -0.55204171 6.33051872
-11.52471542 -0.74257636 5.44425535
-11.23551273 0.53192985 5.87533569
-10.93303299 0.75816929 5.89638424
-10.62136078 -0.61131984 6.24080801
-10.56652832 0.50503004 6.44433880
-10.46924877 -0.60337067 5.47804737
-10.19418621 0.26905295 6.43621159
-11.27470112 -0.33554652 5.74220896
-10.28787422 0.43411505 6.52197838
-11.33393097 0.37766337 6.15821362
-11.44378281 -0.68409967 5.44350433
-10.57849216 0.57167554 5.66480541
-11.37945271 0.73732883 6.68749046
-10.67974567 -0.48656887 6.33992290
-11.30896759 0.49614057 6.30764151
-10.59758568 0.94758874 5.97258282
-11.33385849 0.12317814 6.19689512
-10.35727215 -0.37701628 6.01459074
-11.23719215 0.39866498 6.06646967
-11.12195396 0.49314037 5.88674688
-10.93096352 -0.71663755 6.06727982
-11.24349689 0.62447554 6.43909311
-10.64360046 0.67821926 5.73278522
-9.59739685 -0.11174159 5.96075583
-11.66392803 -0.74307209 5.04372597
-11.45813084 -0.30996692 5.43288851
-11.27743053 -0.57431579 6.36510944
-11.31387234 0.62535316 6.70010090
-11.74358463 0.15296522 5.90506983
-10.44106865 0.51795059 6.54479694
-10.65006065 -0.03723387 5.15015984
-11.35857105 -0.34572327 5.61065865
-11.25815868 -0.00748197 6.31883621
-10.17341614 -0.66084123 5.53091431
-10.25406837 -0.73254383 5.48063087
-11.57857895 -0.59274065 6.71677160
-10.74429893 0.45645845 5.62648249
-11.42210388 -0.21402620 6.03965282
-10.76814651 0.29796037 6.62453938
-11.29696083 -0.65238464 5.26041508
-10.76841259 -0.27154347 6.37874889
-10.19828129 0.72286701 6.40072155
-9.93051815 0.89489406 6.68424177
-10.35383701 -0.68296355 5.26542377
-11.34591770 0.01409098 6.27166605
-10.54932404 0.31239218 5.35021400
-11.63993931 -0.76868659 5.04986286
-9.85676003 -0.94337124 6.89051485
-10.57987118 0.35024226 5.33160639
-11.40215969 -0.03728551 6.25661373
-11.36299515 0.71578705 6.75650263
-11.26869392 -0.66149980 5.35487652
-11.69392204 0.07071955 5.83291435
-10.75892925 0.70892215 5.73459625
-10.10657120 -0.21574183 6.16149521
-11.08752632 -0.07840655 6.56928301
-10.21335316 -0.15444404 6.34762192
-11.39685822 -0.56755716 6.42641878
-10.89008808 0.89918399 5.90826941
-9.89009380 0.96727377 5.02989149
-10.18331051 0.37043104 6.26351976
-11.45964813 0.31756330 5.76219320
-10.56151009 0.63255095 5.85591888
-11.16033173 0.47684100 6.05484390
-10.27145290 0.32143334 6.28598166
-11.46020985 0.68561643 5.17689228
-11.58624172 -0.95105731 5.18624306
-11.38284302 0.80801576 5.10402632
-10.84887123 0.38735124 5.40447903
-11.35827541 0.26905724 6.32348442
-10.65909863 0.09164721 6.99975967
-11.46347237 0.69677687 5.38351536
-10.68991375 -0.92308474 6.04595709
-10.89108944 0.84960490 5.92223644
-10.10207272 0.50159627 6.59497166
-11.36904049 0.45462519 5.68952560
-11.26235771 -0.23545489 5.39266872
-11.11869812 0.06554925 6.50228167
-10.18271160 -0.25883600 5.84485817
-11.10758781 0.50568897 5.74564934
-9.94835567 -0.20067327 6.19133902
-10.45040226 -0.55920482 6.53187180
-11.27799702 0.78125650 5.32633066
-9.96045685 0.09392740 5.75511503
-10.24031639 -0.61731398 6.34682465
-10.58674431 0.58734077 6.33328104
-10.57826805 -0.50218207 6.00441933
-9.98448181 -0.02344989 5.74155188
-11.67485237 -0.71645027 6.68364811
-10.07708168 -0.30356523 5.79041719
-11.10177994 -0.51500690 5.33879471
-11.32675552 -0.25035125 5.51611900
-11.59599018 0.74215662 6.73201942
-10.35662270 0.06933517 5.54908419
-10.20567799 -0.33739710 5.42118120
-10.95819283 -0.06253625 6.79640007
-11.62538624 -0.77074301 5.20473528
-10.21434975 0.13134861 5.83969688
-11.58394051 0.56304049 6.67847729
-10.23956394 0.42098087 6.17524767
-10.30163860 -0.19018304 5.62041616
-10.23086357 0.31401566 6.24269724
-11.41620445 -0.20610178 6.28276777
-11.62949753 0.92802924 5.07811069
-11.38769722 -0.29722908 5.94782829
-10.37862301 -0.16145578 5.53690958
-11.07776451 -0.61492175 6.05817699
-11.20926189 0.45686731 5.36188841
-11.35158253 0.44565699 5.77606821
-10.17763805 -0.24497952 6.20438766
-10.93419170 -0.47228074 5.52927113
-10.16018772 0.21800867 5.51449966
-10.78984165 -1.11373734 6.00152397
-11.26632786 -0.60259277 6.57754421
-10.82517147 0.95615911 5.83027554
-10.73540688 0.99108922 5.78005028
-9.84279633 -0.99508101 5.02199221
-10.17154026 0.47686309 6.61346531
-10.84373093 -0.39715484 5.46427631
-11.34817123 -0.25768140 6.46585178
-10.58330536 -0.69849795 5.83200693
-11.27375603 -0.54482311 6.30224037
-10.93713951 0.54715866 5.52894497
-11.07989693 0.22939798 6.50449705
-11.63145828 -0.69352472 6.59547138
-11.37918282 0.15093380 6.18990040
-11.07819557 -0.23490238 5.24419785
-10.24593544 0.38549986 5.63334036
-11.35985279 0.19329350 5.56560183
-10.07804298 0.59440178 6.41993284
-11.52475548 0.24541435 5.76124191
-9.99199581 0.74835241 6.61574841
-11.62737560 0.11067807 5.80043697
-10.33891964 -0.01574753 5.59504223
-10.41312504 0.33506954 6.54499245
-11.30682659 -0.15853404 6.47460175
-10.75062180 0.29179293 5.44026279
-11.47240734 0.49680194 5.51511097
-11.24038506 0.34411359 6.51834106
-9.80474567 -0.91129911 4.95177221
-10.82970810 -0.43664539 5.48215961
-10.48828316 -0.58578902 5.71183300
-10.08903027 -0.86293954 6.88712263
-11.35703087 -0.20051464 5.44979858
-11.35904884 -0.08913112 6.26846981
-10.77667141 1.08576775 6.02128506
-11.43030071 -0.19439313 5.64556360
-10.91766548 -0.89028913 6.09559011
-11.30816936 -0.34678575 5.62301397
-10.99220753 0.76654738 6.01280832
-10.43712139 0.51020753 6.61165476
-9.74473858 0.12852477 6.00169325
-10.22873592 0.07983996 5.61874342
-10.67536926 -0.46539685 6.47574234
-10.09014511 -0.14944528 5.87048197
-10.26898956 0.52889425 6.22569561
-10.41227150 -0.61080408 6.02152443
-10.67732716 -1.08015859 5.91528606
-10.65577602 -0.05462454 5.00355625
-9.96246243 0.67291111 6.69467831
-11.50230694 0.16250956 6.16883469
-10.69035435 -0.27043065 6.69661045
-10.66357994 -0.09522987 5.06019402
-10.17249393 -0.24134335 6.08314610
-11.63114262 0.02172521 6.10143375
-10.92729855 0.69163877 5.74878740
-11.12586594 -0.23033562 5.45408154
-10.08083344 -0.21937700 5.81680489
-11.68862247 0.14912049 6.03993940
-10.73803902 -0.36080888 6.45096922
-10.90185261 0.10862628 4.94019222
-10.09547710 0.58161241 5.12131834
-10.60538387 -0.28061566 6.46819687
-10.48549366 -0.55157357 6.37452507
-10.15392780 0.50386435 5.30113459
-10.20067883 0.37284490 5.57615376
-11.41157150 -0.05505709 6.20190716
-10.78123665 0.77015698 5.98924732
-11.54454422 -0.39294732 5.44484520
-11.56764126 -0.60916752 5.28899908
-10.14530468 0.21700640 5.67191696
-10.74223995 -0.64918625 6.23749638
-9.85745525 0.71474802 5.18979406
-10.12498951 -0.52488577 6.37656164
-10.27897167 0.27453834 6.46052742
-10.61099434 -0.34711772 6.51389265
-11.44846535 0.81722945 6.51562786
-10.17678070 -0.03111101 5.66816092
-9.87095070 0.92841262 6.86655045
-10.85672474 0.68978053 6.11728716
-10.13467407 0.55323404 5.41181231
-11.32249546 0.48580894 5.51746035
-9.89663601 -0.11613431 6.15893936
-11.40096664 -0.57806128 5.57542992
-10.63573170 0.85969424 5.89446926
-9.96687984 0.66403782 6.53953266
-10.19795704 -0.26601508 5.37589598
-11.78797436 -0.97457081 5.02824879
-11.77418613 0.04639980 5.73440218
-10.53258991 -0.26477152 5.22560692
-10.83449364 -0.76369274 5.80959845
-9.90152264 0.87446791 6.76719093
-9.73967457 0.00976453 5.89322996
-10.14389610 0.26690626 6.18281412
-10.81768894 -0.78112745 6.14607477
-11.55205917 -0.01338307 6.14930964
-10.10471439 0.71214664 6.78150797
-10.83270264 0.95785999 5.97817898
-11.34552193 -0.33159059 5.47980928
-10.25158501 0.21539430 6.47929907
-9.81517029 0.86874664 5.07713270
-10.10780716 -0.04256911 5.75418329
-10.07725620 -0.59828097 6.34471893
-10.63590813 -1.02131712 5.88768244
-10.90258121 -0.42035672 5.39772415
-9.97799587 -0.22390279 5.90668011
-11.38730240 0.43054500 5.69048595
-10.59255219 -0.58884597 6.03352451
-11.40327644 -0.74568462 6.71209097
-11.13982964 -0.49140486 5.59478378
-10.73794651 0.64150345 5.60443544
-10.58393955 0.26037133 5.26350307
-11.35097027 0.59896952 6.23579264
-11.64062691 0.95572162 6.71479750
-10.26883793 0.72244883 5.27311373
-10.74196911 -0.32134011 6.45020819
-11.16050625 -0.06938885 6.46635008
-9.83338165 -0.82319349 6.80886221
-10.95641804 -0.39852861 5.49431324
-11.42985058 -0.19263658 6.04759359
-10.92972946 0.09854237 6.94932461
-10.68828487 0.86689967 5.70993185
-10.84394169 1.05384278 5.86173773
-9.88546848 0.86747617 5.15291691
-11.67074871 0.17122057 6.21494341
-9.74891186 1.02854049 6.76205683
-11.12302113 -0.63002121 6.31637144
-10.19738579 -0.74151593 5.35532665
-11.08293533 0.71651936 5.93609381
-10.23282146 -0.72995740 5.30185318
-10.66655731 -0.15689148 6.51433563
-10.86611176 -0.45605269 6.51599884
-11.61393166 -0.90226734 5.06581926
-9.94126320 -0.86353439 6.82541037
-10.40080357 -0.58104581 6.16927624
-11.33134460 0.43644542 5.67172575
-11.17496777 -0.59877187 5.36608982
-10.54519367 -0.62774891 6.46524048
-11.27491665 -0.33895418 5.70878220
-11.24478722 0.67771322 5.16290474
-10.61962795 -0.97825593 6.16189528
-10.25619507 0.46433088 6.26698065
-11.03196239 0.62550408 5.88975954
-9.70756245 -0.12159863 5.93824577
-10.85109329 0.12414595 4.90794134
-11.28063965 0.30166054 5.87184668
-10.28170300 0.52175885 6.22857332
-11.45010376 0.36540535 5.57120180
-10.80686474 0.54884803 6.16093779
-10.67707729 -0.17901416 5.28144646
-10.67407703 -1.03657269 5.94633245
-10.65101147 -0.43049827 6.35342455
-10.14929390 -0.77538514 6.66233730
-10.67706966 0.61550266 5.56975079
-10.70883656 -0.10080066 5.04499245
-10.73791409 0.95768857 5.83667374
-10.75131035 -0.52340448 5.43244743
-10.56323147 0.52493405 6.51383495
-10.75582695 -0.12132324 6.75755739
-11.21349907 -0.41828224 5.39833069
-10.44790745 -0.55170125 5.42127132
-11.05896854 0.19384399 6.54605150
-10.26584911 0.66135955 6.25036049
-11.68537712 0.72501373 5.27578449
-11.60279846 0.16125704 5.89777279
-10.90499592 -0.83951592 5.98811197
-10.27730656 0.81488431 5.25834703
-10.82264709 0.39582205 5.39069605
-10.58051014 -0.66265440 5.95595264
-10.31780148 -0.49242264 6.52026892
-10.84862423 -0.58620071 5.62186050
-10.62256432 -0.07424057 6.71211052
-10.09489632 0.75874346 6.70256662
-11.76651192 -0.02258278 6.01507616
-11.21556950 -0.12977228 5.42277145
-10.86664009 0.37563872 6.49661303
-9.83136463 0.98268497 6.66702747
-10.85768986 -0.81493729 6.10768795
-10.61477184 -0.55120760 6.39197350
-10.08716011 -0.13883348 6.11815977
-11.26087856 -0.49300840 5.91602612
-10.21488953 -0.51273769 5.57786560
-10.44555569 0.62433785 5.42244339
-10.95670700 -0.62165356 6.09490633
-10.20228291 0.32758018 6.15957928
-11.66420078 -0.67876464 5.06619406
-10.15131474 0.43892017 6.26152945
-11.17912483 -0.61827093 5.61084270
-10.47743797 0.46229118 5.42812157
-10.05416965 -0.03200859 6.12751818
-10.15142059 0.55845523 6.64314508
-10.12322998 -0.85776216 5.20351171
-10.67030716 0.77102762 5.76712894
-11.36525631 0.09924221 6.28228378
-10.24053192 -0.22334614 5.63392639
-9.84540558 0.01502443 5.79960823
-11.34769344 0.02652294 5.68439054
-11.66149330 -0.86708868 5.07011414
-10.98976707 0.73484504 5.69215631
-11.04644489 -0.09580704 6.56878376
-10.96157360 0.77709746 6.01934004
-9.77284431 -0.10184866 6.01593256
-11.46163464 -0.58544809 6.46384668
-10.81619930 -1.09988582 6.06315041
-10.75123596 0.62735015 5.69127655
-10.81254578 0.07953385 4.94177055
-11.52665901 0.52583420 6.65045977
-9.85922146 0.75582749 6.68347883
-11.01993942 -0.37127993 5.46133518
-11.32127094 -0.58539146 5.17025089
-9.83619213 0.84821057 5.09907866
-11.22045231 -0.60131937 6.36964130
-11.48325539 0.15108606 5.90029716
-10.85611153 0.30547744 5.14745426
-9.98545647 0.58807009 6.58173656
-11.73232174 -0.07214351 5.78983402
-9.88443279 0.94494176 6.92483044
-10.45211220 0.65817958 5.59926605
-11.22334099 -0.19903293 5.44408178
-10.94670391 1.17731524 6.00952291
-11.45958996 -0.71279991 5.47079563
-10.85835552 1.05511367 5.95971537
-10.71769524 0.82567149 5.69412899
-10.47032356 0.43994069 5.36917925
-11.70484734 -0.17008738 5.91181803
-11.32877350 -0.18264003 5.58466148
-10.34008884 0.69641817 5.33578682
-11.44454479 0.15544005 6.00677443
-10.34695339 0.25065047 6.55736780
-11.11468220 0.54073650 5.98428154
-10.76259041 0.12312782 5.17581177
-10.82281780 -0.01568520 4.79367542
-11.01074791 -0.02326797 6.66958427
-10.99724579 0.10583684 6.83818197
-11.39195538 -0.38065642 5.26889992
-10.41695309 -0.27023447 5.33082342
-11.64051342 -0.96489006 6.84813213
-10.79905510 0.12700565 5.11858463
-11.40156841 -0.52408910 6.29795694
-9.86338520 -0.02954208 5.86059237
-11.17657471 -0.45851752 6.37454796
-10.93603897 -0.46951243 5.61522722
-10.48018360 -0.55569243 6.17787552
-10.30191612 -0.62398994 5.24440336
-10.24056625 -0.65785551 5.24166012
-10.34154224 0.17045721 5.62491083
-11.30574703 0.36570358 5.87231350
-10.51085377 -0.00075683 5.23561573
-10.63596058 -0.20482904 5.17414188
-10.27687073 -0.24582003 5.40977430
-11.23803997 0.69722641 5.41174030
-11.81296062 0.14433613 6.01884222
-11.70065498 0.09191576 5.76644611
-10.59723854 0.61801827 5.59515381
-11.49418831 -0.81563020 6.82824516
-10.06806564 0.60911232 5.14289951
-11.89596939 -1.01220822 5.06599140
-10.14949417 0.59339249 5.38158798
-10.95575905 -0.58851010 5.57654238
-10.11617851 0.19753596 5.73546600
-10.63386345 -0.53148514 6.45759535
-10.50033760 0.55962563 6.29629135
-10.18300056 -0.17686446 5.69927835
-10.67539978 -0.03862324 4.95536041
-11.24921703 -0.36428887 5.40617323
-10.73065662 -1.19415891 6.06352949
-10.24811363 0.22429878 5.56943417
-10.36917019 0.54781502 6.59855890
-11.72676563 -0.79501289 5.07645178
-10.60811424 -0.05192420 5.14986801
-10.52503681 -0.17000613 5.29583216
-10.19166374 0.59456700 5.16633511
-10.61303425 -0.92306536 5.69990206
-10.96013069 0.64771563 5.76043224
-10.47150803 0.55062634 6.64349937
-10.78181267 -0.15134692 6.75896215
-10.77746010 -0.35510245 6.45890808
-11.37619019 -0.46139011 5.61479902
-10.30483723 0.35189673 5.40554523
-11.37172031 0.32943842 6.25287533
-10.58481789 0.57975894 6.30219078
-10.52568722 0.79379523 5.95124054
-10.83119678 0.00337294 4.77387619
-10.21984673 0.74151987 6.59159184
-11.41056633 -0.88820952 6.45144987
-11.76031113 0.99165016 5.14047098
-10.24370670 -0.34942439 5.59890652
-9.94719791 0.80658621 5.06994438
-11.45607281 0.77471262 5.38966656
-10.80386734 -0.75961763 6.10073662
-10.54803658 0.70145100 5.85847235
-11.59285164 -0.91306812 4.99921846
-10.19776154 -0.43307304 6.18826914
-10.29519749 0.16402227 5.64272261
-9.88947105 -0.79206747 6.86124706
-11.58316708 0.73462462 6.54219818
-11.36007595 0.18598539 6.28372812
-10.11400223 0.48480311 6.56656218
-10.70343590 -0.18458159 6.60722256
-9.96977615 0.83054876 6.77518177
-10.13246059 -0.67876267 5.43838882
-10.29746628 0.83451843 6.74310398
-11.66942978 -0.75651181 5.14021349
-10.12335205 -0.62730235 5.17009640
-11.61353588 0.64477432 6.61568213
-10.85612869 0.27619058 5.33813286
-11.32995796 -0.43774292 5.46511889
-10.35880566 0.45220411 5.90512943
-10.91013336 0.31302783 6.51439428
-9.87775230 -0.65492213 5.00201416
-10.16006565 -0.35794789 5.90883160
-10.95762062 0.13791089 5.18848944
-10.82042027 -1.02666092 5.97256041
-10.98034000 0.09370244 6.68154287
-11.46373177 0.27572772 5.90799761
-10.89971638 -0.67339981 6.23578787
-11.40236187 -0.70443338 6.43269968
-10.70689583 -0.77039152 6.12528896
-11.29662418 -0.32482028 5.28300333
-10.72822475 0.83442807 5.80278349
-11.00919056 -0.31979507 5.35114908
-10.74871731 -0.87717539 6.08160782
-10.76663208 -0.27944046 6.46018648
-11.21966743 -0.24563646 5.42518806
-10.74080753 -0.41286492 6.44186449
-10.71755791 -0.08725964 6.90945244
-11.60882473 0.69505894 5.13115072
-10.13759136 0.40945643 6.40208912
-10.58561516 0.18835333 6.63816452
-9.92763519 -0.87594360 5.11126518
-11.41340351 0.44892421 5.57555008
-11.31024837 0.16406997 5.64082670
-11.48244762 0.06151067 6.15416002
-10.68227386 0.05442452 4.89584017
-11.48310757 -0.77028453 5.11300707
-11.47739792 0.46091518 5.31590462
-11.60154343 0.72035688 6.72152519
-10.70911694 0.05254620 5.17972279
-11.46050262 -0.46918580 5.52299452
-10.37032127 0.71593565 5.59048510
-10.90425777 -0.16552047 6.71427536
-10.40446758 -0.57250732 6.47463942
-11.21252537 0.46710899 5.78274202
-10.22421741 -0.61244172 5.48279619
-10.72394943 -0.81304324 6.00283337
-10.93696785 -0.32622617 5.40178204
-11.57688046 -0.47920844 5.31878710
-11.32419014 0.72377455 5.51381063
-10.17585087 0.41635293 6.60581350
-11.52544403 -0.09481353 6.20647764
-11.13255215 0.55977756 6.14353657
-10.66278362 -0.95610648 5.89190388
-11.05739689 -0.64252603 6.06666946
-10.60083866 0.57327408 6.39158583
-11.39640808 -0.41634217 5.60699511
-10.28333950 -0.35319155 5.43947935
-11.62819672 -0.55302083 5.30502462
-10.59055710 -0.50306410 6.20666409
-11.37883377 -0.56474620 5.29972553
-11.67261887 0.92639929 5.00185919
-11.32824802 -0.34622034 5.77098083
-10.13580894 0.15710899 5.65577316
-11.46532249 -0.53612232 6.61215401
-10.92295456 0.16895600 6.73013020
-11.70590401 0.97631508 5.05185652
-10.37260532 -0.04227456 5.46174526
-9.96346092 0.68595326 6.53079319
-11.78100491 0.19986294 5.99072504
-10.19804955 -0.28207588 6.39703894
-11.02098560 -0.69646823 6.15550375
-11.69797325 0.89156526 5.08998632
-10.98692894 0.57905155 5.36886120
-10.27732658 0.04050097 5.62715149
-10.79278755 0.64397895 5.52385998
-11.17717361 -0.17178594 6.46009064
-10.05966091 0.51517332 5.26453590
-11.40517330 0.55992174 5.23904514
-10.15764332 0.74175400 6.39574146
-11.44570827 -0.46412921 5.30331564
-10.93121338 0.32010454 6.58515596
-11.23079491 0.55946529 5.74534607
-11.32062817 0.60068375 6.25212669
-10.97384548 -0.17831150 6.70516491
-10.61250877 0.47056213 6.42495489
-10.42582417 -0.16934872 5.44783497
-11.65680790 0.27645707 5.83341026
-10.99007797 -0.70858747 6.14458036
-10.16396236 -0.22020118 5.90055323
-10.59624386 -0.61438048 5.95841646
-10.66185284 -0.01358247 5.21900177
-11.19954777 0.34602532 5.86928082
-10.16965199 0.74860877 6.65937805
-11.01848030 0.16419154 6.56293201
-10.26481533 -0.05987546 5.73035860
-10.64205074 -0.79166043 5.87832594
-10.25554562 -0.37615928 5.87268496
-10.45622349 -0.39000088 6.57135820
-11.25854301 0.02276292 6.28151321
-10.00077629 -0.81384659 5.13929510
-10.88911057 0.01516948 6.78247452
-11.32217884 -0.10544749 6.43269539
-10.16678715 0.48278132 6.26140404
-11.32984924 0.21863273 6.12802076
-11.49778080 -0.40773979 6.40674782
-11.68263149 -0.95418268 6.82613754
-10.27841568 -0.04645544 6.34349918
-10.10522842 -0.80729073 6.81043005
-10.60213375 0.31465006 6.50886631
-10.21866989 -0.74992412 5.45639753
-11.28537273 0.52224487 6.20903969
-10.93609524 -0.56873316 6.32558537
-10.75870800 0.62971330 5.70104361
-10.90334797 -0.65613967 6.08999014
-10.89021873 -0.73593366 6.06760883
-11.46178246 -0.64888871 5.11004591
-10.06596947 -0.25476617 6.02371597
-10.81750870 -0.35896862 6.43655872
-10.37094975 0.60240734 6.41395092
-11.31940269 -0.76993531 6.50612068
-11.29299545 -0.14796799 6.42127085
-11.09389019 -0.09740278 6.47281456
-11.66066360 0.21242803 5.95894861
-11.60358906 0.05473960 5.80308247
-10.22134495 0.32931432 5.89308357
-10.05935574 -0.14647993 6.06347275
-10.57226467 -0.87277311 5.71763182
-10.82410717 0.57263541 5.69803476
-10.30708885 0.64326257 6.64185810
-10.42814732 -0.46223941 5.98760557
-11.58056831 -0.75450736 6.78578424
-10.90898418 0.83875930 5.81429911
-10.02188587 0.60183734 5.20305777
-10.10147381 -0.07771405 6.20269585
-10.00640488 0.61388451 6.45504332
-11.40248299 -0.67977959 5.43128014
-11.67706299 -0.86705285 5.17373753
-9.73974514 0.14977290 5.79324150
-11.44667339 -0.73938870 5.29103470
-11.28342247 0.68647760 5.55681467
-11.41501999 0.57998812 5.47170067
-11.13147068 -0.10055104 6.38856745
-10.61356068 -0.09468681 6.60546398
-11.42416573 -0.27390611 6.34286833
-10.56518459 -0.61299652 5.83293486
-10.24396992 0.14976898 6.38072348
-11.29422092 -0.15868452 6.40727520
-10.10568905 0.26715407 6.35841513
-11.37551594 0.35384768 6.57486153
-10.61412716 -0.58549619 6.36495495
-10.84160042 0.91048783 5.84124947
-10.25470448 0.19491911 5.47283173
-10.01401234 0.60356885 5.34732294
-10.94347477 -0.03456325 6.97593975
-10.32384872 0.65595895 5.32590055
-10.19912624 0.68230742 5.26514912
-10.17015553 -0.25970340 5.76052761
-10.51239300 -0.16693822 6.44486713
-10.91588306 0.69510132 5.71842861
-10.92363167 1.02460444 5.85247326
-11.40645313 -0.49196333 6.63305092
-10.78781223 0.25920951 5.23864746
-11.74089241 0.90173650 5.10752439
-10.13138580 -0.76571071 6.71774673
-10.45676327 0.61478853 5.62348080
-11.33627605 -0.08505023 6.26794958
-10.54811859 -0.41817871 6.46386480
-11.64736366 0.92002743 6.80143166
-10.29948330 -0.71816570 5.52740383
-11.44845295 -0.55643862 5.39985609
-11.38951397 0.80346692 6.54400539
-11.66610050 -0.71087867 6.55698156
-10.88927650 -0.41254294 6.50665188
-10.21994972 -0.37855154 5.99098396
-11.41619778 0.48361272 5.53719234
-10.96757698 0.81141967 5.92747498
-10.66712856 -0.10694925 4.81655264
-10.39952374 -0.53213066 6.02453184
-11.67896080 -0.05358025 5.86954927
-11.00591087 -0.01581562 6.61653519
-10.76276398 0.83694255 6.09363174
-11.27958584 -0.54669309 5.26035118
-10.88127708 -0.55286378 6.22181463
-10.09930897 -0.17149185 5.81954718
-10.20777225 0.32113057 5.95282555
-11.41111660 -0.51289487 5.60530663
-10.56682682 0.40688768 5.34477091
-11.19549847 0.27850983 6.49006128
-10.25245953 0.55075389 6.63993597
-10.28927994 0.66526961 5.38307667
-11.45946693 0.45812836 6.62625694
-11.82367134 0.03425686 5.82441521
-10.56741428 0.61638033 5.60723543
-10.18553352 -0.19510941 5.76097441
-9.98223400 0.89043128 6.63943815
-9.89770412 -0.83654779 5.08879805
-10.83858776 1.01232493 5.99371767
-10.86621952 0.15433225 6.83368444
-10.94037342 0.25633895 5.24354744
-11.38820457 -0.34170333 5.34025764
-10.78127670 0.27787939 5.30493975
-10.69333649 0.82423353 6.21074533
-9.98176098 -0.84476388 5.39006948
-10.81627083 -0.48935935 6.23827362
-10.13586998 -0.04689210 5.96454144
-10.39421749 -0.03383253 5.61562634
-10.69663715 -0.72573161 5.77733088
-10.34588718 -0.65356582 6.56833982
-11.56263828 0.09610266 5.95412493
-9.90187359 0.77927077 6.66901970
-11.34099102 0.40543333 5.21853113
-10.64898396 0.63942486 5.65397167
-10.12701797 0.52601874 6.48555088
-10.50266743 -0.38288605 6.55441952
-10.38467216 -0.54386795 5.84479761
-11.63136768 0.05449127 6.15491724
-10.77550220 -0.64928079 6.14029789
-10.67084885 0.22761850 5.26577139
-11.48350334 0.54322904 5.36056805
-10.76700878 0.86538434 6.04310369
-10.70059967 0.48427504 5.38755131
-10.16368198 -0.67379838 6.61606503
-9.74838257 0.00780543 6.13623857
-10.22828579 -0.48340499 6.33829689
-11.42315769 -0.81790435 6.72491503
-11.60430431 0.85189241 6.77748156
-10.61380005 -0.57364058 5.79745340
-10.76564312 0.77617681 5.73103809
-11.58261490 -0.71226400 5.33571672
-10.00044823 -0.54257667 6.46727943
-10.88549232 1.01697767 5.91191912
-11.12157822 0.55443060 6.20965862
-10.67599773 -1.02727711 5.89012623
-11.42627430 -0.72147769 5.10164404
-11.74421597 -0.79050648 6.69319487
-10.44473743 -0.41486987 6.61336803
-11.65736008 -0.03669799 5.78061867
-11.06626320 -0.17461227 6.55987167
-10.76420689 0.12983127 4.89908504
-10.03683567 -0.75984710 6.60435724
-11.52708912 -0.60773522 5.19136095
-10.05436707 -0.69841963 6.41737556
-10.45935535 0.04628434 6.45919991
-10.50858879 -0.44244492 6.50897360
-11.32428455 0.13099657 6.23556662
-11.23243046 -0.66892081 5.44412088
-10.65098095 -0.30400395 6.47399187
-10.21027279 0.38918024 6.32058668
-10.65036583 -0.53362173 6.44287300
-10.74710464 -0.08519839 6.92454195
-10.74006939 -0.17718169 5.02614212
-10.73584175 -0.22783467 6.55399609
-10.38232517 0.59310049 6.55928087
-10.15337181 0.74479365 6.84435558
-11.42531204 0.45006755 6.54738379
-10.71767521 -0.18489236 6.65808201
-10.69845104 -0.90974832 5.96705866
-11.30523014 -0.71579969 6.31819296
-9.84156609 -0.09567494 5.96211195
-10.96519756 0.56225711 6.05930614
-10.76283741 1.06374300 5.91342115
-11.10302925 0.48727000 5.89523029
-10.20169544 -0.72456717 6.66510582
-10.22869587 0.59868431 6.75585270
-11.31795979 -0.50972641 5.57600546
-11.29625511 -0.49377581 5.76473570
-10.17492771 -0.59759247 6.28836489
-10.25724983 -0.41312093 5.95236540
-10.57710075 0.36937457 5.49447393
-10.66058826 0.59127861 5.60217381
-11.44408226 0.30488679 5.78803682
-10.13890839 -0.22714525 5.99143839
-10.87358284 0.26411214 6.64753246
-11.10894108 -0.58887714 5.65346909
-10.85340118 0.52546269 5.70599461
-11.65162468 -0.06029380 6.05254793
-10.19648075 0.52868450 5.42955256
-11.78053570 0.88402295 6.95031118
-11.56097507 -0.86006063 5.05985212
-9.99773216 0.75333810 6.68798494
-11.37858295 -0.77888715 6.61759615
-10.79061127 0.01356824 7.08938503
-11.25065708 0.50197768 6.61311150
-11.67024899 0.83268636 6.81174088
-11.56557083 -0.81283659 5.12529707
-10.78801918 -0.11036342 6.86514139
-10.50671482 -0.05556221 5.33407640
-11.57367134 -0.47882035 6.56684208
-10.14447021 -0.69713604 6.52793741
-9.97621059 -0.11512743 6.20916557
-10.03198147 0.82989049 6.71794415
-10.73025990 -0.31228712 5.13180971
-11.40477467 -0.48599628 6.33654118
-10.10963345 -0.26146764 5.45175838
-11.03654671 0.48116887 5.38428593
-10.32696724 0.67342412 5.42215157
-9.86586761 0.92199469 5.10360146
-10.96252441 -0.42427132 5.38113117
-10.89033318 -0.76506597 5.67397213
-10.93233490 1.05065715 6.06914139
-11.42483139 0.17790450 5.59568310
-11.28925610 0.23561245 6.34569979
-11.35100174 -0.71119863 5.15059137
-10.78106785 -0.28507841 6.57720947
-9.79893112 -0.83693737 6.78026199
-10.68821144 -0.21497202 6.58123446
-9.96369934 0.67128396 6.67655802
-10.17533112 0.23563382 5.67605686
-11.47884655 -0.84722799 5.18755436
-10.86425972 0.88445282 5.94386292
-10.24374199 0.70928532 5.22700500
-10.96736145 0.60221505 5.50717211
-10.28395939 -0.58275789 6.54352045
-10.19969082 0.45997956 6.15908670
-11.62478161 1.03332412 6.70342684
-10.23500538 -0.51935506 6.28352356
-10.21810722 0.36871713 6.55368042
-11.71800327 -0.84297770 6.73131037
-9.87809467 -0.84955877 6.77777863
-9.91872692 0.93452489 6.85971975
-10.90623093 0.76700771 6.14068508
-10.32760048 0.75458956 6.62410927
-10.79297733 -0.51093155 6.33264446
-10.16581440 -0.33790451 6.09159422
-10.29673958 -0.15196989 5.44765949
-10.77879810 0.48745024 5.49035549
-10.31628513 -0.69501787 5.45818424
-11.21605968 -0.59672546 6.11754131
-11.19227600 -0.61005402 5.29228735
-11.19336987 0.44321901 6.56106949
-10.97108555 0.73435140 6.10792398
-11.45381737 -0.20831101 6.14469576
-10.77047729 -1.02007937 6.06774712
-11.07067871 0.08519796 6.54471540
-11.03352833 -0.67328548 5.57368517
-11.33080196 -0.51464254 6.40971756
-10.91804409 -0.53009725 5.59579134
-11.33740044 0.26010868 6.07714987
-10.96211910 0.68026644 5.71383762
-10.27360249 0.00867874 5.50697327
-10.93038559 -0.15274371 6.76716232
-10.44921780 -0.21601959 5.34547520
-10.11496258 -0.50470495 6.47463608
-11.54670811 0.67660767 6.70121431
-11.24100494 0.00713269 6.33984518
-10.43819141 -0.43199736 5.87194157
-10.87036324 -0.88957888 5.99970961
-11.20683384 0.69680834 6.34610891
-10.61910725 -0.73388129 6.02629805
-10.35253906 0.66146314 5.38979149
-10.34064293 0.27333859 6.50704861
-10.70926094 0.14952147 5.09062529
-9.83935928 0.93428701 6.92329216
-11.06843948 -0.21110597 6.52672243
-10.36656857 0.21622722 5.33855391
-10.46973610 -0.44550902 6.04407406
-10.18415833 0.59176034 6.33649683
-11.10905266 0.57160980 6.14762640
-10.84651661 0.93545038 6.08321190
-10.35310364 -0.44128850 6.10519123
-11.48055649 0.24627328 5.90554953
-11.54456997 -0.94655049 6.65505457
-10.10825920 0.50224185 5.21203279
-10.39235783 -0.57167089 5.91015577
-11.42287636 -0.43032432 5.44048643
-11.05937099 -0.84720463 5.99649620
-11.55872440 0.91771489 5.14232731
-10.10179043 -0.64857203 6.46068859
-10.23930454 0.29695553 6.41952515
-10.55631828 -0.19907449 5.31835175
-10.73857212 -0.28119975 6.51822662
-10.97779083 -0.80095637 5.65918064
-10.53617668 -0.11133144 6.68435144
-10.89710522 0.55385667 5.66432524
-11.39030647 -0.75621402 5.31755924
-10.93829441 -0.28729182 6.73512793
-10.98491478 0.88288635 5.91919947
-11.48541546 0.86246502 5.07411337
-10.87158871 -0.40014938 5.37427616
-11.17926884 -0.63500857 5.33262444
-10.71395493 0.35028511 5.46370554
-10.06316376 -0.79115832 6.59013271
-10.93830013 -0.04420087 5.12174082
-10.69891739 -0.09363102 5.01419163
-10.11161327 0.50273681 5.37710381
-11.38092804 -0.24842355 5.56317616
