-2.05666637 3.62090826 -8.71626663
0.72706199 2.73182797 -8.93639946
-0.94987434 -5.08027077 -12.62985229
-3.06586838 2.63420892 -12.61808681
0.88056779 3.92343402 -11.04453945
-3.96192360 -0.35943112 -16.94239235
1.84327972 -1.36365831 -9.98723412
-3.48166347 -4.01905060 -10.43080997
2.66021943 -2.37523937 -9.16208267
-1.55098450 1.68501353 -9.96135521
-2.30346441 -1.08632541 -16.03229523
-3.35898924 4.19461870 -15.24452972
-2.57912230 2.06432080 -13.18729782
-1.73270595 0.89678568 -15.59922409
1.96412265 -1.89046204 -13.05125809
3.94988179 -2.81696987 -9.26324368
-1.11088979 2.23159671 -16.31965637
-3.26396394 1.42754471 -14.99674892
-1.80445492 -3.86282277 -11.11527634
3.22102022 3.90260434 -16.40569878
-1.99004090 -0.69746095 -14.51654243
4.06571865 1.86710930 -10.30129814
-0.92283434 -3.94517326 -16.33304405
-3.91992092 -2.52457690 -12.20879364
0.82253408 -4.27268600 -11.50811672
-4.24591684 -2.08441114 -15.32161331
3.20477581 -0.64157766 -15.42275047
0.04282746 0.36520350 -10.19504642
-2.61109853 3.99113870 -15.16577721
1.29490829 -4.31751680 -12.16533947
-4.29391241 2.55554771 -10.97656822
1.62718940 0.59269285 -14.08903790
-3.31812096 -3.80936098 -16.54712868
2.83761168 -0.52260292 -9.07003593
3.81122375 0.98953730 -10.49479675
-2.15533876 -1.83368254 -14.27188969
3.02942276 2.56346846 -13.14236546
3.67327929 1.17789841 -10.42022228
-2.32707405 0.97415602 -14.82701683
3.05655503 -3.86694074 -16.97848320
-0.80246776 3.90806079 -9.98083019
3.99031305 -2.42926097 -11.48776627
-1.57966733 -1.39434814 -13.84363651
3.41941977 2.73834658 -11.73742676
1.55479157 -4.47169685 -12.43081284
0.25526801 -3.84600854 -15.48719883
-1.06531799 -5.01673174 -12.35718536
2.49940920 -3.96553612 -14.81593704
1.17596853 4.69471979 -13.57820702
0.10027641 3.93825984 -14.70393944
-2.25984001 0.98310316 -14.46378040
1.79643428 0.88014770 -13.93143749
3.88756013 3.42282724 -16.98345184
-0.02002308 -4.15893698 -8.93147373
-2.58341455 -2.21883535 -13.20412445
3.94221497 -2.73156238 -10.78606987
2.36333346 4.19377661 -9.04344940
1.32989705 -0.27484468 -10.24427891
-1.74366438 3.96800518 -16.82025719
-3.18170214 0.91002065 -15.36361027
3.75193024 3.34891629 -14.49251842
-3.98604751 -0.34409282 -15.45708275
-1.77215755 2.66944909 -16.92713737
-1.38701510 -4.07509422 -14.84490013
2.90682054 -4.06415749 -13.03488255
0.34933481 -1.57444715 -15.70326710
-2.84266734 -1.43494856 -11.21730614
4.16798258 -3.78212881 -15.07842445
4.21412373 2.91680980 -14.33313560
4.00124550 -3.72617507 -10.63385391
1.29276800 -3.91994619 -16.40715981
3.52926493 -3.90473700 -9.40759277
-4.09176636 2.19488692 -10.58957195
1.06855202 2.53296471 -8.97573471
-0.72686428 -2.20051742 -15.92256546
-2.10981941 -0.66799968 -15.06698036
-0.94989234 4.76403713 -11.84506512
-1.18636739 -2.07087302 -16.22898483
3.39342284 4.11809731 -11.70456314
2.45539737 3.95111465 -17.11701584
-0.72811854 2.35169983 -9.61224556
3.23077440 -2.74544334 -16.96264267
-0.27406573 2.50087261 -9.43975353
-2.77464461 -1.48731232 -9.07693863
-1.59304559 1.60641980 -10.14017105
-3.81981874 2.45826292 -16.10992813
2.46758676 -4.15107346 -11.56490135
-1.83308589 -1.77226734 -12.05620766
-3.97606635 -0.82041407 -9.29792213
-1.68775570 4.23530960 -13.39208412
-2.16958380 -2.17275429 -12.57685661
2.69861126 -0.72071540 -15.02570915
-3.83892751 -3.27019930 -8.86087513
2.42184591 -0.18377683 -10.09419155
3.96262574 1.97611010 -10.18820572
-1.76998365 0.80620438 -10.23005676
1.51253211 3.31308413 -8.80567360
-4.00641870 3.81303883 -10.26041412
-1.48440027 -1.67928576 -15.57282352
-0.43130401 4.19789219 -11.51032829
4.06085443 2.74508953 -14.10232830
2.81937122 -0.04436408 -9.64063358
2.36776042 2.27935791 -13.79878044
1.71466184 -0.66197103 -12.17627907
1.24101388 2.07238650 -9.72183990
-3.66488838 -1.22172260 -8.51736259
2.94333363 0.46608868 -15.25975895
-3.93133569 0.97935015 -15.50992870
-3.82835102 3.15877485 -16.76648140
2.25490236 -3.85760260 -15.66543579
-3.84284139 3.99465442 -11.95965958
-3.77590322 -3.21785307 -9.48919106
-2.49504948 1.83233035 -13.95620823
-0.38379413 3.99640751 -14.59005260
-1.94818783 -0.00984581 -14.71394157
-2.91126156 -1.52039683 -16.95104790
-1.21343684 3.84702587 -14.73841572
-0.54518932 -3.54762197 -16.75581551
2.81745267 1.98338759 -14.08554077
-3.09585309 -1.91068959 -11.30397224
2.74056530 -4.22292900 -16.00864220
-2.48270440 1.41346562 -14.53098965
-2.37321281 2.02232313 -16.93215561
2.13363719 1.43614197 -9.14467621
0.72738284 -4.14732313 -15.07367516
-0.25902614 4.77735806 -11.42901421
-0.39587384 4.52111578 -14.24484730
-3.93101764 -0.83283770 -15.89776707
1.52069426 -4.71669579 -12.19665432
3.38950467 2.42482591 -8.92975044
3.18577003 -4.04283285 -16.66823578
0.66171843 -1.69612050 -15.68554306
3.59011030 -2.13959360 -11.34411144
3.34139085 -1.33209169 -10.85712051
0.01378066 -5.39116383 -14.02147293
-3.95914674 3.35406494 -10.45891476
-3.91740131 -1.21704376 -15.82919693
3.02458692 -4.01978779 -9.59795761
2.14858389 4.13061047 -14.40767860
-0.91043383 -3.15840745 -16.98221016
4.09421968 -0.00065293 -15.88816643
1.72193444 -4.32416582 -15.68428802
3.95488572 2.12943530 -10.23271465
0.90217018 -0.16500293 -15.42296982
2.07229567 -0.83208680 -11.23789120
3.85347843 0.22211885 -15.90243340
-3.80942774 -3.83033824 -16.28532791
0.16374998 1.21746063 -15.36041451
4.22415257 0.90925717 -16.82176399
2.78945231 -2.70765924 -17.01942825
-3.62666297 -2.09878707 -14.81416988
-3.64263058 3.86713457 -11.56620884
2.07530928 -1.22066700 -9.98885822
-3.36627531 -1.01307678 -16.85533142
4.04367781 3.01709962 -16.35589218
4.07955742 0.47840667 -16.54720688
2.20371675 1.61107767 -11.78108692
3.54771590 -3.27186561 -8.92701244
-0.51763636 3.96182656 -15.59490013
-1.82026219 3.09826016 -16.83087540
-2.72223926 4.00810957 -11.32012177
-1.43638742 0.81238818 -12.16160393
0.05656312 -3.07638550 -16.77196121
0.56663322 3.28644896 -8.65671539
1.68003190 3.12840247 -9.01205444
2.55072808 1.76345408 -16.79272079
3.86568332 2.03565454 -16.65589142
0.58755845 -0.00834667 -10.05980587
2.67200494 0.78023499 -9.21544266
-3.43852544 -2.57628345 -12.87026119
-1.82641447 1.29973650 -13.12738037
3.47504807 3.57839513 -17.13720703
-1.04033923 3.81408525 -9.04284954
1.33132219 -3.92882562 -11.77286625
-1.72235978 -0.72582728 -9.98474884
2.59148335 2.58183336 -9.09851837
3.71425867 4.03526020 -9.25351524
-2.87648368 3.86379457 -14.58903408
4.11000633 3.58806086 -15.34264946
1.05045474 -4.45916462 -14.02635193
3.88438392 3.00887752 -13.08563805
3.77050877 -4.13286543 -16.41035461
-2.67481256 -2.15732551 -12.28716373
1.30568624 0.83201182 -10.33743668
2.63313818 2.08071589 -11.55657387
0.61423957 4.30380344 -14.34351540
3.68229508 0.38561279 -8.51922035
0.98824596 -2.34571123 -15.94129372
2.19775748 -1.61995494 -16.07002068
4.13165092 -1.41955531 -16.59405136
-1.51950336 -3.83457494 -9.99107933
-2.69586110 -2.09693050 -11.91701603
0.41439950 -4.01496649 -16.16748047
2.64492226 -1.51212859 -11.11839485
-4.11606169 2.99154735 -9.35655403
3.70102358 1.31461418 -16.87907028
2.15753341 1.98348629 -12.44729233
-3.96344733 -3.21779323 -9.53814030
-3.84652042 3.77253246 -8.84957123
-2.72023606 -4.02784824 -14.43807793
1.82588613 0.02621071 -11.64147282
0.89679348 1.42843330 -15.71228790
3.13377285 2.37300658 -12.42740440
-1.59943008 4.30105734 -13.10742760
2.34350896 3.90143633 -9.19034195
-0.43835205 0.94894314 -15.45882225
-0.63350147 -1.12515903 -15.66822529
-3.66714287 4.12180042 -14.72559261
0.15285663 4.19039106 -16.66534615
-1.34187508 1.24920309 -10.27760315
-1.64915621 4.03600025 -12.38158798
3.67602110 -1.93333399 -11.21167946
1.34325314 3.40514231 -8.96089172
1.73475504 -4.13671541 -11.68840981
-4.01012850 -2.85925603 -13.81101513
-3.32605863 3.99592495 -15.85785007
-3.17935634 4.02209616 -10.89969921
-2.93016624 -4.14074993 -16.00811958
3.85782790 3.14590096 -11.99501991
-3.58011174 -1.83453405 -15.24195480
-2.22350860 -3.87039685 -14.45912457
3.94496059 -3.69427586 -15.01208591
2.02857614 -3.92521739 -9.38442039
2.26174998 1.29124832 -11.25894070
-2.37680221 2.12330651 -16.64911079
3.23492193 4.09795046 -14.16247654
0.87098789 0.69938296 -10.18324566
-3.97966099 -2.44597650 -17.11344147
3.77390432 -3.45106721 -9.46224499
-0.69551492 -3.98628998 -14.85677910
-2.94624400 3.99980378 -11.33536530
3.83887386 -1.46979260 -15.93272591
3.61669636 -0.75911993 -10.35343552
-0.24011658 -3.91630054 -15.05570030
-3.68285537 -1.11231494 -10.46005344
4.10072947 -4.25936365 -11.52363396
-0.40154272 -0.93753004 -10.22882366
1.74915338 -1.78243220 -11.80196381
3.80531311 1.74996054 -14.88985729
-3.35814929 -2.45065784 -11.94813538
3.69894814 2.20439911 -11.39446926
2.99040413 -2.39349985 -12.18504524
-3.92454934 0.80872190 -16.08393860
-2.39521480 -0.28922197 -14.92420006
0.68745691 -4.18610239 -15.42292690
3.48764610 1.30883253 -15.01515484
0.96490794 -2.78902102 -16.82155418
3.22024369 0.71871120 -10.58900070
1.88100052 0.54396909 -12.60967636
-3.02609324 2.19742751 -14.44765091
2.47044134 0.80899382 -10.02910805
0.46810752 1.75807238 -10.09107018
4.17133379 3.33478785 -9.80825996
0.83411199 1.84236908 -10.22300720
2.92740273 1.43638957 -10.93167305
0.32855782 4.07153034 -8.97134590
-3.90650892 1.89912426 -9.38595772
2.86585140 0.38676038 -9.65554237
-3.61211205 3.87202525 -16.82737350
3.44578052 2.09103584 -11.50961685
1.49776006 -3.70918584 -9.53851414
3.79982996 -0.18907008 -8.94293785
-2.36504340 -3.32931995 -16.87022781
1.12057436 3.78894734 -9.13535976
1.69118118 0.36216849 -13.08211422
0.50343698 3.96865106 -11.40064335
4.21219015 1.21043420 -16.33286285
-2.43157244 0.48578340 -10.66330338
-1.94363821 -0.16815907 -12.55774498
1.41703928 3.78868270 -14.43245697
-3.68208456 -1.45209122 -16.89702034
4.02489567 -0.15675528 -9.34264946
-1.21094656 1.95261884 -10.05301476
2.04766870 1.16127908 -9.90237522
4.18806410 3.45208192 -11.80160141
-2.84188914 4.39988804 -11.23591614
-3.63385653 -1.81158352 -8.81974125
-1.92965651 -0.96077818 -10.10527802
4.18550825 2.15512085 -15.10465050
-0.71046728 4.70327282 -13.81980801
1.87365031 -0.46002945 -13.56045532
-3.91142273 1.58779681 -9.16087437
0.92333949 -0.00638243 -15.34163570
2.33738422 -0.53953218 -10.02807426
-3.95222139 3.77572846 -12.09700012
1.22991621 -0.12878434 -15.39734840
-1.83097172 1.33294737 -12.34463215
0.74128646 5.23012686 -12.82770443
1.73699319 0.11024693 -10.27531433
-0.35278726 -1.97246909 -15.73093414
-4.12473106 -2.99451685 -12.11491394
-2.13273406 -3.99877954 -16.55456924
-3.77535319 2.33078718 -13.79646587
2.85992908 3.99360561 -13.05328465
3.93962216 -0.03849662 -8.78346920
-2.36173129 -2.08404708 -16.54011154
0.62208241 -3.89498425 -14.44720268
3.44385695 0.05155208 -8.99544334
1.61728942 3.99539924 -15.15889168
0.74078381 -5.35705328 -12.13286304
2.75904250 -1.57850468 -11.42086220
-0.68705547 4.23743248 -14.23405838
0.87435901 -0.77520829 -15.58014870
-2.15623546 -0.01202948 -15.44480133
-1.64733803 -4.35835886 -12.13539505
-1.13965118 0.15267642 -10.46673489
-2.35948277 -3.97815108 -15.43054676
-2.27353668 0.87180930 -14.96335793
-1.17005551 3.87390447 -9.06191540
-3.66305137 -2.43295789 -13.71216488
-4.03461695 -1.64133334 -15.20842266
-1.25842941 -4.12162113 -9.09745407
1.90436256 3.87381172 -13.14370441
1.80892432 -3.84998345 -10.87674236
-3.48864913 -1.48411119 -10.93469238
0.31955081 2.65859151 -9.51016331
3.76996350 0.26057580 -10.38191605
3.75750852 -2.26775098 -10.38315392
0.77160037 -1.03667915 -15.35604572
-3.07760596 4.04838610 -15.04675102
-2.18188405 -1.38199615 -11.17550564
-4.10707188 0.26585889 -9.53503799
3.27411294 -0.44823399 -10.51397896
-1.41725469 2.72143793 -9.12578106
-2.34474158 -4.35841370 -11.14578438
-0.89938402 -4.02238989 -10.31515503
3.97827601 2.91539598 -10.90498543
-1.90995586 -4.10664749 -8.91413498
3.89909554 3.41369486 -11.47124863
4.00299835 -0.37003314 -8.95087910
-4.00272703 0.45637009 -15.78759384
-1.70763707 0.96463752 -14.47951412
-0.23122381 4.07755947 -10.71128082
-1.79224205 1.38885307 -9.79723454
2.77495885 4.07896614 -16.47328377
-3.41229200 -2.64072275 -12.71626091
0.50372803 2.45121861 -15.94628239
-0.71775657 -4.11946249 -9.07932091
-0.50043607 -5.34661818 -12.75142574
-4.13374376 3.57875705 -13.97833252
-1.07684326 -0.09203279 -10.16469574
2.24030519 -1.47761166 -16.32048607
3.27963734 -3.97536159 -14.56712627
-3.06682777 3.96855378 -12.18740463
0.36042202 -2.38827634 -15.91910458
-2.62193060 -1.39226615 -16.90513229
-0.28010517 -4.64408255 -11.55447483
3.82899117 2.65576124 -11.61053181
3.68123913 1.25952256 -9.14578724
-2.22842002 -0.16191208 -15.03742981
-2.91090083 4.04060888 -11.32103348
0.75738865 1.70608962 -10.12462139
-3.94418812 2.20285320 -9.92185402
2.26754522 -1.00093710 -9.68813896
-0.79249305 -2.11085463 -15.82189560
-3.98396158 0.26051319 -16.41014862
-3.56629252 3.87334633 -16.49996948
2.25266337 -0.95890802 -10.87849426
-2.94044495 1.15755236 -16.94309998
-4.15432549 1.99421597 -10.20779991
-1.77349460 -3.89615512 -15.52385139
-2.71543336 -2.33256817 -13.60445118
-2.70698881 4.02093887 -14.66394997
-2.95288730 2.58230972 -9.22812462
2.58895707 -0.76334810 -9.56108665
1.21559429 3.98160386 -14.27504444
-0.52282912 -0.86307228 -10.24010181
1.81570339 -3.79892159 -9.67098618
1.56934440 0.55243546 -11.46279526
1.79117966 4.08204269 -9.93934631
3.87951231 0.38366574 -10.02539062
4.08646727 2.10477757 -16.65413284
0.18307373 2.42518234 -15.54316807
-1.12466931 3.95825601 -10.38904953
-0.07171844 -4.25702572 -11.24435997
3.52298713 3.03566957 -8.84436321
-3.70336175 4.07742357 -14.68377018
2.81831551 3.36859727 -8.96261406
-2.79966736 2.74576783 -13.21611023
-4.12446690 -2.97680402 -10.61446381
-4.05913639 3.61721301 -13.95939064
3.28295493 3.92953897 -9.97590637
1.87330139 -0.94158882 -13.14185524
-3.93186164 2.86129618 -16.38809967
-2.46890974 -0.25945440 -15.21670914
-4.17102575 1.50731575 -10.29239941
-0.23103473 -1.94438839 -15.44761086
-2.38242149 -1.99504983 -11.78019524
-1.21054983 4.11029816 -10.02588367
-1.72821367 -1.64332807 -12.81819057
-3.40976644 1.30174780 -16.90678978
-1.55042851 2.18998337 -9.70895195
0.53348184 -5.03545666 -13.80227852
1.15085471 -5.27182817 -12.89239597
2.44607186 -1.10890388 -11.15191650
-2.10222816 1.11456645 -15.90841866
-3.80936646 2.02755189 -14.64714718
0.91926205 -4.30513334 -11.53808212
2.47910380 -4.03802395 -12.07901287
1.85785544 1.23425698 -13.96333694
-3.13105345 4.14920282 -12.97473431
-3.95223784 -2.93825221 -10.57255363
-1.18031013 4.24291372 -12.43504715
2.98584318 0.06729772 -9.27253342
-1.76299226 -0.55867565 -15.64108562
-3.86994886 0.99313927 -9.08272362
-3.07122779 -2.40558004 -13.80507469
-2.52159572 1.28084362 -14.72506332
-3.83148527 2.34017658 -14.34445000
-0.86700195 4.02690887 -15.05434799
-0.04793696 3.68721604 -10.32894325
1.77228510 -0.76758820 -12.68509579
-1.48202968 -4.18370438 -9.03109264
-1.97598350 1.15021324 -16.57531166
-0.03251296 -3.95812035 -8.83517456
-3.98772478 -3.71787596 -16.72569275
-1.69792891 0.92614371 -12.28195572
2.16253471 -1.52857792 -9.61559677
1.59963274 1.08888984 -12.63974857
2.83709168 -0.56554747 -10.62768650
-0.11384308 4.02295542 -16.62174225
-3.36621070 -4.05089378 -15.85303497
3.29934931 -1.12434185 -10.89170265
-1.62984717 -2.19247270 -16.24172020
-4.01449251 -1.18277228 -8.91308308
1.04584157 3.93761635 -16.53124046
2.94711137 0.15444255 -9.18022060
-3.55953646 3.94739985 -16.12510109
-3.73652387 3.96809030 -16.42431641
-1.56747854 0.50604129 -11.78588486
0.43937495 -1.07027864 -15.52903175
-0.78361207 -1.80024850 -15.55783558
-3.41288233 3.43297529 -16.89996338
3.05418992 -2.08549452 -12.06637955
-0.73615772 0.51751471 -10.24398422
3.23236156 0.37234953 -10.47060776
1.93913651 1.17700362 -15.53468513
-3.43353248 2.63416672 -13.15005970
3.74592805 -3.18292284 -10.94261932
-2.28100300 1.23877823 -9.66204834
1.76303077 -4.19189692 -13.05396175
4.06744003 -3.98194885 -17.04340553
3.03042555 -0.49064532 -8.89447212
2.65727949 -4.03068256 -11.09699535
3.82912755 -4.02895164 -14.67477894
-2.33779979 1.16552293 -9.65293598
-2.27371168 2.41739988 -8.63075256
-4.10821247 3.77396083 -13.05498409
-1.02482986 -0.99051583 -10.15314865
4.05297756 -1.54064906 -10.57097340
3.66241765 3.01203585 -10.50077438
4.14029884 -1.58368742 -15.94059849
-3.19950080 3.84927249 -10.88280392
1.61611152 -0.83931118 -10.32220554
3.39595842 -2.82779479 -8.92786789
-2.71975970 3.86459708 -15.17330551
-0.77551085 4.72138023 -14.06248760
-3.99036384 -0.59516710 -16.24286270
1.50717616 4.17485762 -14.41137695
-4.16912794 -1.62434852 -15.40260792
1.64504123 -0.00126954 -12.51726246
-3.25754142 1.16718447 -15.09144878
-1.50047493 0.96126223 -12.04300594
-0.32557979 -1.27700198 -15.62176609
3.51616573 3.95369482 -9.33814812
1.02083373 -2.24036884 -15.87889481
-2.49417400 -3.99817610 -16.31312943
-1.34513879 -4.27845955 -16.52603149
-3.57660627 -2.37968063 -12.39590263
3.50310230 3.92378998 -10.28799915
-1.31103253 -4.28922510 -11.99703979
0.55018437 -3.83112097 -15.43422222
0.42161238 -0.00068881 -15.42222786
-3.99680686 -2.47404265 -11.30598259
4.04492474 1.48529470 -16.02868652
1.89705801 -0.60267180 -10.29051590
2.04909348 -4.01533079 -9.70926476
1.54035497 -3.90206647 -10.83489132
-0.08664212 -3.86477113 -11.15890217
-2.02626586 3.99781251 -13.61634731
3.50516391 -1.99803805 -11.32604408
-1.16594768 -4.48476028 -11.92975521
2.77732158 1.30356157 -8.90205765
4.09475756 3.30655265 -10.73253632
0.31531349 -4.30863953 -14.50559330
-2.10645366 -1.51782072 -9.64314079
3.87375879 3.35961485 -13.13879395
1.99509060 1.75526357 -9.61049843
-3.49264884 4.21629953 -9.07194138
-0.00904017 3.95579910 -9.16332817
1.63426292 0.01929677 -12.64355850
-3.97043395 -1.58408594 -8.88548851
-2.58536744 -0.10035780 -16.54353333
-3.18080330 -0.81189114 -16.87067795
3.84649277 1.88435960 -8.89278221
2.37575364 2.02864122 -12.42747593
-4.04813528 3.64996433 -15.60180950
-3.96209693 2.56951451 -10.69992638
-1.59274781 1.83382273 -16.31630325
0.83252048 2.47024465 -16.19998360
-2.21181583 -1.96143675 -13.58309841
2.91182709 3.96945810 -14.75725269
2.42660236 0.78584903 -15.16239738
1.85167611 -0.48267278 -15.33407593
-0.26709336 -1.06710196 -10.36319637
-2.38205767 0.26247987 -15.72717094
-2.47678494 3.94623709 -14.98065948
-3.72457552 -4.05095387 -15.47374916
1.48656261 4.67888260 -13.21102238
1.70816469 1.01813042 -13.92066574
-3.89410782 4.10731983 -10.07153034
2.90565085 2.31642866 -12.73384190
-4.13720608 -1.96174312 -10.57678223
-1.39724910 -2.18398738 -16.30565262
-3.42786551 2.54347897 -13.58969975
4.28667831 2.76984763 -10.31947231
2.78096509 1.40500665 -8.90000725
3.34371638 1.88411975 -14.64802742
-1.88826823 -3.75906897 -16.80020714
-1.24231231 4.09160519 -15.76593781
-2.43195295 2.79300570 -17.12781525
-2.63937831 -4.06943607 -9.54219913
1.76750016 -0.03758620 -10.09069538
-3.88450503 -0.94319355 -9.12427425
-0.73711419 2.42578459 -16.06564522
-3.13327861 -2.11115694 -13.70849133
2.48323703 4.15700960 -9.92691803
-3.93119359 3.22007346 -9.94320297
-3.97219849 -3.38787460 -13.32412910
-0.71263748 5.27539206 -13.86750603
-3.56388116 0.89525837 -9.11379528
0.49032089 5.16440535 -12.21063328
-1.18901241 4.03208876 -11.95285606
0.73633468 -3.78422546 -15.46950054
1.94159698 0.73087585 -10.07797432
-3.97880197 1.73905528 -9.85844231
2.25015378 -1.08222151 -11.13502598
-4.05078030 3.21666718 -11.79079151
0.42371720 0.31014681 -10.27796745
-1.48385012 -4.51131964 -12.84801388
-3.39221501 -2.41881800 -14.26286125
-1.05788898 -4.01608181 -10.07925129
2.44385409 -3.73841453 -15.46553040
2.38061142 -2.69116139 -17.10314941
2.32786846 0.99392980 -15.07128334
2.11994863 -4.13766336 -13.55462360
-2.55104280 -1.77541804 -14.13243484
3.46762037 -1.72787917 -16.80183029
3.00028110 -1.65111530 -11.01295662
3.64296365 0.63022238 -15.26821423
1.91809905 -0.54079431 -11.07450581
-0.17939185 5.12423182 -12.56230450
-3.83151531 1.22663116 -15.21145439
1.66555023 0.18862943 -11.39423180
-3.09636521 -0.95529616 -15.46343422
-4.12717199 -2.76780224 -12.44459724
-2.21199965 1.60931587 -16.07217216
-3.50453091 -3.29445100 -16.89587021
0.66589743 -2.35335732 -16.03231812
2.05411148 -4.13439035 -16.04561806
1.65804517 -3.65219617 -15.39612389
-0.66769737 -3.86427736 -16.79409790
-2.61331964 2.63343263 -8.82819080
-2.13903999 -4.09578133 -13.15119553
-2.09398031 4.01453400 -11.80460930
0.29407537 0.72001201 -9.99633789
-2.04377651 1.30030131 -15.87736702
3.67319512 -4.32441568 -13.34637642
1.16515827 2.13795471 -9.86998844
-1.74291718 1.29032898 -15.48234940
1.55008328 -2.95100284 -16.86158371
3.94594812 -3.02712870 -11.78690624
1.41468835 -2.50381470 -9.32110977
4.16332722 2.64871240 -9.02973652
3.43145895 1.52978885 -17.06675339
-3.51026821 3.54076171 -9.04369068
3.33521223 -3.98171639 -11.18925667
1.10154068 4.46773005 -13.22869682
-3.88692498 1.90054142 -14.51539803
3.41166496 -3.91272521 -13.20513153
-1.50379622 -4.28626442 -14.07428646
-1.50853765 4.02209377 -10.89566803
1.00564301 -4.05228233 -14.56346607
1.75285959 -1.46224880 -11.64109230
0.34963912 -0.30357480 -10.22827721
0.22113968 1.12560713 -10.23565102
-1.72626245 -3.41885519 -16.66050529
2.44514799 4.12066746 -11.02860832
-0.23208983 1.32679141 -15.44132423
-2.72407079 -3.65209579 -8.68618488
-2.04371500 -1.07106698 -16.08210564
1.69702792 1.37269199 -16.19400406
2.27492404 -1.61483848 -11.62778187
1.98512506 -1.92714310 -11.75413227
-4.08238888 1.58428359 -9.56760216
3.94394660 2.58071232 -16.53894424
-3.74458361 3.01119590 -16.89761734
-2.34121752 3.94884515 -14.47087574
-3.47357416 -1.29420638 -9.13438988
3.83757424 0.43556139 -16.04908562
-1.98185611 3.77365541 -15.05087280
1.82231784 -0.03723160 -14.84095764
-3.24930048 0.11048245 -8.90044689
2.36208034 -3.81231642 -8.99239540
3.88779259 -1.64509463 -8.83303261
-4.22719049 2.94338465 -16.50971413
3.98096180 1.80922711 -10.96257687
-0.13730203 0.61554670 -10.22537804
3.13762164 2.03779316 -14.53972530
1.52364540 -4.00093746 -12.44086361
2.28808045 3.02827358 -8.89182663
4.11664009 1.22627425 -15.67885017
4.19065809 0.01556242 -16.99947739
4.05941820 -2.90737605 -11.67288113
-2.57324314 3.46540570 -9.12130928
-4.07410145 -3.15354109 -16.09601974
1.92120457 -3.89312863 -10.87493801
-2.15715599 3.93628144 -14.61497498
-1.45950675 0.31341729 -15.67827988
0.77054960 3.29242611 -8.89276695
-3.95461202 3.12303686 -15.69089127
-1.70414174 -0.42431062 -12.20499039
2.84669900 0.83858687 -10.61135006
-1.70375192 0.42919186 -12.05738926
-0.52989149 4.26807928 -10.90860367
4.03187561 3.44717097 -16.54945564
2.82441258 -3.98196507 -8.88682556
-0.61941057 -3.58588004 -8.78173065
-1.97551119 -2.55410838 -8.77047348
2.19215369 2.11286640 -13.75772285
3.95142627 2.99443626 -9.88577938
-0.04098890 -3.88163424 -15.96191692
2.80906010 -3.98677349 -16.55266571
2.15823984 1.88159513 -13.95978069
4.16058922 0.45981899 -9.32210827
4.01121569 3.47297645 -13.00875473
-1.73555470 0.72917110 -13.17393970
-2.42559171 1.28585649 -16.32605553
0.64157087 1.02626550 -15.78428078
-0.32777929 -0.41035530 -15.72668171
0.51434034 -3.94425654 -16.63209915
-1.50557148 4.12366962 -13.26167488
-2.26794887 -4.01311684 -9.40615559
0.57611740 0.72818917 -15.53491020
-3.20939159 -3.77169418 -13.29973507
-0.98136783 4.97651005 -12.49223042
0.36198440 -4.14089251 -15.26101112
4.06686401 -3.14001346 -9.35236549
2.26409245 3.75581193 -13.79517555
1.56389797 0.00246362 -11.44410992
0.24385975 0.50746751 -10.03191853
-0.79762310 -3.93910193 -14.88645077
-3.61840296 -3.92145133 -9.57549000
-3.96645379 -2.41027808 -16.10427475
2.85441375 -1.98043454 -13.85392570
-1.98698425 0.44058046 -11.02976799
-4.14222336 1.14483571 -16.65418625
-3.23698735 3.96292710 -9.59726906
0.99315745 2.92315745 -8.89524651
-3.82960415 -3.37898397 -8.93201065
-0.78813767 4.16737318 -10.81775093
3.07723832 -0.43429241 -10.16589165
-3.41797733 3.91359043 -14.32737541
-1.95016813 -1.61874831 -13.11494064
3.06652451 -3.19857526 -16.95395088
-3.97310495 -3.69717669 -9.74065018
-1.58642685 -1.13905013 -15.41395187
4.02692032 -2.24177885 -9.36181831
3.10869551 -0.18550478 -8.83775616
3.58008862 -2.80966544 -16.69175148
2.89739060 1.97626567 -12.15627670
-4.00161886 1.87646651 -16.24419594
-1.93198597 0.27176765 -15.51014614
-1.05597639 -1.64253175 -10.40518475
2.77700186 3.94774151 -10.13412762
3.95851612 1.27153170 -16.76880455
-3.98648906 3.46879339 -12.78881645
0.87366688 4.07609701 -9.54289150
1.77861297 3.98871803 -13.77632332
-4.15835571 -2.39843202 -10.16957855
1.92398417 -3.00572157 -9.03827477
2.05439162 0.94329143 -14.77970123
3.15579557 -1.34001124 -8.91704750
-4.22512722 -0.20396775 -16.84138870
1.38830209 4.12103844 -15.56671047
1.65611911 -0.97465611 -11.51607800
3.02150369 3.85752511 -10.86465549
-3.55919290 -1.66703868 -10.72489166
3.28841066 3.32287955 -9.20486641
2.80428720 -3.91654873 -8.90657330
-1.36578488 -4.64939308 -11.75190353
1.96598232 -1.48495376 -9.89253235
1.54380953 -4.28539085 -12.97061920
3.04865193 1.32476163 -16.74503708
-3.59218526 -0.45035806 -15.59303093
1.67088938 3.93865180 -11.36462593
-2.47687936 -3.84716916 -14.79274559
1.22508824 2.16017199 -9.71322441
3.76496291 -3.33799338 -15.31739330
2.99366617 -4.05220652 -9.21789360
1.09881032 -5.31429577 -13.57603359
-2.51651502 -3.98690081 -16.05827713
-3.08343291 2.39700747 -13.31704044
3.72692943 -3.93653440 -14.51092815
-2.14974761 -1.24340212 -14.52182293
0.00777041 -0.65002888 -15.42525673
-3.81193256 -3.15111041 -13.82681274
3.31857634 -0.20202631 -8.91068077
3.34879136 -0.64377660 -8.67102623
2.32473350 3.09931803 -17.18647766
-4.03893900 -2.07872701 -9.51761055
-2.63692570 -1.83229947 -14.10777187
3.27648115 -3.87309289 -13.40770149
0.75861126 3.76646662 -10.65533447
3.00647807 -1.53986382 -10.74079704
-0.34535825 4.72713614 -11.30872726
3.16175389 3.98721266 -12.64262295
2.25610065 -2.79238033 -16.78434563
2.66391373 1.43432736 -9.01877022
-3.92891788 3.80230761 -14.44327641
3.80719352 2.77500129 -13.24284267
0.63904506 4.03857183 -16.77072334
-3.84443235 -0.99838561 -9.48171902
-1.77647769 4.02611303 -12.23310947
0.85838997 -1.76752818 -10.29072762
2.63904548 -0.57806534 -9.18724442
-2.29363990 3.95740104 -16.15714645
3.47498512 1.00831604 -16.97870255
-1.51534963 3.51455045 -8.81099319
-0.38780528 0.90974677 -15.47375202
1.79912305 1.15160251 -12.36661911
-0.24857424 4.33349466 -11.34225941
-1.82591498 -0.03634091 -14.69384193
2.86870813 0.74636889 -15.16863346
1.87662947 -1.30203223 -15.71527576
3.66415143 2.18597841 -14.54704285
3.53204083 3.60800195 -8.89839554
3.89932895 2.97878122 -14.94165993
-4.11469507 -2.16721201 -14.74270630
-3.19591188 -3.72242022 -15.94588661
4.09770823 3.06413770 -16.29084015
3.86804795 3.39142561 -11.94184685
-3.40893936 3.92538261 -11.98321152
-3.23862338 -4.33606815 -13.19335747
1.75652301 -3.91580343 -10.63174248
1.23807621 -0.77821505 -15.44475937
2.60114002 4.17702055 -9.40831184
-1.01488721 -4.12430000 -14.96602821
2.62568545 3.87654805 -9.95341301
-2.10269809 -2.29005861 -13.50457382
-0.13964245 -4.83444977 -11.47674465
0.89997280 -3.63125181 -8.96256447
4.05868626 -3.48017812 -14.42537117
-1.09785318 -1.40387607 -15.70375061
-3.23071313 1.35105324 -14.87246609
3.74155521 3.95723367 -10.19068813
3.36320662 -2.28907800 -8.92687893
-4.02241564 -0.42762208 -16.23721886
4.18328094 2.67767215 -16.08892632
-3.35373902 2.61705637 -13.77786350
-3.48192239 1.60906947 -8.87149239
0.00745105 3.92647529 -15.14841843
1.60295880 -0.37987837 -11.91874218
-0.88676667 -0.57420647 -15.53185272
2.68212819 -1.17459559 -10.68207169
-1.90262794 -4.09967947 -14.88174629
3.85883379 3.70839715 -9.03334808
1.73261404 -1.97055542 -9.93225098
3.29549336 3.88789558 -10.52584171
-1.84588385 -1.95831144 -12.05867672
-3.87574482 -2.70118833 -8.81275940
2.73035145 -3.63711858 -8.93531799
-2.04651189 0.32675779 -12.70467758
3.67793846 -4.16535139 -12.27662849
3.92408228 0.18988916 -16.30948639
-3.12426162 -0.84072596 -15.35198402
0.73959088 4.09300327 -9.24633598
-3.45492601 3.45848465 -17.01311684
4.02180290 -3.87945342 -9.69971561
-0.22522241 -1.44769323 -15.48293686
0.09191712 -4.99961281 -11.87798691
-3.17566204 -2.03026056 -11.75305367
-1.95780337 -1.63670003 -13.58382702
2.39990902 -2.25826621 -16.77171707
-4.09768152 -0.08370855 -8.83273697
-2.04491472 2.00249600 -9.50320244
-1.88146365 -0.44372424 -15.76984406
2.83443594 1.98698032 -8.78931332
-3.91390419 -2.18418765 -15.20371246
-3.84202337 3.45650172 -9.07186985
1.41101456 -0.29582188 -15.49769211
-4.22438812 1.40354919 -9.83337116
3.60740924 1.33293176 -8.56056595
-3.27468753 2.52534127 -12.39683056
-1.88085175 4.00828218 -17.07817268
-4.03537321 4.04982424 -13.40240955
3.79841661 3.61684799 -14.26693058
2.51536512 -1.65401077 -8.65448189
-3.39205194 -3.92425585 -14.73985386
2.85472274 4.04485655 -12.57480240
-3.89634752 -3.40380526 -12.59408855
2.55424714 1.34146976 -14.40958214
-2.14119983 1.51789701 -13.61702728
-3.12571836 1.45766354 -16.97588921
-1.75781941 3.86143661 -14.49382019
3.70366311 -4.02150822 -14.64048100
-2.99771547 -3.85770941 -11.85898304
-4.01249647 -2.93967795 -8.76954460
2.09132242 0.20764636 -11.25182438
-0.72198594 -3.11475706 -16.88540077
-2.85790658 -3.75123715 -9.84405613
-0.78266299 5.17336035 -13.52257824
-1.99827397 -2.11555934 -12.65635777
2.63254619 1.50108182 -8.90795708
-0.26977724 4.18621206 -14.32293987
1.72256756 -4.13628292 -16.60047340
-4.07052469 -1.28205299 -16.05316734
-4.03992271 2.10539007 -16.13405418
-1.21637940 0.64447659 -10.52641010
3.99731517 -2.52265906 -16.32439613
-1.97690511 -0.08447830 -12.66261196
2.32883811 2.29919481 -13.65409279
2.27248502 -1.17071354 -9.27842140
-3.38770270 4.13864231 -8.63963985
3.89661551 -0.72386479 -9.97653103
1.95010650 -3.94566989 -11.34590244
0.35872537 0.01614299 -15.47606564
-3.17191982 -1.80304861 -11.10077572
2.32992005 -1.03521323 -9.95698452
-3.24408054 -1.81197071 -14.61763859
-1.50326538 3.31306982 -8.80438232
1.20309985 -4.65263844 -13.50715733
-4.04258156 -0.47130185 -16.46028519
4.06955338 0.37115872 -9.78007126
1.90296316 -1.45863092 -11.42099667
-1.05333877 -4.30986404 -11.59097195
3.63624024 -4.06716156 -13.23436165
-3.34436464 4.10493612 -11.26922798
1.93947017 -4.21167564 -12.82294083
1.62242460 -3.72315764 -14.29192924
3.84643793 -2.98483753 -10.81755924
3.00543118 0.67023569 -9.03658581
-1.62869275 1.14648676 -13.04626656
3.16424441 -1.44653285 -10.86951828
1.45603204 -0.13808531 -10.38588238
3.99180889 2.93224120 -9.04800606
-0.47327864 1.36144102 -10.24858856
4.03996468 2.40065551 -14.76249981
-4.01827049 3.31736350 -12.87572575
-2.29598546 0.95159864 -16.55206490
-3.17308974 2.94114566 -17.13496017
-2.82932734 -2.34258914 -12.10985661
3.69216228 0.81911170 -10.38275242
-3.12711573 4.28874111 -14.50852394
1.71979308 1.14324117 -14.45620251
3.38064432 4.15998936 -16.70697975
-2.96429586 0.06281429 -16.51739883
3.99173021 -0.66805518 -15.83174515
-0.06961937 -3.01806116 -16.80253601
-3.35248399 -0.73515165 -16.66102409
-0.02489921 2.74702501 -9.54999447
-1.86231041 4.14542866 -14.75572109
1.19199502 -4.02618790 -15.24713707
1.68616724 3.83498263 -11.13021755
0.31537899 -1.91285241 -10.22010422
2.13631439 -1.54352295 -11.74504948
-0.85155708 5.28194904 -11.96919250
-0.58092386 4.08811760 -14.54093266
-1.34706724 3.68651414 -14.78835392
1.20131266 3.37125492 -16.83390617
0.60645956 1.56733656 -10.52202892
3.69125581 -0.37122747 -10.08469772
2.73467278 1.90988874 -11.57240295
3.75332379 -4.03958321 -14.28012943
-3.95968986 2.59487510 -14.37640095
3.23012638 -0.35567150 -16.92462158
-2.44539046 -0.37243089 -10.66304970
1.93154407 3.87792277 -16.19547653
-2.65282321 2.13792753 -13.79637909
3.44155908 4.08430767 -15.85210323
-0.21774952 -4.00950432 -11.12842178
3.94469666 2.35995245 -8.94494057
-1.06830382 2.24698734 -16.25403023
2.20949173 -2.66126776 -8.92222023
2.76945686 1.94613278 -11.51137733
-2.87968516 -4.09882641 -16.50675583
-4.14180326 -2.62990022 -16.64843941
0.94889778 -2.59541392 -16.45248413
2.36393332 3.94386077 -9.13785172
-4.18319893 -1.82610965 -15.30741215
1.67231119 -0.03865766 -11.06022739
-3.65992522 -3.89933133 -14.44835949
3.68231177 2.39858270 -9.00866127
-4.06424427 -1.15905309 -10.41373539
-4.02716064 -3.23940539 -11.24082565
-2.74638724 0.72644901 -14.90618324
3.14052606 -0.56452435 -10.35097504
2.60193253 2.46116328 -16.93540192
1.19661283 5.05497837 -13.43735409
3.71006775 -3.05388212 -16.87752342
3.16279793 0.50657952 -15.05208111
3.40586209 1.17656386 -15.14133835
3.56892633 2.67803812 -8.91097641
-3.96483588 2.55539107 -16.15620804
3.85438228 -1.11575305 -10.58432293
3.03156161 3.88954854 -16.07620811
3.16036534 -3.90075040 -15.05964470
1.79562497 -0.17340781 -14.40158176
-0.95432210 -3.72503662 -8.83014774
0.48201758 -0.27854270 -10.42338848
1.55822265 0.95393115 -10.12812424
-1.89828527 1.40420556 -12.73379898
-3.95131373 4.15923548 -12.78818321
-1.93453026 1.99108243 -13.07277393
4.07970238 2.41046977 -11.03364086
-4.03451347 1.25079346 -9.85112476
-1.21589112 3.78049374 -16.97809219
-2.47180820 0.38852367 -15.10258770
0.49199122 -2.48566651 -15.59129906
-3.42304707 4.12637854 -10.71251392
1.39690101 3.39502811 -9.11086941
-3.92615795 2.42869973 -9.74459553
-2.39750457 -1.51558459 -14.64205265
2.07628274 -2.29289937 -9.00682068
0.51649791 -3.99429297 -16.73265076
1.48071992 0.93086153 -12.66716957
1.80664253 -2.28697252 -16.81698036
2.42858291 0.16558920 -10.70151520
4.01654959 3.50813317 -15.81329155
-1.03572750 -0.62242585 -15.33160400
2.55270672 2.67032552 -8.69499588
-2.64755726 -4.08866072 -12.47638607
0.56565708 -2.55427122 -9.32502079
2.96759915 4.04052258 -12.41384602
0.52169430 -2.24632406 -16.18670464
-2.50402975 0.55765980 -16.06970978
-2.05860972 -4.02672625 -9.46898937
2.56889033 1.89554858 -8.81970787
-2.04359531 -4.09312153 -14.66447258
2.43159628 1.74032867 -16.85041046
-3.53392076 -2.85562277 -13.07831097
-3.55721474 -1.45575285 -10.94165707
0.11943729 -3.92356920 -10.56812954
1.09026265 0.16207911 -15.70286751
-2.10287690 0.29661459 -14.64326286
-4.14062405 0.08264404 -16.61467743
-2.50695705 -4.09762383 -14.87345123
-3.64014649 4.01704025 -11.00102615
1.22505367 -3.86356544 -16.03602791
3.98922253 2.91887045 -14.11965847
-3.69694185 2.27708197 -10.15050793
0.58155924 0.23059988 -10.07782745
0.27813235 -5.33939886 -13.83039093
-2.41632605 3.78628635 -8.82065010
4.05786276 -2.99131823 -12.58763790
1.65424550 -4.11253262 -12.67608547
-1.82389224 0.27354971 -14.39991283
-3.92001748 -1.60912991 -16.33063126
4.11906958 -1.45668781 -16.31780434
-2.28140664 -0.47569644 -15.06643772
4.28220844 -2.23694420 -10.78271484
3.24744606 -2.14396524 -16.95855331
-2.92083979 -1.80910838 -16.60615540
3.15567613 -2.92584586 -17.05292130
3.52284861 -4.06504679 -10.46185589
-2.85799932 1.19171357 -16.60074234
1.69101477 0.82890713 -11.31364250
-2.71663380 0.03544714 -15.29381752
3.12385893 -1.08173406 -10.67988682
-1.17741084 -1.19956875 -10.01644897
1.47395945 0.48767036 -10.29643345
-1.57190776 0.47686711 -15.48543358
-4.01067734 2.42038441 -11.25349617
2.44830966 3.42115045 -16.78778839
-1.84246361 -4.14532471 -9.26614952
-3.89593792 -3.79582477 -15.82427025
-2.80027771 -4.16105843 -14.63545227
-1.39229286 2.00381804 -15.85185432
-3.93319392 4.12443972 -14.10969543
3.09221816 3.71772051 -16.84146118
-2.67916393 1.87174380 -16.93879318
3.51072907 4.16571617 -13.71199512
2.93586612 2.37192273 -13.14896393
-4.29595661 3.63615155 -9.63205719
-3.53455567 1.90984070 -13.95171928
-3.52934933 -4.17056561 -16.09400558
2.57859254 0.98107767 -9.58059406
2.94140244 3.85135484 -13.52246094
0.72512043 -5.01137829 -13.96469402
2.21243834 1.82553864 -13.62973595
3.41458702 3.98051071 -16.27322769
1.82808280 0.06390632 -11.80705261
-3.29269671 -2.47755718 -12.51492023
-0.77452493 -4.00510931 -14.76452160
-1.01818168 -3.96248269 -15.91340446
3.72279453 -0.76826668 -8.86841774
-0.73060828 -3.98796201 -9.91904259
3.59808540 1.56347644 -14.92396927
-3.25706506 -4.02476025 -10.75905609
2.17975235 3.76284146 -9.49530602
-1.48572636 2.27150989 -9.53450966
-1.02801323 3.25311875 -16.88836098
1.74877560 -1.31883132 -13.21882725
-1.63060319 1.49313676 -12.21271038
3.07612348 1.77922606 -8.79904938
0.47956648 3.86626220 -14.35848808
0.45451674 -4.50034380 -14.25207138
-2.15454674 -1.36724019 -16.23666000
2.44893432 -1.66423428 -8.91688728
3.82441854 3.27912974 -10.18948364
-2.34073806 -1.13850725 -16.01043701
-3.20174766 4.06321907 -13.67992496
2.11080217 3.95249629 -12.80863285
-3.53411508 -2.65885139 -12.34474087
3.73960829 -0.61453044 -8.82059860
3.79264784 -1.12913728 -15.70899487
-1.01626408 -0.50913846 -10.41127777
2.24107742 -3.41664243 -8.78586102
3.71970034 -3.06923914 -16.82553482
-0.59014344 4.75266123 -14.42717934
-3.84894657 -4.03412580 -12.49931145
-4.04943323 3.14837122 -11.75979424
3.78927016 -3.81195903 -8.75417900
-1.56245267 0.90427339 -13.75423050
2.53873253 -1.67064595 -11.28938675
-1.81331360 0.32787979 -14.42333508
-3.63760161 -1.08047223 -8.84403801
1.93249679 -4.03810644 -16.22442627
4.05917740 -3.24197197 -16.76859474
-1.58840370 -3.98996925 -9.46882725
0.55651563 -4.96202755 -14.12845802
3.70079303 3.81574798 -11.08678150
1.77059209 3.78168654 -15.59101295
2.38682985 -3.75967455 -14.63803005
-3.81054401 0.06521457 -9.18685532
2.91293859 -3.59685826 -16.74103546
0.15983088 -4.00058222 -14.98355389
3.10380936 2.31573749 -14.56354713
2.94523144 -4.11038113 -13.89659405
3.67931223 -1.40056241 -8.97543335
-3.20690918 2.52271461 -13.50068951
-2.67900658 4.12502050 -13.36635399
0.93359691 1.09422600 -10.38265705
2.01849294 4.18569183 -14.25058651
1.73873937 -0.97909534 -10.30230808
-1.99868429 0.46798524 -14.75618744
-1.64403987 -0.28892574 -14.44910908
4.05279350 3.22276664 -9.68962955
-2.32833385 0.33760488 -10.12787247
-1.08166766 2.74618649 -9.34123039
4.14397192 -1.82377517 -17.05429077
4.30402088 3.51399064 -9.58586884
-4.12133074 1.65502453 -15.04318905
-1.20686030 1.21083593 -10.05839157
0.57423216 -2.68264079 -16.38659286
4.01866102 1.73624039 -16.38832855
2.12776423 -3.88765001 -16.49352264
1.78487039 3.89778781 -12.27078629
2.29246640 -1.36941350 -9.08070564
-3.26378846 3.91197801 -14.66292572
-0.63790148 2.78610659 -9.30588150
3.59179187 0.93843734 -8.86327553
0.81187934 3.25418591 -8.99634457
3.18234348 3.98859525 -14.75877953
-1.76218009 4.18399811 -14.50598621
1.31100643 -4.11507034 -11.75497055
2.80932760 -0.20262657 -9.21605873
4.08752823 0.34369844 -9.78592110
3.11579251 4.02618170 -14.78326511
-3.25101423 -2.52920723 -16.69126320
-2.90884686 0.45697740 -8.97096157
-2.55591774 -1.56626487 -16.47674561
2.11285901 4.06407738 -10.82876682
2.80598545 2.43830872 -12.00240612
-1.66994202 3.52719665 -17.19244003
-4.01488113 -2.38536954 -15.68662643
3.06987190 0.51972562 -9.02372169
-3.22853947 -1.87134671 -14.24840927
-3.63436604 0.34076840 -15.51106167
4.02990198 0.23124632 -16.05473328
1.45102966 -4.00896835 -16.36699486
-2.14513659 2.03698874 -13.81892967
-3.23274565 -4.05727863 -16.51127243
-0.34834826 -1.16451132 -15.62420940
1.65443301 -3.19114733 -16.84764671
-1.20073342 2.28695726 -16.13582611
3.23370934 -4.01065826 -10.31908226
1.98052716 2.08593345 -12.76801395
1.55319095 -1.06405973 -12.65634155
2.55119085 0.62775719 -15.02760124
-1.59750795 0.07402860 -13.82474899
1.22107184 -3.76600957 -14.46775913
-4.18744993 3.19876051 -9.35637093
-0.11796892 5.29651070 -13.10094070
-2.32540607 3.86170077 -15.38908768
3.95372319 0.02304144 -15.88579082
-0.77870703 -0.13918844 -10.34497070
0.29983306 -3.87952852 -15.52117157
4.04418802 -3.11044312 -14.29037666
3.80528831 -1.98881817 -10.93560123
-3.70102549 0.91587120 -9.04321480
-0.69429618 3.92521453 -10.07435131
1.21679235 2.35881329 -9.28406715
-0.41889045 2.45279884 -10.07271767
0.41745606 4.21796608 -16.24850845
2.26250696 2.21340084 -9.12629700
1.40477574 2.08476591 -9.29928780
0.39125904 -5.40832233 -13.47754002
3.71119475 3.79129338 -8.95366955
3.94467688 -3.36402607 -15.14562035
-3.24343252 -3.13965011 -16.85009384
3.56105947 1.74134350 -11.31505203
3.91989994 -2.44804978 -15.79704380
-3.14407921 4.07940912 -8.68450356
-3.34584880 4.02673912 -13.10769844
4.04037571 2.64089942 -12.66347694
2.49531269 2.88102770 -9.08094501
1.35293233 4.41391039 -13.00511169
-0.26798329 -5.04368114 -12.32292747
3.58901978 -2.36365914 -13.77009201
-2.38249278 -3.92977977 -10.10792351
-4.14070797 3.64190221 -16.20523834
3.12651682 -2.12073827 -8.79139996
2.73198700 -2.05971575 -12.39113235
3.95825481 -0.77378488 -16.76142120
-4.02861404 2.33190489 -10.63128090
0.24821344 -1.13844359 -15.28357124
1.74551964 -0.18085678 -12.72928619
3.38210845 -3.41407418 -8.96962547
1.04773915 2.60186505 -9.63664055
-3.72208357 -2.28936124 -14.20265770
3.93809652 2.59492016 -14.36283016
4.00035095 -1.73808169 -9.39247322
2.20723796 2.04331708 -16.94974518
3.83017325 1.75182498 -15.24165344
0.49684733 -3.06026840 -8.73950481
0.68532658 -3.91753292 -10.96801758
-3.12502742 2.31769705 -13.78268719
-1.97107005 3.86297894 -10.26721764
-2.63255954 -4.03231907 -10.63313293
-4.01272726 -1.25671530 -16.63428497
3.93105102 -3.46200085 -15.93155670
0.67402482 4.19089842 -14.26438427
-1.75294816 2.04693961 -9.38928890
-1.70045114 -4.04618073 -11.00049496
-4.01408291 -1.93703377 -16.19995308
-1.98944986 2.34816694 -8.85382175
4.13047504 -1.12601924 -9.75820160
4.04590225 -2.36307716 -9.83487892
-1.67236888 -3.25083947 -16.85080338
-3.77336764 3.96276140 -9.52799320
0.35353348 -0.31298730 -10.30696487
-3.87170458 3.96262717 -11.28664207
1.56717014 -4.16070509 -13.43890953
-0.57298315 -3.73645830 -16.45156479
1.38911295 4.23597860 -15.20048904
-2.55596089 0.39583272 -16.41532326
3.80230832 1.73722708 -14.84829903
2.40216851 -2.60137963 -8.90032959
0.91204059 -5.46492767 -12.71284294
1.71904910 -4.40963268 -13.63971519
-1.74615729 -1.17585254 -15.69813824
-3.58963084 -2.31029606 -13.93886185
-4.15782022 -1.43167913 -10.27944756
-3.16531706 -3.92078090 -13.03807354
-0.53182894 -1.53138983 -10.08724976
2.14315820 1.78012526 -16.84329224
0.15611094 -5.23270082 -13.62295914
-3.91395926 1.98533118 -17.09755898
2.32066345 -4.13878822 -10.38254166
1.82582688 -4.02578354 -11.89611244
-3.60602760 3.55864382 -16.94446564
-1.70385599 -0.22945115 -12.14966965
4.01267672 2.34025097 -11.21869946
-1.44620538 2.32119751 -16.32813263
3.43930936 1.20337343 -15.09328270
2.32368612 4.33519793 -16.38006783
0.00822777 0.75151676 -15.47721577
-0.78715682 -3.56234622 -15.37535572
-0.82635391 4.21286345 -16.26860237
0.05138255 5.02391577 -13.99392509
-4.06930065 1.04773283 -9.17346764
-2.41615653 -3.88184905 -9.40933800
-1.53209639 -0.92666262 -12.53057480
-1.33549881 1.26349843 -15.60899067
0.34743574 -0.64152759 -10.26717472
0.47702539 -4.55793524 -14.38976192
-3.94051480 2.94987011 -9.54973030
0.39988792 -5.34437990 -13.42635155
-1.64441979 -3.89326572 -17.04428482
-4.08943558 -2.40977049 -15.34317303
0.91174138 3.79137874 -15.64828110
1.69519114 -4.16183710 -12.82354355
-1.67655182 1.09377396 -14.64510441
2.48388696 -0.80395919 -10.74752808
1.90519369 -4.01931381 -13.79730701
4.06481028 -3.11873460 -15.41052437
3.95159316 -1.59658372 -10.14120865
2.53253675 1.40939331 -9.04662800
-3.59258986 0.71692169 -8.68403816
-3.56479764 -0.92858177 -15.39947701
1.31338549 4.33436155 -14.00115299
1.16233695 4.04869652 -15.06370163
1.11154389 2.39326453 -9.77411652
1.79327285 0.40650135 -11.22210121
-0.18954745 -5.41824579 -13.55326653
3.86515856 -2.97241902 -12.76390266
-3.22407007 3.95213723 -13.74963665
2.77380824 2.57730079 -13.36419392
0.60986555 -0.53558201 -15.57264519
0.56753200 -2.09937644 -15.91200066
2.89298797 0.38422069 -15.29272461
3.73116112 4.02780962 -10.72083569
-0.16046603 4.01380014 -11.03153229
-3.79082036 -3.51540613 -9.85676193
0.17608508 -5.35280514 -13.53563595
4.04787779 2.35212851 -11.00546837
2.38247108 2.21501422 -12.91202068
4.14401865 1.70077336 -16.05331993
-2.68120170 -3.80974388 -13.58584595
-0.29331857 -5.29083014 -13.41275311
4.25277805 -1.87249207 -9.60847092
1.93936813 3.08870411 -16.67182350
1.63337541 4.16312790 -12.16051769
2.98699594 2.45725083 -12.79584599
0.09422777 5.31036186 -12.38896847
-3.93184400 3.98141098 -14.46954060
-2.62747192 -1.28099418 -9.15132809
-0.00666075 -3.04931140 -16.61614037
3.97855926 -1.88913155 -16.06659889
-4.16391802 1.64200914 -8.68058395
1.56959331 -4.02082348 -13.49459743
-2.01405692 -1.53638208 -14.40075874
-1.59599304 4.00583887 -16.44178581
4.12076139 -0.99588251 -16.28964615
3.26809788 0.57443631 -10.31630802
3.00445604 3.94748592 -10.89066696
0.37294000 0.97834682 -10.08448219
-4.03312874 -2.59989715 -15.52764511
-1.47498488 -2.03390288 -16.18518639
-2.12337947 -1.02490652 -14.94428253
1.74004471 1.83872569 -13.57776356
-1.43023336 -2.59095049 -16.80967140
3.99236369 3.67651534 -13.90421677
3.40692425 0.69068354 -8.94768715
3.89331317 -2.36958504 -11.81979179
1.63457441 -0.25722447 -13.32682037
1.64621663 -0.42808425 -13.22473717
2.63414454 4.05057478 -16.65121651
-4.07724857 1.93321848 -10.04222488
4.12783194 0.85644650 -16.88924599
3.77683163 1.90986013 -15.23626137
4.07697058 1.36175561 -10.53632259
1.71864164 1.64488614 -12.22234726
-3.96643972 -2.81390691 -12.12636185
-3.97205353 -2.85298634 -12.47033405
2.44192410 3.99895024 -16.70034981
-0.95304453 -3.97074556 -16.72186661
1.94318306 0.05774116 -14.16491795
3.35254049 -2.55687404 -8.96463585
-3.54544473 -2.62161088 -12.78425503
-1.73256290 0.49340838 -13.88623333
2.60203314 2.18079185 -13.24969769
-0.59494895 5.33657503 -12.85696697
-3.91653872 -3.42325735 -15.84733772
-3.27238011 -1.70596433 -9.01555157
3.51744580 -2.65898776 -12.19985962
-1.31802893 4.02785540 -14.40310383
1.86769438 -0.77332038 -12.09113121
-3.68559003 -3.79451990 -13.70699787
-3.65270114 -4.22718287 -15.26459408
0.74677336 -3.93988919 -15.27417374
1.08220494 -1.74123585 -10.30310917
1.66908419 0.87323701 -11.99322319
3.74277210 4.09755802 -10.85049629
-1.19109464 1.46917737 -15.62982845
-3.95357728 -1.39955425 -10.46983242
2.96743560 1.97258866 -9.00597954
3.89827418 2.54266095 -11.63661289
1.77642000 1.02341068 -10.03274155
3.43000579 -0.81628567 -16.75043297
-3.74223304 2.64783144 -16.90393066
-3.93778014 2.45446897 -10.20194244
-3.89677548 -2.96035981 -13.99149609
-3.72027326 2.60507703 -13.96740723
2.75469828 3.73592782 -16.77387810
4.06262302 2.86441803 -9.27835560
-4.00433445 0.44258994 -16.69952011
0.22986999 -4.18111944 -14.71742058
4.15543747 -3.26578259 -12.15756035
3.75500250 -0.81763405 -8.66728783
3.91221142 -3.66165352 -12.74814129
0.39834788 -5.36722088 -12.04824257
3.92263484 3.29805303 -13.31695843
2.96471190 3.53182936 -9.03130531
4.00198317 2.65735936 -11.51201439
-1.76499450 0.38656890 -11.82951355
-4.03922176 -1.15108573 -9.11119652
2.35280275 3.89978552 -10.15547371
1.78902233 -2.97790980 -9.08289623
-0.64211857 5.38890076 -13.73394299
-3.98985147 3.78937531 -9.50069237
-0.99468142 5.47590208 -13.32115746
1.35144067 -4.60171080 -12.46425724
0.75948536 -2.80311346 -16.86829185
3.43434453 -3.98757792 -8.78143501
-1.76919603 -1.50905192 -15.53989220
-1.44587827 4.11525679 -13.63742638
-3.96567225 3.40874028 -16.61167526
0.24444984 3.07391858 -8.94612026
-3.51795745 -1.17498410 -15.02099705
3.72450328 -1.98867261 -11.24421215
0.22560281 4.10795689 -16.88445473
-3.54946351 2.78575993 -15.59497738
-3.94173408 0.91946363 -16.85188293
-2.07346320 -4.07216263 -16.42153358
3.75813007 -0.40405655 -9.04374409
0.53637499 -0.82677382 -10.07332897
-1.06920230 -4.64652300 -14.13394928
-0.06395210 -1.10857284 -10.41217232
1.80579019 -3.95998883 -11.89666080
-1.67394280 1.28017807 -10.02532291
-1.39427114 4.73275328 -12.13247967
3.05486393 1.07601357 -16.85990334
1.28648031 2.27239442 -9.20697975
1.75965118 4.01463842 -11.68486881
-4.14671564 2.97832561 -9.06288147
2.34986901 2.87157559 -16.61034012
1.69234228 0.76757848 -11.51186752
4.21644306 4.05889845 -11.39798546
-4.15650797 -1.16838896 -16.39161491
1.77384639 0.95982635 -13.44085693
-4.07892466 -3.23632598 -13.42030907
-2.03961897 3.95204210 -13.09375191
2.80605459 2.02481365 -13.99565983
-3.58067727 -2.48086095 -12.22278500
-3.17083669 4.23993492 -12.90601730
-1.23155665 1.76502717 -15.39221096
-2.08388352 -1.22712493 -14.74823761
0.28259608 -1.15122986 -10.23186874
2.84366822 -1.25615358 -9.29441261
-3.84549832 -3.75608802 -14.71696472
