-0.25707966 0.69054383 0.78008884
-0.73517627 -0.36384195 0.72362828
0.98881292 0.40880671 -0.28621778
0.27189592 1.24617016 -0.20199853
0.27530843 1.26069820 -0.42049658
0.20910357 0.28511229 -0.50194919
-0.47312620 0.35740864 0.79104108
0.88075143 0.45659655 -0.75142157
0.25701642 0.10444880 -0.53242022
-0.87167537 1.20537591 0.18414751
-0.99843252 1.08680296 -0.74563909
-0.99927771 0.68551308 0.09906564
0.37965608 0.57349294 -0.77760369
0.58639145 0.08347771 -0.52236193
-0.59197330 1.23700523 -0.56655163
-0.77156079 0.24574161 0.07335114
-0.09662891 -0.55820894 0.60422277
-0.79533660 0.27329379 -0.28107989
0.70868933 1.20413780 0.02233841
-1.03582382 0.80213332 -0.37672272
0.21154258 0.92622709 -0.78933966
0.99957711 1.15318370 -0.50558716
-0.06924193 0.37486741 -0.74143702
1.02202106 0.32078087 -0.43216658
-0.29077548 1.37409949 -0.25795308
0.97393483 1.21015644 -0.63302261
-0.77239728 0.12105998 0.60211045
-0.61099231 -0.49320072 -0.18526258
-0.07691983 -0.06286508 -0.20265387
-0.35511270 -0.47315490 0.74385452
0.97956026 0.24950519 -0.05430683
0.78237957 1.25936580 -0.33761388
-0.05342227 1.28184390 -0.28687364
0.43719900 0.73886186 0.48098880
0.07819632 -0.11816925 -0.25033283
-0.74881756 0.20433190 0.24707888
-0.76059401 1.20043039 0.38215995
-0.96476704 0.42657110 -0.81338263
0.23087572 -0.42744040 0.35665378
-0.35581639 1.20095515 0.78483874
-0.63658547 0.81643355 0.71358424
-0.63001347 -0.12060279 -0.25995970
0.21085168 -0.35560590 0.62171239
0.02254986 0.80501747 -0.70487839
0.49832031 0.00915894 -0.30760053
0.09014238 1.02279496 0.76514262
0.67758763 1.28751326 0.13493742
1.01522148 0.99649227 -0.14010398
0.34487268 0.09235957 -0.48078629
-0.96880382 0.93415904 -0.79185486
-0.83122957 1.30663681 -0.57938278
0.00821273 1.48035359 0.57771349
-0.11718726 1.54497969 0.31590691
0.17171203 -0.53149378 0.23206066
0.38687059 0.96655560 0.25393587
0.45744738 0.09956980 0.39245123
0.22404677 -0.18851852 0.43540445
-0.31470817 1.13128781 -0.78934944
-1.01596367 1.16124296 0.14760740
-0.27287036 0.31891885 -0.75606352
-0.13337865 0.54555023 0.75350237
-0.38998395 -0.00708157 -0.42279851
0.72678137 0.85910404 -0.71391875
-0.22878942 -0.51103747 0.74974877
-0.98068213 0.43401590 -0.77296698
0.32264155 1.28030849 -0.19340014
-0.27773827 0.09183493 0.70328188
0.98211193 0.69684780 -0.23050880
-0.64418304 0.22969976 -0.42631283
0.12401570 1.22779250 -0.56418467
0.23314491 1.26104045 -0.69545239
-0.05788900 1.51643932 0.76180381
-0.74934340 0.09738314 -0.21887842
-0.37000543 1.49958301 0.39309064
-0.33544627 -0.23535269 -0.24623169
0.49650821 1.15069509 0.23455451
-0.97011316 0.66407418 -0.25063846
0.21981594 -0.39033103 0.39541426
-0.17658749 0.83942652 -0.72262144
-1.00012839 1.22270787 -0.36715001
0.46928141 0.27346247 0.38121739
0.33810151 0.63610691 0.54714596
-0.72256112 0.28373277 -0.29749253
-0.61045611 0.17052233 -0.28718811
-0.17603879 1.35440028 0.74497211
-0.17053410 0.62929505 0.71830481
0.50785869 0.09369141 -0.40385282
0.19227770 -0.26428002 -0.22252694
-0.60190350 -0.36857653 -0.25906688
-0.78817439 0.24371105 0.62301767
0.06253374 1.52091801 -0.03176617
-1.02715993 1.04531062 0.12474522
-0.94086444 1.06047428 -0.71150672
-0.31432134 1.20151079 -0.61275065
0.59533846 1.25202084 -0.12495039
0.90106750 1.24244106 -0.00627926
0.01435950 1.48358059 -0.05024900
0.49960184 0.52137804 0.30312571
0.65739703 0.41311654 0.32018018
-0.49365455 1.24379349 0.73877293
-0.11631303 -0.12621391 0.70044184
0.71813613 0.87208122 0.20952676
1.01431453 0.94236147 -0.10184547
0.63724506 1.21907210 0.22517543
0.12308309 0.64218616 0.71749550
1.00569153 0.75352097 -0.54433095
-0.56969023 -0.41182274 0.74747354
-0.54579467 1.01095915 0.78472739
0.50077790 0.39810571 -0.70251191
1.00247991 0.97250426 -0.22763874
-0.86009604 0.25991562 -0.55986148
0.92483693 1.21975422 -0.58956665
-0.33982861 1.24109483 -0.73133063
0.42435533 1.18951643 -0.71962833
0.00890145 1.50991225 0.55204445
-0.79108095 0.34908256 0.27034089
-0.25862274 -0.49789608 0.62817538
-0.97377497 1.13992381 0.00725645
0.35325176 1.29286933 0.12284318
0.79805595 0.41872203 -0.73688662
0.48812035 0.62866628 0.28089225
-0.56563079 1.46374536 0.17062198
0.78984582 1.27980947 -0.65352243
-0.31571516 1.22047973 -0.50526273
-0.69260365 1.48889899 0.17105491
-0.73522538 0.87632799 0.24961928
-0.26530921 0.35274729 -0.75125819
0.07258052 -0.45475560 -0.09520306
0.69672686 1.02412105 0.26837790
-0.99283671 0.67759645 -0.59273279
-0.39154124 -0.47578675 -0.05845252
-0.69063449 1.08759904 0.74299949
0.10376039 1.04353380 -0.78877962
-0.71898669 1.51772094 0.54180610
-0.43046427 1.53798997 0.28955868
-1.01687491 0.51724446 0.11277580
-0.70851469 0.25165170 -0.30843493
-0.72103113 0.78215837 -0.80098993
0.61958075 1.26076937 0.02817196
-0.08094607 0.33976674 0.77407950
-0.38576752 0.43843555 0.76058984
1.00194836 0.99389839 -0.11285812
-0.79216331 -0.26479733 0.21192825
-0.96568269 0.38629830 -0.74926049
0.64661372 0.48051003 0.22418596
0.59726828 0.40839747 -0.69837135
-0.98191327 0.43097818 0.16730185
0.19038126 -0.49932033 0.72713268
0.42394152 0.59221411 -0.78967512
-0.22260921 1.47472560 0.60590452
0.60600853 0.22179452 0.01507717
0.93228298 1.06185627 0.26527160
-0.25293803 1.19630432 0.71248811
0.54064518 0.54438615 0.42548478
-0.73425090 0.87847364 0.71026295
0.49469605 0.39100221 -0.72604913
0.29812136 0.48231202 0.52089703
-0.68225968 -0.47036636 0.10500995
0.51003426 0.37223226 0.23230083
0.46029684 -0.03255886 0.16002749
0.10419451 0.25259632 -0.48684317
0.44116074 0.10514984 -0.17966755
0.20932563 0.63468146 0.73048466
0.56493664 0.23006311 -0.40449381
-1.00618231 0.22925445 -0.40474033
-0.54974502 1.53215218 0.54105771
-0.70061463 -0.05680084 0.32471478
0.33038223 1.22244132 -0.50753510
0.14693531 0.11508110 -0.52152103
0.65240359 0.48719057 0.23725532
-0.86499619 0.39548105 0.26068947
0.62035006 0.26292640 -0.62050813
0.05132639 1.17350161 -0.75962037
-0.72807556 -0.00902182 0.74566662
0.26250172 1.26670003 -0.08628645
0.93133277 0.61152345 -0.44064844
0.32553899 1.08289504 -0.76465058
-0.63287359 -0.46475691 0.30704376
-0.52443099 0.25243077 -0.75001395
-0.76453573 -0.47915983 0.66930598
-0.76048571 0.34944135 0.65626097
-0.55436105 0.25610062 -0.46240473
0.30513507 0.56518698 -0.77186430
0.62302434 0.66241068 0.24391130
-0.70624441 0.87824839 0.27793264
-0.38760352 1.51110053 0.38245940
-0.06863116 -0.50878084 -0.16983399
0.45364621 0.24420035 0.15803376
0.75775647 0.69728756 -0.77325046
0.25150043 0.37468645 0.52167594
-0.13016962 1.54272032 -0.22902952
-0.74718308 1.35434699 0.66160500
0.82811493 1.04765546 -0.76378542
-0.08163876 0.38280627 -0.75042999
0.88765323 0.25076595 0.01421934
-1.03175116 0.55099380 -0.36413914
0.21570724 1.26000166 0.73507935
-0.08436751 -0.57155871 0.73890895
-0.33727443 1.53468680 0.22270057
-0.16799149 1.41899347 0.77639085
-0.70474440 1.41553760 0.74984652
0.14727096 1.13467491 0.78684527
0.78367066 0.47104260 -0.73355716
0.23922047 1.45939183 0.07753532
-0.46805573 1.31121564 0.76209027
1.01017761 1.17583656 -0.67187941
0.23495197 1.26236236 -0.27050966
-0.72882342 -0.21976149 0.46190184
-0.02631456 -0.48237622 -0.09123097
-1.00457871 0.72594458 -0.57204622
0.29936764 1.08882976 0.78172189
0.66092718 0.26667285 -0.67959642
-0.76983011 1.06601167 0.67412883
0.34540018 -0.02707642 -0.04085080
0.94841689 1.23486352 -0.21271297
-0.41239250 0.28929365 -0.76919121
0.53505671 1.27795029 -0.67964280
0.56081408 0.41215116 -0.72043407
-0.40337846 -0.48496401 0.30168515
-0.28302446 0.91302115 0.75105572
-0.07889178 1.47416925 0.23655723
-0.70591795 0.18882552 -0.39025062
0.98845917 0.73060274 -0.51196790
-0.74952263 -0.21479994 0.22070239
-0.98830521 1.25296855 -0.58689541
0.91544282 1.25824952 0.02049440
-0.06946988 1.29049563 -0.43603602
0.33849430 0.23274532 -0.59275168
-0.69189900 0.33034414 -0.74838454
0.59671706 0.22452646 -0.04111677
-0.74501604 -0.48826891 0.08329245
-0.56631660 -0.41834241 0.78725594
0.75449234 0.91924113 -0.78356403
-0.69797897 -0.35073513 0.26023719
0.80107915 0.16722152 -0.68697077
-0.62394166 1.47031641 0.73617244
-0.12757844 1.15975523 -0.76109666
0.79891866 0.39391768 -0.75526255
-0.73181200 1.22268593 0.17586531
0.98038965 1.10287905 -0.69106627
-0.21916361 -0.52860165 0.24370840
0.08405163 1.45793867 0.27451596
-0.44579515 1.28491199 -0.21588713
0.36300269 1.07107723 0.23279738
-0.62362182 1.13637996 0.74750561
0.38588625 0.99921572 0.36914429
1.00147867 0.51536661 -0.20061617
0.22509997 -0.19042748 -0.26013014
-0.41672957 -0.49453884 0.14348970
-0.41810933 -0.50404704 0.27155712
-0.78248155 0.76949608 0.47041494
-0.89022613 1.22091794 -0.03353600
0.50647455 0.23227841 -0.57263345
-0.73929232 1.45748043 -0.22410560
0.62278628 0.25319234 -0.58181125
0.75396818 1.24543929 -0.16536698
-0.46827626 -0.52025092 -0.20850390
-0.72516185 0.33391517 0.68542451
0.90732574 1.02669692 -0.73006642
0.17048687 0.32312214 -0.81615400
-0.94595277 0.48583019 -0.74895263
-0.98297518 0.46710664 -0.25889650
0.26784122 0.03955263 0.63597345
-0.91473162 1.17532516 0.17558463
-0.44246596 -0.02082098 -0.48263270
0.88409585 1.26831472 -0.30005518
0.27007023 -0.20804787 -0.12130826
0.16859953 1.21635818 -0.74519706
0.68266630 1.26596284 -0.75993812
-0.31243637 1.46235299 0.54248750
-0.72364122 0.24294606 0.22990145
0.98953235 0.98649037 0.25654972
-0.92279160 0.81660318 -0.77385408
0.90721589 1.21035886 0.22409734
1.02994573 0.82753229 -0.19971962
-0.98548549 0.39171892 0.22021173
-0.42192000 1.44685972 0.49279666
0.49465427 0.02284017 0.22031260
-0.87404430 0.35565501 0.26397523
-0.10176308 1.12740064 -0.75471288
-0.52226347 0.55310750 -0.74910498
0.55243796 1.24736023 -0.30359849
0.16415471 1.41063178 -0.00587480
0.22958624 1.32976723 0.05896848
-0.12963638 0.64244103 0.75915313
0.89620155 0.18897274 -0.60117531
-0.45431575 0.13890192 -0.48586074
0.11485005 -0.48439401 0.14367652
0.25486293 0.00848085 -0.43803167
0.47685552 0.33933657 -0.75356692
-0.61716378 -0.47327501 0.31023765
-1.00797212 1.12379146 -0.20309888
-0.07075576 1.50816321 0.66073322
0.13240881 1.51658618 0.02081474
0.32286426 0.38336456 0.44773048
-0.11899476 0.18529251 0.75410408
0.22388679 -0.43202972 0.73550022
-0.51795936 -0.14379942 0.69365084
0.88497281 1.24043036 -0.45815611
-0.58249903 -0.35993993 0.70585638
0.41210806 0.48148358 -0.76677644
-0.19789663 -0.03582066 0.74597907
-0.76853442 0.24948660 0.70285541
-0.31988993 0.20946586 0.74116939
-0.46294424 -0.03139848 -0.23850326
-0.87572128 0.70497453 -0.77852112
0.98877358 0.25467652 -0.01990789
-1.01999938 0.91767544 -0.09536854
0.94612390 0.20018026 -0.19548196
-1.02028239 0.91403002 -0.18320809
0.39147758 0.25190365 -0.52877295
0.58164203 1.23315144 -0.27253368
0.06494495 1.19808722 -0.45117897
0.49755025 0.10451013 -0.26573801
0.82244873 1.27317476 -0.29838493
0.00978353 1.11073816 0.76187193
0.13375019 0.31613129 -0.75342709
-0.29661271 1.55220163 0.45641661
-0.36650580 1.05197096 0.75420129
-0.03620160 -0.23589408 -0.23962785
0.75413555 1.16349339 0.23537219
-0.46456993 0.87932718 -0.73376304
1.01686096 0.79646647 0.10784897
0.44011471 0.52101809 0.52209640
0.51736075 0.24943531 -0.44477376
-0.76459801 0.06057230 -0.01996785
-1.01381314 0.64675045 -0.61926550
-0.87428170 1.20566750 -0.74889868
0.95013034 0.52710390 -0.02037179
-0.78795874 1.28567386 -0.63717115
0.72507983 0.99661350 0.31796867
-0.23332518 -0.00818682 -0.22816595
0.20684563 0.28489411 -0.76654094
-0.32226911 0.00722191 0.75530374
-0.08816604 -0.52985859 0.47793072
-0.68678814 1.25818753 -0.05710664
-0.72023410 0.03339309 0.70919657
-0.47394601 1.05820048 0.71726596
0.27132896 1.16727483 0.56555563
0.45233411 0.51832134 -0.74467140
0.23731339 -0.30908263 0.16468847
0.95935559 0.41627547 0.05442766
-0.77403378 -0.26125139 0.04483630
0.65572649 1.23431683 -0.57739329
-0.88927013 1.12652349 0.26562896
0.07796886 -0.50907576 0.56477648
0.52062464 0.81730378 -0.79947490
0.22183482 1.39587510 -0.19731484
-0.27830076 -0.44802207 0.74630553
-0.01118750 0.87220311 -0.72224325
-0.50629938 0.22681063 -0.31244844
-0.42029119 0.01759058 0.75118774
-0.27697420 1.51897061 -0.06601974
-0.06499935 1.49840283 -0.23115389
-0.70672029 0.53512883 0.78317380
0.27017429 0.13203347 -0.54765636
-0.18543959 0.74111867 -0.79625714
0.60320932 1.12048125 -0.71255791
0.94162697 1.24442744 -0.62848836
-0.90819788 0.62921512 -0.73545784
0.22105773 -0.35924828 -0.14972544
0.45806420 0.36152887 0.40289789
1.03262055 1.18206096 -0.47274017
0.87375122 1.22124541 -0.73794699
-0.72790885 0.77951074 0.52104652
-0.42682958 -0.22302723 0.69440770
0.29658189 0.35372365 0.57820427
-0.91765487 0.29275692 -0.03808809
-0.33170214 0.85601854 0.64384347
0.02355213 0.94378316 0.77569968
0.18674488 0.25408259 -0.50128847
0.27212307 1.36495900 0.07188915
0.03080844 1.47664690 -0.26198158
-0.38546896 0.07563636 0.69882733
-0.54056364 0.59330565 -0.72348428
0.26031870 1.45448458 0.15793543
-0.43732798 0.13256225 -0.47791344
0.81306332 0.25918329 0.15670788
-0.53637809 1.51751375 0.31724584
-0.73489922 0.21400145 0.72313648
-0.96660161 0.55557942 0.21133685
-0.13003385 0.54761726 -0.79911864
0.39752293 0.00745684 -0.40460411
-0.21539028 -0.27507961 0.72046393
0.20766005 -0.42412686 -0.26580122
0.65300882 0.25582838 -0.70254308
0.30623665 -0.15186846 0.44571060
-0.18497735 1.52164996 0.45303103
0.16137302 -0.41139162 0.76612145
0.72038031 1.16051161 -0.13484590
-0.60630739 1.41892064 -0.24443756
0.20695449 -0.09280241 0.03028250
0.63440746 0.25392538 -0.24002631
0.23247743 1.29054332 0.52508718
0.23801751 -0.06316823 0.37244120
-0.63274193 0.21305218 -0.36192888
1.03240573 0.59236354 0.02831696
-0.06774990 -0.03258771 -0.31828141
-0.71452826 0.23827302 -0.19593348
-0.12586486 0.21667778 -0.64812511
-0.58935034 -0.52616382 0.13042328
0.52603728 1.25657785 -0.15215716
-0.12980956 1.52140665 -0.00112940
0.07126644 -0.55450523 0.41909009
-0.31987807 1.19665647 0.74068725
0.19379035 1.14705062 -0.80803347
0.06720296 1.51145101 0.43868318
0.80429995 0.24910337 -0.14937195
0.12771040 0.65343064 0.74321479
-0.47751009 0.43409520 0.73399585
-0.89451766 1.10311651 -0.74736655
0.73345870 0.25397748 -0.10385841
-0.31003436 1.03517747 -0.74669296
0.40127069 0.54609740 0.48640877
-0.10908381 0.28465509 -0.53112006
1.01041067 0.26131815 -0.41182035
-0.66704607 0.72829700 -0.79900062
0.07336952 -0.45966083 0.51613551
0.38092396 0.47966588 -0.76527774
0.13578953 -0.48942763 -0.18562903
-0.15565450 0.69057995 0.72418046
0.99351710 1.21078885 -0.17785650
-0.75771290 -0.23698062 0.75070554
-0.03246274 0.11557615 0.78891009
-0.85301542 0.78283525 0.24314536
-0.70977521 -0.05593979 -0.13723509
0.72886193 0.25417465 -0.78664190
0.64358741 0.24111143 -0.64914393
-0.60149592 0.91712767 -0.76320529
-0.81820488 1.23243046 0.14598982
0.54366821 0.30069709 -0.44732964
0.16491458 1.21155083 -0.73346770
-0.65909702 -0.48136628 -0.02030445
-0.95673019 1.17095125 -0.75478959
0.39384076 0.00573286 -0.26610592
-0.05107050 1.22086430 -0.70086938
0.26379544 -0.29580933 -0.33364376
-0.77858448 0.18537766 0.47590896
-1.01744747 0.92193639 0.22007895
0.71316993 0.49552593 -0.75085002
-0.77822292 -0.30664527 0.57701945
-1.00982988 1.03045964 -0.04673189
0.33574405 0.00217807 0.45473585
-0.54006916 0.31661588 -0.72788572
0.06378668 0.12027881 -0.53487104
0.47157386 0.52313554 0.35430345
-0.67279357 0.39736217 0.68968511
-0.47445461 -0.05560291 0.76646173
0.41051275 -0.02432704 0.39256054
0.92170721 1.07656336 -0.80078000
-0.44478479 1.45007873 -0.19851549
-0.33235225 1.12781191 -0.79322678
-0.99768734 1.08704591 -0.46938035
0.15907471 0.43596259 -0.74831128
0.80519444 0.49501228 0.18595114
-0.14544888 1.12724090 -0.69738758
-0.96088088 0.44162530 -0.26547909
-1.04100966 0.79402441 0.03300165
-0.72834909 -0.03397101 0.74420738
-0.70417672 0.66770792 0.48285306
0.94634342 1.07636595 -0.01085788
-0.43711320 0.32519317 -0.74962962
-0.17718613 0.26121366 -0.57583380
-0.47432959 -0.41199911 0.74327022
0.34165293 0.58487982 -0.81641632
-0.71630454 -0.16470599 0.67818177
0.12658152 -0.51952636 0.17286982
-0.50702107 0.23830739 0.73848474
-0.28186041 0.45208073 0.74533570
-0.26336178 0.34120482 -0.69809496
0.23999411 -0.30017406 0.28575560
0.30154395 0.46439478 0.50699180
0.48584345 0.32922882 0.38573486
-0.85632920 0.64570636 0.23306806
-0.73935115 1.44655943 0.00125099
0.56970781 1.28511560 0.17322828
0.75071400 1.07577372 -0.76680493
-0.34097198 -0.43287289 0.65682501
-0.61197853 1.48609221 0.66802841
-0.21614775 0.65792710 0.70755446
-0.81936353 0.23731032 0.73217064
0.03518105 -0.03673583 -0.34463632
-0.99842459 0.42912900 -0.65548503
0.29267082 1.19761157 0.56299675
-0.84851861 0.24233267 -0.34722361
-0.82331371 0.38708222 0.21764876
1.02880943 0.56270254 -0.59352809
-0.19567795 -0.06288600 -0.22804345
0.67261261 0.29080474 -0.46157488
-0.98226279 1.02009141 -0.71417177
0.24324344 1.28810644 0.52160573
0.00455476 -0.42444420 -0.29716584
-0.99424583 0.65624475 -0.17937310
-0.98102063 0.78257823 -0.27599114
-0.48098379 -0.23358011 -0.24306241
0.06929807 -0.01392061 -0.25260434
-0.30867648 -0.44466257 -0.25082588
0.27375969 -0.01876819 -0.52443975
0.12468314 0.80308008 0.82032633
0.02068146 -0.40490109 -0.22563171
0.25003159 0.49665716 0.61586028
-0.65531760 0.96748477 -0.84881806
0.09310438 1.47340965 -0.00015689
0.28711540 -0.33188397 0.61932361
-0.53009373 1.47335696 0.62526160
1.00327289 0.45207098 -0.05677420
0.97478640 1.05255175 0.26148972
-0.90661496 1.25430918 -0.16730677
1.01466370 0.41433871 -0.45726410
-0.69889748 -0.35370696 -0.22277445
0.20483941 0.98060513 0.68144888
0.48600867 0.13491744 -0.36532202
-0.05073338 -0.10658926 -0.25267881
-0.72726166 0.15148309 0.19839782
-0.20096925 0.45134807 0.74144113
-0.42010796 0.48408988 -0.73797929
0.24995282 -0.47125852 0.25128475
0.91261882 0.21763301 -0.05550739
0.96764618 0.32404298 -0.73449129
-0.54287559 -0.46723258 0.55733484
0.96661043 0.88351882 -0.23408554
0.95646232 0.66772938 0.27890176
-0.80058908 0.62049842 0.30004624
0.25662348 1.29504085 0.61369300
0.33327216 1.00200701 0.46858561
-0.79488695 0.23752010 0.19137768
-0.03878655 0.49700463 -0.76098138
-0.60152406 0.28232294 0.71801788
-0.09183020 -0.58429325 0.07916947
0.87305456 0.42546582 -0.75163162
-0.41835478 -0.05638081 0.78857267
1.01821256 0.69212991 0.15660441
0.53226966 1.26264012 -0.24679010
-0.98888940 1.13250589 -0.06322767
-0.18563494 -0.09131986 -0.22270550
-0.73531950 0.05458045 -0.09779012
0.93539512 0.61026269 -0.04951476
-0.07078880 -0.20633548 -0.22042789
-0.68515772 -0.52789247 0.54004610
-0.64952916 1.49075603 0.29572499
-0.36769721 1.51212561 0.10790489
-0.04607776 -0.50909603 0.27184010
-0.24198827 -0.10511434 0.72825104
0.17600454 -0.06570637 0.72885573
0.16041189 1.50775766 0.67239821
0.96775788 0.51765537 0.08021825
-0.69638014 -0.34642988 -0.24573790
-0.91815782 1.21929407 -0.24653888
0.97999954 0.96166432 0.07656226
0.36039940 1.08386171 -0.77654499
-0.74494535 0.83477241 0.32928357
-0.28904226 -0.23619682 0.77462900
-0.67246330 1.31253648 0.72241884
-0.29981178 1.26128364 -0.54645640
0.05669593 1.22363758 0.75794584
0.22958383 -0.06758291 -0.28608909
0.76650482 0.66618526 0.23262905
0.25277165 0.55917257 0.47033539
-0.31084165 -0.51154852 0.46855220
0.06066512 0.17744833 -0.66370475
-0.81304896 -0.10032666 0.09944688
-0.51904804 -0.49991250 0.20886773
-0.74919820 1.26783204 0.28086248
-0.77839768 -0.10097826 0.06268682
0.96914011 0.63395238 -0.74922615
1.01305079 0.72535551 -0.65204418
-0.83517468 0.20437115 0.67796075
0.46581778 0.15995017 -0.52405661
-0.72566795 0.68041784 0.30340299
-0.18767042 1.17268050 0.80743635
0.00742575 0.14549634 -0.51281267
0.93029785 0.25427788 -0.33320245
-0.93755132 0.47262070 -0.09971543
-0.17990895 1.46613288 0.21316083
0.15501754 -0.38105232 -0.21871285
-0.57000875 1.43304515 -0.25044847
0.56412190 1.09524572 -0.75526696
-0.63469732 1.50554383 0.46181896
-0.32260782 -0.52579212 0.52941823
-0.00555962 -0.52078879 0.64602780
0.11650544 -0.40184337 -0.17085293
0.23575050 1.26434422 -0.69425011
0.24059109 0.29539686 0.70754796
-0.74674785 1.36602163 0.39657596
-0.39948675 0.41984978 -0.74523693
-0.28137285 -0.45312005 0.06539354
-1.02096307 1.08784485 -0.43763769
0.00089462 0.45211411 -0.76055169
-0.73203617 -0.51547539 -0.00712964
0.70693904 1.06464171 0.28925020
-0.38068420 1.43184376 -0.21542549
0.46404082 1.25011373 -0.43451393
-0.33818033 0.86487448 0.75611347
0.31281489 1.20498455 0.42135277
0.67894900 0.27971703 -0.76881379
0.38338584 0.21191153 -0.68038952
-0.03157926 -0.48911577 0.55995262
0.06914847 -0.46115482 0.78570014
-0.56644171 1.10181880 -0.72302300
0.24708633 -0.15580010 0.08288466
0.73065704 1.28273201 -0.28624272
1.01096880 0.74517924 -0.27133900
-0.67330587 0.27926731 0.69978106
0.02415512 1.50280797 0.68837732
-1.00070190 0.32382911 -0.34464312
-1.00240886 0.60198593 -0.21902305
-0.73230082 -0.01964641 -0.25099429
-0.22918855 -0.30838108 0.76533192
0.28015444 0.03678128 -0.47703987
-0.35503721 0.96167308 0.72974128
0.23641503 0.33487800 0.70383412
0.47418839 0.09718859 -0.04742749
-0.75485075 1.36965251 0.63729525
0.87138581 0.86510468 0.30710050
0.56194139 1.27476263 -0.61046946
1.03301847 0.72926176 -0.01484748
0.34437442 0.56917715 0.53665310
0.29606897 0.17479983 0.73225611
-0.09288853 0.28403765 -0.73341292
-0.65945315 -0.42678934 0.71303248
-0.13298009 0.10763830 -0.52806771
0.16084975 1.28461742 -0.74187213
-0.61688471 1.45295560 0.74318433
0.97206277 0.38874382 -0.38173416
-0.16329475 1.27266550 -0.58037931
0.65925300 1.17627430 -0.30039576
-0.75715560 -0.45352864 0.14975265
-0.96184540 0.67432463 -0.05341718
0.02038408 0.33095950 0.73264235
0.39631280 0.29723552 0.48325104
0.23756076 -0.04681325 -0.26170656
-0.96420813 1.01276672 0.20183191
1.04719067 0.69623357 -0.41973403
0.98984599 0.50641519 0.17444959
-0.95928437 0.54180491 -0.03404316
0.11277951 -0.27377075 0.77001244
0.97058833 0.46771052 -0.67786002
-0.91827250 0.64579868 0.26507071
0.62117988 0.94447935 0.26797846
-0.70171714 1.52671325 0.72652984
0.26502278 -0.46288472 0.27292901
0.75322253 0.90442628 -0.71461505
-0.42672059 -0.08001202 -0.23293196
0.88587946 1.24270678 -0.07260852
-0.96579230 1.06050277 -0.38744909
0.03501996 1.42142701 0.68582302
-0.73360121 1.43613577 0.13958459
0.46972561 0.84953427 0.48500237
0.02203862 1.08939111 0.74121809
-0.70093626 1.05563855 0.69652307
0.27925193 1.50041389 0.62342042
-0.16338620 0.56916130 0.74660891
-0.62675822 1.48441184 0.64183486
-0.79439998 0.80129325 -0.75063455
0.61211771 0.89968610 -0.77505141
0.24141119 0.28897333 0.74462879
0.96567231 0.24375159 -0.61788285
-0.75829720 1.24387765 0.60523021
-0.23797849 1.15660441 -0.67171329
0.52497274 0.89185381 -0.77634960
-0.99378991 0.61887693 -0.42651239
0.73874658 0.60327595 0.22910306
0.02805863 -0.21732348 0.75739342
-0.98221070 1.01245272 -0.20230459
0.24445136 -0.05811155 0.16468866
1.03838313 1.11435974 -0.57679218
-0.72724664 1.32034636 0.36814159
-0.75288290 0.20959100 -0.08683577
-0.59628856 1.48336053 0.52971309
-0.76038837 -0.06153566 0.31460679
-0.29225445 -0.07946229 -0.36780566
0.41338637 0.03413102 0.02282700
-0.21941894 -0.49736565 -0.22418983
-0.55031049 -0.39770359 -0.27381626
-0.87134069 0.36887094 0.28151545
0.57112682 1.22860289 -0.53942144
0.97229189 0.66226590 0.04004167
0.30935493 0.10885981 0.52596325
-0.03246919 -0.53455639 0.28424168
0.22214842 -0.35173035 0.07201934
-0.66332877 1.49800932 0.05814746
0.10669847 -0.22459882 0.77382886
-0.00545822 -0.10441256 0.73359185
0.25096807 -0.05538994 -0.34767574
0.30866987 1.11710370 -0.75770295
1.00163484 0.80632484 0.22537802
-1.02225077 0.96999645 -0.44730446
-0.28878558 1.52323043 0.11388701
-1.00924957 0.75584519 0.11052161
1.01448143 0.34660694 -0.13798951
0.34492466 0.54572618 0.46856892
-0.96091372 0.50620162 -0.45504528
-0.18296945 -0.18989789 -0.25670868
-0.56833488 -0.49243039 0.22968024
-0.93463182 1.22280526 0.07774284
0.99969757 0.45891774 0.00410492
0.22706933 1.39756703 -0.21044385
-0.41144654 1.24343729 -0.61305612
-0.95530862 0.24992213 -0.01073192
-0.30345529 0.21699408 -0.55983216
-0.78755778 1.31244457 -0.20099035
-0.30673164 -0.03568614 -0.53152514
-0.74481177 0.56295931 0.69887096
-0.38518700 0.44527072 0.79918188
-0.21924120 1.43020976 0.36737162
-0.60815763 0.16064340 0.73861313
0.24659693 -0.47675508 0.65941632
0.34017164 -0.03636533 -0.43398941
-0.22203620 -0.01775932 -0.39954358
0.47204691 0.70515323 0.35282898
-0.77948153 0.06639162 0.30954462
0.31662878 0.36363709 0.47768229
0.24375723 0.13900816 -0.51984382
0.94641763 1.02617323 0.19975348
-0.65418446 1.45248055 0.44119826
-0.52898985 1.21132922 -0.24703318
-0.18001448 1.56131876 0.11756920
1.03727102 0.98033440 -0.35124600
-0.71583980 0.26399854 -0.14621285
-0.27740785 0.02932718 -0.33835366
-0.43933401 -0.44894964 0.44766426
0.22332038 0.03753036 -0.44708341
-0.77731729 -0.04473680 0.01434221
0.73975527 0.20080227 0.22746119
0.14660899 0.49108595 0.78330886
-0.96278828 1.27093339 -0.16740650
0.45365244 0.69324386 0.50165296
-0.05492716 1.50250971 0.12354854
0.95977831 0.92359883 -0.20284040
-0.75816256 1.07391429 0.74811608
0.22484383 -0.15420371 0.54955661
0.53145438 1.25271094 -0.10442501
0.91080177 1.25954032 0.05947547
0.25947788 1.26263773 -0.65595734
-0.74856800 0.21534130 0.15097281
0.63385862 0.92104685 0.21249491
0.47238573 0.59602195 0.49192852
-0.23257345 0.11454451 0.77310729
0.98362571 0.70651805 -0.35179228
0.24903093 1.29263806 -0.14189182
0.38221920 1.23200583 -0.01408968
-0.04802568 -0.30770725 0.73173022
0.99693900 0.28765559 -0.45297730
-0.86217517 0.25807175 0.13535380
0.25306106 1.46652675 0.27111501
-1.02165723 0.32892457 -0.10363986
-0.77519733 -0.35866696 -0.08630467
0.18177219 -0.05889183 -0.28117329
-0.16296880 1.46743464 -0.25797528
1.00808609 0.49905691 -0.41980407
-0.37386769 1.11927474 0.70912182
-0.31545383 -0.03416210 0.72367698
0.07965445 0.59635502 0.80038172
-0.24932054 1.49991632 0.28525311
1.04426587 0.91705704 0.06385469
-1.06422102 0.49195412 -0.15628113
1.00942898 0.28876796 -0.24463284
-0.06916833 -0.00565428 -0.30044410
0.26066566 -0.08477366 0.22061247
0.46246028 0.21861070 -0.03575269
0.53220719 0.19912413 0.15718549
-0.23889367 0.73608148 0.80330849
0.12042988 1.15299344 0.75156438
0.26784462 0.94807041 0.72463292
0.23259456 0.04624659 0.53161293
0.34402248 1.00732684 0.46671075
-0.10175975 -0.52229190 -0.08058295
0.31429455 0.85673380 0.47802791
0.38259360 0.85621107 -0.73048168
0.23046124 1.27571702 -0.68169385
-0.75743610 0.07355762 0.47976163
1.02892697 1.13274050 0.26317924
-0.50801355 1.55523384 -0.09391192
-0.37679011 1.50248957 0.20058683
0.23323172 0.50382507 0.59209639
0.24633099 -0.03957623 -0.47783864
0.24552301 -0.50956380 -0.00421237
-0.51608807 1.16834569 0.74744278
-0.58851969 0.21901783 -0.71978354
0.99248439 0.98704392 -0.07673281
-0.43286341 -0.52459133 0.65047300
-0.85566342 0.37598026 0.27360010
-0.77771896 0.75476927 0.22848502
-0.50059569 1.09835827 -0.72989482
-0.24381831 -0.47932738 -0.03687224
-0.39299220 -0.34223872 0.71741438
-0.86065757 0.27250478 -0.11295366
0.09512848 0.01918399 -0.23209167
-0.16357030 1.51827538 0.52119201
-0.75487602 0.50168377 0.26973411
-1.01100957 0.70021111 -0.20433243
0.65933454 0.29098773 -0.42922300
-0.36252227 -0.17872548 0.75205606
0.08955113 -0.01907927 0.74406832
0.24502090 1.27350879 -0.16426246
0.21420600 1.52703929 -0.08766054
0.23662128 -0.12501568 0.28490940
0.37294015 1.09237373 0.24334827
0.22442356 0.69939363 0.74781728
-0.03575488 -0.53303325 0.01334658
-0.39860183 1.51287913 0.08617955
0.13328452 1.24811137 -0.69201863
0.20539212 -0.40781498 0.26459774
-0.73992795 1.31268406 -0.15961848
0.96941316 1.29280472 0.12143759
0.25148728 1.17370951 0.63495678
-0.77255011 -0.09375924 0.10091932
0.10475877 1.55743587 0.43051296
-0.70435035 0.35076454 0.65195876
-0.33249903 0.18756634 0.71382725
-0.51728022 0.93377376 -0.73467731
-0.76271403 -0.39875841 0.30495313
0.18137231 0.28689694 -0.52683914
0.96199054 0.64373851 -0.73143220
-0.34897220 0.18286562 -0.66231561
-0.98804730 1.13858128 -0.19146398
0.82062435 1.28284907 -0.23728311
-0.75320679 -0.19655883 -0.01450612
0.96354914 1.23366272 -0.07331715
1.01411891 0.47113448 -0.14916287
0.08426707 0.26110208 -0.70622474
0.82155192 0.83362901 -0.72401321
0.24165332 0.01406306 -0.16419438
0.49238080 0.90204763 0.43120170
-0.92241609 1.20322692 -0.71985531
-0.33175203 0.54917312 -0.71931493
-0.45181665 0.25084817 -0.50233603
0.13370827 -0.52466118 -0.23121044
0.94921762 0.70673907 -0.51177275
1.01816857 0.52096480 -0.55795068
0.82835120 0.82729793 0.26125726
0.18181928 1.46920347 0.37800676
0.33318612 1.27524829 -0.47867972
0.29617006 1.23946953 -0.74170256
0.37449700 -0.01370370 -0.06705297
-0.65156806 0.22216636 -0.57433730
-0.89895582 0.80532229 0.23924631
0.19706848 1.24884152 -0.37043235
0.09217826 -0.48188251 0.26787668
0.29478365 -0.29401380 0.19105849
-0.17797276 1.48450351 -0.25392744
0.50987148 0.10799092 -0.40822607
-0.73311228 1.30356371 -0.05015123
0.23069532 1.40648198 0.50970632
0.31867015 1.25234663 -0.08991151
-0.19244117 0.83964562 0.72941554
-0.65953672 1.50214541 -0.10147608
0.31456685 -0.03656447 0.00592970
0.10034948 0.66636509 0.77938604
0.30120778 1.30861878 0.06146346
-0.11104465 -0.42608738 0.72972012
0.02637988 -0.46719480 0.76159465
0.67522740 1.18914390 -0.71382093
-0.36356711 -0.49079484 0.31204465
-0.74153161 -0.32627112 -0.26029631
-0.48548928 1.36357594 0.78018218
0.03989580 1.19408369 0.79108822
-0.48146015 0.94920748 0.78249651
0.27661684 0.19551882 0.69334412
-0.68163216 -0.22533661 0.73490387
-0.11411889 -0.05252534 -0.23855342
-0.40132055 0.11827883 -0.49383885
-0.78044736 -0.22116202 0.60415673
0.32217860 0.13320962 -0.44082150
-0.75506663 0.73344600 0.63988113
-0.74204344 0.13804656 0.51931638
-0.87046266 0.50301301 -0.71420014
0.98626411 0.50697595 0.28273889
-0.49118239 1.49080324 0.16927338
-0.50949681 0.72832936 -0.75217259
-0.05855057 -0.02157587 -0.24878882
-0.76737881 0.36949056 0.46618664
0.81619740 0.94106150 -0.76652551
0.05924395 1.32814479 0.73560989
1.02717125 1.06051230 -0.66089225
0.62514973 0.30527890 -0.50728881
0.26939097 -0.01113015 0.34480873
-0.79949051 1.15589797 -0.79105097
-0.96934450 1.18634868 -0.12059978
-0.63448071 0.92250240 -0.71449387
0.22280216 0.30791256 -0.63467044
-0.71187443 0.38993773 0.22813065
0.10430469 1.45816171 0.43834192
-0.48601824 1.27465320 -0.26625171
-0.44715577 -0.49596220 0.36748132
0.49971756 0.14583069 -0.23276335
-0.45874774 1.55094159 0.35356790
0.12747510 -0.50236893 0.01587329
0.20897552 1.33340263 0.70595664
0.23549835 -0.34257782 0.55531961
-0.13741139 -0.40261555 -0.23412795
0.25723228 0.14297789 0.66382289
0.93048692 0.99352956 -0.78620631
-0.13959323 -0.25990236 -0.23146544
-0.60297394 0.22246918 -0.80461574
0.21904278 0.72073472 0.74715120
-0.95601118 0.48656112 0.26553345
-0.89902848 1.21139133 0.21512134
0.98399943 0.45519185 -0.23050879
-0.76484489 0.45750946 0.28443322
0.98436940 0.46014091 -0.17661110
0.10553932 0.67567587 -0.74261618
-0.79155952 0.42248696 0.62338364
-0.74460930 1.04059434 0.28208447
-0.10242524 0.99074715 0.72673863
-0.71548021 0.35994419 0.68397391
0.98884618 0.83028752 -0.16535416
-0.06045850 0.60173190 0.70077235
-0.59432650 -0.50335205 0.17638911
0.86867368 0.42400369 0.22908314
0.41024280 0.04515502 0.25522166
0.15151238 1.28023648 -0.44534582
-0.73878580 1.47229099 0.04713649
-0.75021237 1.37947702 0.73801219
-0.42293596 -0.35721976 0.74360371
-0.61849821 1.03501558 0.77505189
-0.86586398 0.83747447 0.24269176
-0.74163681 0.05240795 0.18063997
-0.16327994 0.88274229 -0.75395417
0.16336320 1.04040790 0.74935293
-0.74224699 1.27562642 -0.54491460
-0.99188650 0.87241292 -0.04276761
-0.01692065 0.02331513 0.72600019
-0.46137846 0.14056766 -0.27524716
-0.11219124 0.88758826 -0.71453625
-0.41665336 -0.24858183 -0.26240456
0.99354035 0.59935772 -0.64332062
-0.58248252 1.24504685 0.72068310
0.49285832 0.57267761 0.24737293
-0.25113159 1.26110256 -0.45271921
0.38647085 -0.00703812 0.35140949
-1.01261652 1.20239425 0.05123564
-0.43390357 -0.47271609 -0.05627723
-0.76525187 -0.31519055 0.38305631
-0.73461312 -0.29212612 0.52302188
0.92244077 0.97021997 -0.75398940
-0.20846672 1.33914781 0.71755600
-0.72679335 0.22973171 0.62131298
-0.89935935 1.05342650 -0.78057003
-0.98744881 1.28197575 -0.67873734
0.30711359 0.28656918 0.46117997
-0.49727753 0.22329906 -0.34217930
-1.00306940 1.19026995 -0.62257159
0.25455812 0.01613596 0.47511879
-0.19171919 0.07379222 0.75777745
0.16708224 0.45803142 -0.72446644
0.73045897 1.25459862 -0.28510100
0.00928295 1.53404868 -0.20657690
0.15770754 1.46153212 0.75043684
-0.94072044 0.26858014 0.22925372
0.50297916 0.10691181 -0.34994254
0.98062479 0.77147895 0.01854480
-0.62985617 0.96703136 0.75404733
0.16117479 -0.25325453 -0.24263752
0.25509703 -0.00803882 -0.46266890
-0.20780636 1.56254268 0.70263672
0.28064096 1.46878707 0.23517247
0.41897082 1.23168731 -0.22663543
0.29568347 -0.03448445 -0.48808038
0.49304366 0.02491128 -0.16783655
-0.57440960 1.22999477 -0.28924033
-0.34863192 0.68612534 -0.70437413
-0.72283751 -0.32437778 -0.01462565
-0.43549797 1.47315001 -0.19939208
0.36116287 1.24201441 -0.52146816
-0.73508930 1.31940341 0.42063397
0.26958117 1.28915811 0.70193428
0.24325557 -0.32202607 0.21489359
0.26132160 1.43728781 0.09414484
0.92788619 1.24973047 -0.16444187
0.97354132 0.88496518 -0.19148202
-0.49481907 -0.01581496 -0.27003267
-0.08371664 0.39753184 -0.73075348
0.92951411 0.90681797 0.04270836
-0.51061046 -0.48724502 0.72762036
0.98817229 1.14750695 0.10310011
-0.43673244 1.56193507 0.19439906
-0.59056699 1.52495480 0.27479601
0.43161002 0.16022179 0.49146023
0.98483074 0.85966480 -0.18073615
-0.11604927 -0.49766129 0.11072744
0.43937188 1.04916954 0.43677706
-0.15394500 0.30620503 -0.74622709
-1.08126307 0.62250316 0.23731145
0.07837990 1.08852053 0.79230183
-0.72964692 -0.44789183 0.52658117
-0.03170024 1.51468718 0.64566290
0.82049727 1.00251317 -0.78608745
0.42704573 1.26301658 0.26009360
0.07012843 0.44709712 0.70999634
0.10635965 0.93493217 0.72548681
-0.72359961 1.21058369 0.56447119
-0.54226315 0.22187936 0.79022849
0.72248024 1.10411823 0.20098612
0.07776859 1.25474381 -0.28077757
-0.00671161 1.25049305 -0.39856809
0.98993886 0.22748521 -0.55108899
0.38236809 0.38065952 0.48361373
0.26946008 -0.41432554 0.05100175
-0.44261450 0.55602193 0.72094655
0.69866234 1.25043869 -0.06710654
0.12713751 -0.08784378 -0.20995414
0.08056295 1.07997334 0.71354091
0.23464739 -0.24192232 -0.26229694
0.09537841 1.27512383 -0.56072944
-0.61651826 1.19773865 -0.58757430
0.26459655 0.49349648 0.48534569
0.03487192 -0.02862775 -0.43327230
-0.95757324 0.90211248 -0.69795215
-0.74721903 0.03072557 0.35412779
-0.76268655 -0.21831942 0.26405552
-0.99580532 0.25523937 0.10693337
0.32413667 0.23696920 -0.75509739
-0.98049331 0.68060929 -0.78522730
-0.98278314 1.14895058 -0.07441260
-0.66110545 -0.53998518 0.11727575
0.98783487 1.22876227 -0.72841352
-0.60498804 0.73780179 0.77180684
-0.84604561 0.24845424 0.10526467
-0.43539953 1.09599650 -0.71984488
0.68130124 0.97903705 -0.76054788
0.42903432 0.10204220 -0.49520183
0.01464966 1.47916698 0.26363423
-0.74319261 1.39858890 -0.17507510
0.27555883 1.22342932 -0.40621445
-1.03115666 1.13559222 0.23660798
-0.81264442 0.23441979 -0.62861067
-0.53999299 0.27032912 -0.35656473
-0.81705910 0.36123741 -0.74755156
-0.15310529 -0.16580087 -0.18435818
0.29370627 0.71018898 0.72171378
0.96798223 0.31495965 -0.02074425
-0.22723506 0.86146688 0.71285015
-0.34552640 1.53650320 0.04897693
-0.44523636 1.13782632 -0.72471559
0.44013402 0.09015232 -0.04204448
-0.98470718 0.69959128 0.10036519
0.47795230 0.20251003 0.54992384
-0.20405637 1.21424282 -0.74773324
-0.86367518 0.52202779 0.32194021
-0.11981181 1.23276019 0.77278101
0.21012767 1.07991695 0.76530731
-0.38842645 -0.34082741 -0.25692955
-0.47103873 0.92817134 -0.72623616
-0.74020791 0.80114239 0.59256065
0.25470588 1.30766773 -0.13160986
-0.95981199 1.15316820 0.04150410
0.98905152 0.94683492 -0.68868011
-0.70157754 0.32700121 -0.78830189
-0.34082988 0.01284030 -0.50012529
-0.89419383 0.21346754 -0.36698705
0.90235418 0.34006745 0.26049513
0.65651780 0.24900922 -0.05928206
0.11543172 -0.50159264 -0.29268304
-0.51071525 1.38877940 0.71510434
0.18083522 -0.52490962 0.02007308
-0.58957213 1.23140943 -0.28313696
0.23295045 0.40584752 -0.73520088
-0.39919603 0.31188139 0.72094399
0.99809456 0.75938344 -0.10987170
-0.21903805 0.08638006 0.77017212
0.22990908 0.37393996 0.52561730
0.67400682 0.26214260 0.12674227
0.94835764 0.66822922 0.32341695
0.99582154 0.65676004 -0.51431304
0.21804956 -0.56493962 0.47649086
-0.72656095 1.51808870 0.46330130
-0.84187025 0.24503043 -0.63000351
0.13837439 -0.38687140 0.72839856
0.67561001 0.59346896 -0.71315092
0.30137208 0.78920084 0.58994079
0.26347446 0.11216256 0.59556401
-0.61936039 1.50895572 0.39459112
0.15170757 1.49285960 0.61337823
-0.73277736 0.10627180 0.10288049
-0.14275184 -0.45050913 0.34174237
-0.30840668 -0.48677421 -0.09893916
-0.78535658 1.24227428 0.33455071
-0.23885016 1.25112581 -0.27555823
0.25488624 -0.47603089 0.26336136
-0.77832931 0.27548945 -0.50604504
-0.69129395 1.42141509 -0.25185147
-0.12819973 1.08933377 0.71597940
0.15956727 1.28708625 0.73064190
0.51125300 1.23903465 0.23330653
-0.79046345 0.51549834 -0.73101962
0.70149523 1.14753592 -0.73016864
0.23318869 0.26065886 0.50314444
-0.71048474 1.07268429 0.64500034
0.20283760 0.70768428 -0.73727751
0.04679453 1.39337540 -0.25335151
0.27189383 -0.04641968 -0.09414764
-0.18615353 0.37855709 -0.66820329
0.85955656 0.72407413 -0.73418790
0.38450265 -0.00927275 0.19698033
0.76428396 1.14646888 0.30601081
-0.19733673 1.48817575 -0.09804668
0.46961352 0.74084312 0.32996804
-0.72251236 1.24238968 -0.49253303
0.35512370 0.00894746 -0.05475647
-0.18234840 0.25458419 0.75345778
0.98842943 0.89720118 -0.36396608
0.11480230 0.25840271 -0.61256540
-0.80029821 1.32027125 0.59507978
0.25055495 0.23762485 -0.65622085
-0.03562372 -0.15709007 0.70371085
-0.99302483 0.38908887 -0.21490018
-0.31095934 1.49730802 0.69885588
-0.56747574 1.30203462 0.71570367
-0.62339842 1.02575243 0.70454127
0.25699064 1.24377227 -0.59189725
-0.13260508 0.84495640 -0.74574918
0.36113042 0.02793902 0.41444674
-0.77865940 1.36619759 0.29352063
0.00369509 0.56597126 0.76836133
-0.17592695 0.46915820 -0.76557690
0.70017767 0.21145779 -0.74751037
0.79519504 0.57905865 0.27971342
-0.80627227 0.42319521 -0.76167941
0.52107680 0.22490647 -0.01450485
-1.03243220 0.35639435 -0.66329676
-0.29809108 -0.30944687 -0.24485084
-0.73002040 0.23260704 -0.67357367
-0.71522743 0.77174759 0.31065848
0.99251705 0.51357055 -0.74021196
0.22749346 0.91780633 0.53553212
-0.45226613 1.45429182 0.72957397
0.33945492 0.65554637 0.49034852
-0.99145132 0.65109336 -0.16300020
-0.24824078 0.94257772 -0.75597417
-0.53100818 1.49717951 -0.03483811
1.01173091 0.29646522 -0.37059268
0.36989594 1.13238239 0.27294576
0.51893646 0.50321913 0.41283977
0.64766502 1.24769926 -0.31112012
0.91119522 0.23199597 -0.50741094
0.17484705 0.47685635 0.76943225
0.59474856 0.65820771 0.27168638
0.94865906 1.11609256 -0.73538744
-0.51281202 -0.52670634 0.42097062
0.33620986 -0.01863700 -0.21527907
-0.22160065 0.27176416 0.77185708
0.24193752 1.37639022 0.28583634
0.29618269 0.02332911 0.53867495
-0.13288081 -0.43035996 0.77042407
0.22988684 1.46519828 -0.07683882
0.00108250 0.57659030 -0.69204909
0.93917662 1.22662735 0.14271028
0.46432298 0.24352133 -0.73675543
0.17179862 -0.06820202 0.80084133
-1.00909781 0.99483669 0.25486833
-1.01896811 0.64422536 -0.14819671
-0.73866433 -0.06147563 0.63797992
-0.78071827 1.25036764 -0.22760265
0.47705507 0.08369488 0.01708245
0.23063898 1.32731318 -0.23922782
0.34856102 0.23008707 0.51434642
-0.91051966 0.25790745 -0.46413171
0.49231192 0.10180289 -0.30903137
0.17286591 0.02600384 -0.40860063
0.07693298 1.26906109 -0.63092846
-0.77060348 0.22201842 0.58470893
-0.75521028 -0.38724655 0.15794758
0.29734948 1.14185309 0.28647959
-0.26373982 1.29287171 0.77992821
0.13257252 0.32006022 -0.77136004
-0.62552881 -0.11290395 -0.18990453
0.14622661 0.57953966 -0.78399712
0.34389350 0.23892045 0.53219944
0.44406435 0.01002362 0.24497037
0.95442069 0.46252885 0.21049806
0.51066172 1.02226067 -0.76521277
-0.77389187 1.21053946 0.36626643
-0.69144684 1.50789869 0.36552230
-0.84633940 1.06765747 0.23396173
-0.33946723 1.25425267 -0.29293668
-0.75683284 1.23883820 -0.12582733
-0.22544722 1.47189546 -0.07426947
-0.71660674 1.01132381 0.77814215
-0.18113798 -0.39416289 0.73140264
-0.02367936 1.38876808 -0.23446281
0.24625759 1.48883498 0.07054123
0.47014523 0.07888907 0.20277032
0.83315659 0.23295298 -0.10715339
1.01329696 0.76191747 -0.18605542
0.49662456 0.13972047 0.48775527
-0.18498819 -0.43928903 -0.05700069
0.91183800 0.34603292 0.26219562
0.28175598 -0.31397605 0.55891436
0.90364277 0.88342154 0.23056963
-0.65206450 1.52341270 0.02934671
0.17982806 -0.11089432 -0.31642428
0.76804578 1.01115346 0.19501261
-0.76381928 0.23081407 0.11829504
1.00607491 0.91614985 0.18565762
0.60753566 0.19759670 0.01929346
-0.75896811 0.22705019 -0.74040389
-1.01677334 0.45528275 -0.31649956
-0.74043322 1.03164113 0.41822433
-0.73963070 -0.21926469 0.72106129
0.74926025 0.42571837 -0.71384919
0.77563071 0.90908808 -0.70969576
0.31916815 0.19956475 -0.68717146
0.18523078 0.23149329 0.78116560
-0.98214418 0.73981369 -0.71084166
0.49488091 0.02271602 -0.02369128
1.04075086 0.25338298 0.19822633
0.38476294 0.79464877 0.48900482
-0.75799900 0.02269375 0.41264990
-0.75665325 1.42938185 0.31120571
0.95147175 0.41799310 0.27923220
0.79717767 0.25922084 -0.42893165
-0.33257160 -0.41899514 0.71401596
0.96328586 0.84676039 -0.70171255
-0.76040167 -0.06898880 0.76040494
-0.87674797 0.21901608 0.24136625
0.98470211 0.42681697 -0.46413061
-0.40562460 1.06861496 -0.74100184
-0.93648982 1.19708085 -0.50640309
0.48719832 0.21633688 0.24209660
-0.73434973 0.16152081 -0.27622589
0.02292195 -0.51869309 0.69361848
0.49380744 0.23956385 -0.04590225
-0.43872175 -0.27025867 -0.29630661
0.02944744 0.97492534 0.80045503
-0.77195340 -0.37838989 0.57992649
0.87172544 1.02668595 -0.69672400
0.67949146 0.92854500 0.25713775
0.22296251 1.49464941 0.01326894
-0.79759049 1.28974402 0.36711216
-0.75667042 1.11769569 0.26856151
0.28904712 -0.21778750 0.54709721
-0.39076951 -0.49446517 0.64511120
0.40047321 0.00365251 -0.07995816
0.55014884 0.73180151 0.29035428
-0.75158161 0.42780724 0.52268672
-0.73642415 -0.18094563 0.43743354
0.98201466 0.28520054 -0.62904078
0.85777950 1.23854828 -0.36453155
-0.62464190 1.45729566 0.42319575
-0.76102710 1.20667410 -0.75539464
-0.65885592 0.21055609 -0.37364346
-0.59258759 1.50133014 -0.19019318
-0.99764925 1.17820430 -0.56956321
0.98770577 0.65717137 -0.34230658
0.28784445 -0.05170327 -0.21952917
-0.71201128 0.51285350 0.30825979
-0.67633164 1.52014172 0.17223170
-0.07409339 1.25401127 -0.63839263
0.28141481 1.36366677 0.01474370
-0.54296011 1.10012078 -0.74659038
0.02264030 -0.31595862 0.75077438
-0.79395097 0.85158241 0.37655196
-0.71861696 1.45247149 0.68080479
-0.26419145 1.24473500 -0.70234042
-0.67105114 1.47163725 -0.23825432
-0.57304573 0.86170626 0.71739250
0.99931055 1.13690591 0.02410596
0.52174222 0.27630299 -0.60573339
0.05670805 1.49851799 0.21506728
0.94523430 0.91565633 -0.73171699
0.86826432 1.20779181 0.28060761
-0.48510081 0.28031665 -0.56302822
-0.37345892 1.31999278 0.69106340
-0.07232780 0.28340858 -0.62841690
-0.22454327 1.19088066 -0.50843954
-0.48015195 1.26301837 -0.64314574
-0.73262787 1.24966002 -0.29737976
-0.22957127 -0.48986250 0.21389028
-0.23415944 0.02057648 0.77598661
0.33868480 1.28108263 -0.25243565
-0.10065521 1.54318368 0.27216208
-0.56273621 -0.51504362 0.23660351
0.46209571 0.01736906 -0.40426084
0.09182718 1.16365767 -0.74256110
-0.61743367 0.39020148 -0.75860345
-0.37332603 1.47210908 -0.24907163
-0.73265898 -0.34948856 0.36750352
-0.96064693 1.04247761 -0.50421274
1.00070262 1.25033855 -0.50420332
-0.78414178 -0.00237966 0.45390785
-0.96625251 0.35772157 -0.20781717
-0.40739104 -0.37591362 -0.29182521
-0.77566111 0.46884197 0.19450589
0.82724243 1.20117247 -0.28768674
-0.75558883 1.34112465 -0.18191673
0.26229340 -0.18263167 -0.00979577
-0.99823743 0.63888192 0.27535021
-1.02085376 0.63047260 0.14748065
0.69480687 1.12880313 -0.77369797
0.42302030 1.19521761 -0.73172122
-0.27554521 1.49308074 0.25781572
0.52230471 0.16635936 0.26253414
-0.74356943 -0.44724435 0.60122561
-0.72964638 0.09960335 0.69815749
0.86292619 0.70067036 -0.72398293
-0.15375043 1.03000343 -0.79655927
0.26402205 0.90615100 0.64860022
-0.34901080 1.25833654 -0.63699365
0.63765663 0.20359471 -0.21276860
-0.67219251 0.26422101 -0.56310761
0.84140986 0.63325691 -0.73850864
0.44927880 1.04020250 0.57344234
-0.41878924 0.84647346 0.77658808
0.21115460 -0.34218001 0.73096824
-0.34982589 0.98427302 -0.72719067
-0.73624963 0.20388669 -0.02210138
0.25569454 -0.13236427 -0.09401008
-0.96996558 0.94633520 -0.09849327
-0.01070200 1.49052143 0.48727068
-0.98881453 0.31853268 -0.43881544
-0.59466076 -0.06385475 0.73205203
0.94367325 1.27303088 -0.30681539
-0.41654697 1.23587894 -0.72658074
-0.08230708 1.49036741 0.38333172
-0.23832482 -0.19644773 0.77555013
-0.13435262 0.54132020 0.72939843
0.81680387 0.24958268 -0.47858194
0.25472534 1.44146729 0.77581048
0.23581344 -0.48811215 -0.27431157
0.08975784 -0.02595669 -0.42116097
0.21646464 0.27367413 -0.62556505
-0.04347397 1.48290467 0.59155613
0.86971968 0.72967196 0.27745545
0.45789400 0.00262085 -0.19355761
-0.10672455 1.50627398 0.69727367
0.06191444 1.48231697 0.54493374
-0.43854600 -0.46581811 -0.03670398
1.01168346 0.44602305 -0.04131937
0.06842576 0.12575504 -0.53902489
0.87462437 0.43960506 0.25770295
0.19326802 1.23488712 -0.56077790
0.08327249 1.50701249 0.30281678
0.27874365 0.29883444 -0.74512333
0.16097951 -0.28630090 0.75339454
0.01894157 0.44443724 0.71407235
-0.20478456 -0.42167747 0.74658734
0.77603722 1.27221537 -0.51580429
0.49728423 0.88043141 0.28135267
-0.45671088 1.48846281 0.31736764
-0.74532473 0.85465515 -0.69306678
0.79202640 0.26772615 0.00666011
1.01474202 0.94824195 0.10919125
1.01220453 0.28805941 0.12753882
0.13754149 0.20845693 0.67683733
-1.00894916 1.18747377 -0.20967716
-0.70320320 0.17911300 0.56483972
0.29581055 0.12418455 0.66798168
0.23822413 -0.10214639 0.11647271
0.47886813 1.26729631 -0.20618327
-0.48374784 0.23195207 -0.77981627
0.65220374 0.83956844 0.28864816
0.17365940 1.38422418 0.35883468
0.09421661 1.45370865 0.70684755
-0.73715389 0.71955407 0.78652096
0.47228849 0.59233665 0.47285104
-0.53438681 0.62939775 0.72176296
-0.31777638 1.33075190 -0.22581853
-0.53555030 0.37582397 -0.74024373
-1.01347077 0.42884904 0.24543045
-0.94124866 0.21447995 -0.19261631
0.27795118 0.02171540 0.63257480
1.01406467 0.52286029 -0.13818683
-0.38375643 1.20156932 -0.45309123
-0.30673379 1.39026332 0.76250732
-0.76072586 0.25900495 -0.57439363
1.06768727 0.58267170 0.08590067
-0.67980349 -0.54321265 0.19807412
-0.08317634 1.50522542 0.12566224
0.40038887 1.20641100 0.00027215
-0.74238807 -0.09711337 0.14065120
-0.99170369 1.27186155 -0.10322284
0.15162133 -0.15740579 0.76718503
-0.75713444 1.32840610 0.10142956
0.50798357 0.90059590 0.49123436
0.22564580 1.47573256 0.27360159
-0.96877038 0.56249690 0.28207985
0.01887330 1.52587938 -0.15614720
0.97519463 1.22884762 -0.34815386
-0.48072672 1.36369240 0.74728686
-0.43511131 0.71100086 0.74802655
-0.51977760 -0.54921746 0.11638664
-0.75883532 1.18314600 0.74382377
-0.54896420 0.72589022 -0.73246294
-1.01244450 0.29052985 -0.20604894
-0.72818458 -0.28103858 0.12507510
-0.48960596 0.08255652 0.76050776
0.23112795 -0.33743900 -0.16641979
0.66267347 0.76778460 0.19793797
1.00269759 0.99099910 -0.69229716
0.50720084 1.26953387 0.12826595
0.26523161 1.00171030 0.30492198
0.26080739 -0.03438634 0.65480465
-0.79187953 0.24994239 -0.62315220
-0.68614554 -0.33884823 -0.24899408
-0.53224140 -0.29720289 -0.20165282
-0.39670375 0.19500715 0.74305516
-0.02783736 0.80771899 0.74611449
0.75975436 1.23334491 -0.02508387
-0.96920031 1.09808230 -0.73512465
-0.98338854 0.61386812 -0.56013179
0.11976302 0.54672456 -0.68875575
-0.04663782 0.04686657 -0.48715833
