-8.91057205 75.89788055 -6.59542561
7.32516813 79.74108887 1.39275813
-6.67962313 81.04476166 4.00336361
-4.66859198 68.58195496 5.07664633
-7.06086540 77.70889282 5.34065437
-6.11844015 73.92756653 8.15457916
6.42104340 76.48340607 8.65671825
-2.53006935 77.64977264 -0.79913408
2.25717616 77.95494843 -6.84683275
2.85928893 77.80799866 -7.17222214
0.91082525 78.03166199 2.08910275
-3.89591217 77.61263275 3.53561020
6.20247459 80.90309143 -2.77027440
-7.07609224 76.49068451 0.45206246
-4.77674675 73.42604065 -4.48684025
6.71598339 68.31143188 1.50845110
-5.70832777 69.68862915 -3.60986185
4.04644203 68.97496796 -4.74215698
-5.77815437 80.71901703 -5.66391611
3.34667063 73.22592926 -6.89947891
-2.93218970 80.52963257 -8.88163376
-0.32032886 81.34506226 -4.90599060
4.29342222 74.20799255 6.07255650
-2.82260537 74.39384460 6.65410233
5.13890839 66.06245422 -1.30396163
0.60195690 74.39317322 6.52542639
4.71669006 80.53394318 0.53842854
5.75996208 70.18068695 -3.17457104
-0.14236277 80.10525513 8.03368950
5.97305059 75.07395172 -2.63865209
-1.60106468 75.22834778 6.21804237
-6.53673029 74.37898254 0.61846864
3.81659842 64.40580750 -2.23239779
-3.11018825 71.50515747 5.99125767
0.88630074 75.48535156 6.72013712
-6.33817482 74.02192688 -1.41368306
-1.55839193 80.56204224 5.83045578
6.97966146 79.89494324 -8.57847595
4.83293962 74.09623718 -4.71505880
-2.82096434 77.86676025 3.98577809
-8.45955086 74.12953949 5.40097857
-4.10619926 77.59016418 6.30266714
5.39088392 78.66599274 -6.74335003
-7.88670397 78.09990692 -7.83628321
-0.24229130 68.53900146 6.56961489
5.18295670 77.97435760 0.01331578
-0.15853959 77.80704498 6.40008497
-4.44493961 77.66687012 -6.93650579
-7.21687508 73.70355988 0.39550373
7.01235390 73.57909393 2.32786655
-1.89547694 73.73583221 -5.38419485
-6.14365768 73.29879761 1.78696704
-0.61803669 80.69790649 -5.85288334
2.13290811 71.77518463 -6.48970413
4.41066790 79.88069153 8.77035141
-5.83216143 81.12432861 1.81216359
6.53200626 74.01237488 -6.33560658
3.64843535 68.43888855 5.46127462
-7.13907719 81.25935364 -4.65297747
3.39578104 78.25236511 -2.60806680
-6.77916908 78.50632477 0.72861320
-5.09730768 74.98391724 3.27674603
5.85982275 73.93675232 4.12292910
5.51792765 72.19500732 4.29317760
4.04601431 78.14457703 5.77471018
-5.47226095 78.00543976 6.79784966
1.14936090 68.02626801 -6.26322651
-5.07535505 77.95520020 -6.90437460
2.71598864 70.23748016 6.09875107
3.26111722 65.12393188 3.37402916
2.79727626 73.01135254 5.33115005
-0.60467249 69.39847565 6.28970766
-8.16926670 80.48800659 -5.41063070
6.14118767 79.22476196 8.16233063
6.21181250 73.23213959 3.49035501
3.25097775 79.06533813 -8.30499649
8.48286819 80.21069336 -0.56415892
-2.14145875 80.39324951 -4.10954762
-3.93873715 77.56571960 -3.84416246
5.36446095 77.68252563 -6.77423620
6.33038950 76.65231323 3.07279515
1.48504901 75.29347992 -6.32085133
4.09940863 78.86486053 -7.84113312
4.72863102 77.05582428 -4.20559454
-4.31581640 76.40974426 6.79879189
-4.88413525 75.92494965 -7.39982891
4.32148886 66.91365051 1.67086995
-6.07367516 77.80136108 -2.45568371
-2.25576854 77.73944855 1.71760845
-3.91779351 71.82125092 4.74485588
6.18087387 72.52594757 0.87801290
5.00506496 72.11612701 -4.48527002
0.73802584 80.36709595 6.26838350
6.79685163 74.64869690 -0.27085766
-3.87168789 78.06995392 -7.06385612
-4.65024233 79.30812836 7.80221462
4.97424841 80.68135834 6.09655094
-7.19043970 80.54696655 -6.12091923
3.60703182 73.83301544 5.25572443
-2.75542760 63.84221649 0.68779719
4.45603991 68.41414642 -5.43283987
1.97771537 79.37328339 -8.00328159
-1.79574513 74.22673798 6.06329870
-8.46421909 80.22079468 -0.29528719
4.01566362 79.54898834 8.19581032
4.67851019 70.32947540 5.83941031
-5.30887365 78.34991455 -7.12143993
4.17445230 70.46710205 -4.82796288
2.17143297 72.05162048 -5.82264137
0.93570006 79.33055878 -9.01406860
-6.30261755 77.62295532 -2.88009000
6.39898062 79.12136841 8.56808186
6.79526758 81.03648376 -6.40606308
8.03498173 80.68724823 2.20310140
-4.32713795 68.12879181 4.85788918
-5.34737062 75.83982849 -3.27948427
-6.38240576 74.57959747 1.59850538
-6.16930103 75.86361694 -2.45979977
7.83185530 80.08140564 -3.75058603
-0.86263990 78.95957947 -8.00362873
-6.45843840 73.57730103 0.76775771
-2.32534480 78.31562042 -7.42607975
5.75376892 77.94687653 7.95130491
-2.02327108 77.96924591 -2.03960347
-1.00024629 72.82579803 5.59349680
5.60204363 67.72515869 2.52477121
-6.64927530 75.65351105 -8.50659084
-6.57927799 74.82286835 0.57982886
5.97050905 72.29356384 1.28026593
-5.53603506 67.32257843 4.68999481
-8.33298492 79.36901855 -3.43759036
5.70883131 73.87787628 3.67405367
-0.32168061 78.02566528 2.47095633
5.91773176 80.28472137 0.79155213
-0.50539839 71.76134491 -6.65837336
1.51515412 74.92339325 -6.39540243
-3.51697659 65.55468750 2.67879057
-5.22213745 76.59731293 1.63393748
-4.51380444 73.54491425 4.88933849
-6.48280621 76.62387085 8.26317883
9.99162292 80.02753448 6.86653948
-6.40321875 75.62718201 1.62911975
0.20102315 80.43493652 2.54964590
6.53108692 74.05393219 -0.56846154
-6.62488222 71.92003632 -1.64947236
-1.98562312 76.94277954 -6.56496477
-5.48189116 77.75784302 -3.99777174
-2.72957206 69.22103882 5.88919067
-8.59644890 76.55660248 -5.69170094
1.59424984 72.84210968 -6.91145849
-3.14610553 69.80257416 6.60434914
8.85045910 79.80825043 -4.18517303
-3.36513734 78.04178619 7.31599569
-6.90530014 77.98818207 7.08620739
-5.62579679 68.59330750 -3.24967861
6.37931299 75.47521973 0.36960161
-5.42254829 74.12088013 -3.77680874
6.28936386 77.88178253 3.38925076
5.04910851 64.15760803 -1.24186695
6.57899618 72.70057678 -0.98829424
6.41758680 73.44252014 0.42990878
-6.34251404 72.91354370 -2.11951900
-7.09013271 76.45535278 1.94919348
7.44070292 77.82679749 -8.79620266
-2.11673093 80.10710907 6.45296621
-4.85244703 73.71887207 5.49281263
4.25244713 77.88531494 -1.31541753
2.93298364 73.23366547 6.58405304
-6.52220201 76.17299652 8.57055569
-0.26462656 73.71466827 -6.62019491
-0.95446110 79.54150391 7.88656330
0.28977951 68.40245819 -6.55450296
-5.16419649 72.77708435 5.06156492
-5.92558098 79.95444489 -7.74825573
2.19543242 80.52619934 8.01659203
-3.05552316 80.61102295 -3.17789388
-7.61910343 77.60942841 1.35113049
6.39231825 67.38896179 1.13472986
-5.08334112 67.20822144 4.56878471
3.18508959 67.56987762 -6.62009096
4.06420135 80.46360016 3.86791801
3.59166622 77.39901733 -7.08358002
-4.47677708 66.17812347 1.32648170
7.49043608 73.51138306 -5.73267174
-5.54137468 75.38584137 3.35965967
-4.41645288 64.36868286 -1.27229047
-4.53127193 74.60440826 5.89675331
-1.13510108 78.00160217 6.12673664
1.18940020 71.50203705 6.20052481
-4.91682339 74.16416168 -7.35356283
-2.84572744 75.83311462 -6.38731432
-6.61675024 77.90980530 1.84122455
-7.09907389 70.69235992 0.01951347
5.35540867 71.32718658 3.42751789
9.10551167 79.83850861 6.74429560
5.05951023 75.69792938 7.45291948
-4.06108713 80.72144318 3.03758526
-5.24620390 65.69926453 0.51673132
-4.98247290 80.44946289 3.26812339
6.39701176 69.85232544 2.42097616
4.21218777 67.80832672 -5.94369268
-5.06285763 74.30792999 4.04913092
-5.87410498 73.68923187 -7.42604780
-8.30630112 74.47534180 -5.95683765
-8.82441616 80.34746552 -8.14298534
-1.28990304 63.84819031 -2.14624906
-4.75205755 71.69086456 4.09295082
7.24452591 80.06914520 0.55591643
0.62092364 80.65009308 -3.28679752
-2.33799648 77.12866211 -5.87296104
7.28931236 77.23403168 0.26977220
5.19407654 76.75445557 2.69931483
4.81717253 74.71976471 7.42008305
7.80180454 79.80840302 0.42783883
7.61976528 74.14772797 7.28604746
2.92180991 73.57300568 -6.14244127
7.25226402 73.63648224 3.48024797
1.39304078 73.44985962 -6.67171144
-5.64100170 73.34413910 3.78560686
5.45023108 72.58281708 3.73881102
8.67600155 80.05591583 3.94254684
-1.53324151 68.28614807 -5.81476831
-8.64301109 80.59407043 -3.37733293
-8.32706833 80.42515564 8.80575848
-1.64553523 71.22599030 6.66743422
-5.30393696 69.85804749 3.24296737
9.09331608 81.13398743 8.58496284
-0.73903316 80.87325287 5.68737984
-7.71645641 81.22692108 -9.74860096
9.62200260 80.10602570 7.11567974
-2.33906746 75.83661652 6.37580061
6.45236826 68.19873047 1.14279556
8.10081100 78.75906372 -5.97050905
-8.77324200 79.75566101 3.37569761
-0.32800663 78.56501007 -8.69695663
-6.98607492 77.79085541 7.77519035
7.82502460 75.92607880 5.95364857
-0.23301530 77.76636505 -2.48707247
-2.97914147 78.30427551 -7.06961060
-7.42901897 79.29461670 -0.97087669
-5.42918205 76.92058563 4.99211645
3.34649301 81.05725098 -6.47164536
-3.73165703 66.17079163 3.24362826
8.25844479 80.09090424 0.69767469
6.10106134 73.37482452 3.29449773
-1.41845083 80.67598724 2.68893909
-5.69622374 74.17630005 -5.49484491
-5.88509274 67.19342041 3.62380219
5.40490723 80.85098267 8.61256790
5.22221041 74.65876770 5.57674122
-3.72390819 80.24295044 1.15302074
7.04307604 75.64990997 1.81508005
-8.69779396 78.53550720 7.48399019
5.32133818 72.00340271 -4.53575373
-5.16287088 77.87770844 -7.75043201
-7.02224636 77.87371063 -2.02005863
6.84561253 77.11939240 2.75384474
2.20083094 72.54781342 -6.92612314
-0.08507630 78.26909637 -7.60524464
-9.36830902 80.59037781 -8.34320736
-3.06234980 70.43721008 5.47378731
-6.33168507 68.75090027 -0.51948595
-1.83119202 71.87072754 6.56279564
5.58391190 67.59558868 -2.65983510
6.23820257 74.88630676 8.32681274
-7.96629286 80.78143311 9.31504822
3.53597379 80.36586761 7.86609077
-5.22899675 80.43225861 -4.73176575
-7.73815346 80.59949493 8.98969269
-7.46245670 76.91170502 0.11555427
4.41256189 74.04549408 5.32290936
4.62311697 76.56137085 -5.38466024
7.13059998 80.98270416 -7.72877026
2.36531258 77.85203552 -7.82571077
7.00222111 74.77957153 -2.40974116
1.04099667 77.98448181 -0.40714589
0.56071705 81.07373047 -3.84670401
-5.47873688 80.96152496 -0.29459691
-5.53181362 71.57020569 -1.24353004
-1.40337062 80.60354614 2.75404596
-5.33760405 71.23138428 -4.48344326
7.58619118 79.87606049 -9.97457600
-6.68533230 77.29921722 -0.27481064
-2.12958455 77.49018860 -1.94209146
-0.79966891 78.32645416 7.72473812
-6.28752661 79.36198425 9.84403324
-6.90215254 80.35682678 -4.71896935
-1.22598505 71.54962921 4.67012405
8.65750408 79.63930511 -2.27472258
-2.43139195 66.41941833 -4.47121525
0.10032403 80.57484436 -2.42440867
-5.66281080 67.42012787 -3.41127515
3.65843391 69.22991943 -4.55135012
-6.84977055 73.80123901 3.53835559
-7.32745409 77.99609375 7.05256414
7.15755749 78.34966278 -4.69092846
-2.06995559 71.91103363 5.51543140
6.76949453 77.45260620 7.92248058
-7.37585974 73.99150085 6.36142588
4.98398733 80.80815887 -5.80862713
4.40373802 80.61061096 -1.57919312
9.39614010 80.59075928 5.34045267
-5.32599068 72.50115204 4.75499630
2.39858961 75.80380249 -4.99379635
-1.57006168 80.50356293 -2.22963500
-5.56007624 74.10340881 -2.57571721
-5.02543449 72.89604187 5.41877270
4.08684969 71.07214355 -5.21478128
4.17616940 76.32933807 5.91164780
-1.79864430 78.07169342 2.75558329
7.61398172 77.92354584 -5.88705826
2.89280033 65.93290710 -3.00112128
0.17084780 64.23446655 0.99364883
-7.06410933 77.99015045 -7.91645718
6.24147749 80.79492188 -4.26986933
5.96841335 77.55498505 -6.03008223
5.00432158 77.68525696 7.80138731
-4.44970369 74.35622406 -5.50455427
-6.83698320 77.96237183 -0.25081661
-6.78775883 77.86782074 7.02088261
-8.45525074 80.26319122 -5.99825001
8.99910069 79.85470581 -8.02290535
-0.70550591 69.30136871 6.40861416
6.01512146 77.46759796 0.98283875
0.81996185 71.66342926 5.68285561
-3.38002253 79.02239990 8.32579231
5.12216234 77.83245087 -6.80808926
-5.44457006 67.98910522 -3.60611868
-8.26999378 80.64125061 -9.45236111
-6.69520712 68.94602966 1.68589795
2.49706030 65.90497589 -3.78408194
1.29885161 80.45491791 5.70666027
1.97328699 76.89044189 5.56783104
-6.03264141 75.40866852 1.93756115
5.52898121 72.20372772 -2.06538248
1.01688111 77.91284180 7.52355480
1.25010955 66.71634674 -4.50799513
-1.10840523 77.20167542 7.00057936
-4.14877367 64.51998901 3.11808515
-1.66095376 70.62525940 6.34181070
4.09828997 80.52411652 -2.32881474
-8.61312389 78.81359100 4.12810946
7.66700935 74.07448578 -6.98320484
-7.31707621 77.96692657 5.23071766
2.71503663 78.06779480 2.53921485
4.80880308 77.93139648 -5.88133478
-4.88533831 80.63368225 -8.38322735
-7.44549179 79.81099701 -0.00621319
-2.44269156 74.68339539 6.47228289
-7.01323509 71.66001129 1.02180672
8.95807934 80.75910950 -8.53220749
5.70765066 76.93821716 3.16686678
4.29381180 77.25817108 -7.20522070
8.02935791 80.48059845 6.52575159
6.88924217 74.36080933 2.73550582
-2.25969768 66.33826447 4.12479401
2.69792795 67.02680206 -3.65450144
-6.66136312 69.31666565 0.34165245
-1.83877027 80.74518585 5.16366482
8.51993179 75.92544556 5.79258442
-0.96058357 77.97532654 -0.38594657
5.01372337 67.61639404 -4.46207952
-6.43463802 75.62951660 1.75372088
2.78353000 73.37033081 -6.85830164
-2.02462649 77.91441345 4.62100029
-4.58838081 67.91770935 1.81122029
-2.57362294 63.88637161 -4.07992744
-7.14308262 77.32318115 7.59718609
-1.59277475 70.17625427 6.49958611
0.93971038 71.20792389 6.49577618
2.56995368 71.66293335 5.81703234
-1.76976609 64.03421783 0.89990747
4.02784920 77.94425201 6.59748125
3.13441896 80.67511749 0.55402553
1.75030828 70.85562134 6.35888290
4.52363348 73.14202881 -5.14992237
3.11699033 75.04827881 6.97998238
-7.32409668 78.90057373 8.38031387
0.27914187 80.57613373 3.51472473
-4.78517389 80.40078735 0.32647082
4.88539934 66.54251862 1.11313760
0.74998116 78.52146149 7.38656664
-6.81041145 75.66860962 -2.44795537
-0.75113016 78.51937103 1.07335210
4.35003710 68.15813446 -4.68695641
3.43310142 73.55859375 -5.76512194
-9.19092560 79.06987762 -7.91434574
4.84945822 73.66924286 -4.22293043
1.90490270 77.85089874 6.49573898
6.79701948 71.35579681 -0.19691725
-8.48113632 78.34822083 -6.60280132
6.27953434 70.26978302 1.06662726
-1.38889754 65.60410309 4.88499022
6.65001392 76.88983154 -2.45417690
6.21830511 76.65302277 2.51001382
5.73292208 73.31272888 3.74956179
3.74518323 63.89511871 -2.25255680
-0.21244226 69.95033264 6.61737967
8.37991047 79.52629089 8.58650112
-8.80695534 79.10337067 7.51846981
-3.17642045 80.15193176 7.57590866
-1.06199968 77.79715729 7.34461546
6.88659191 80.89810944 0.51513273
-5.07469940 74.45637512 8.02420998
-1.52348328 77.53120422 3.56340408
-6.49463797 70.42540741 1.31830299
-5.47255039 74.33285522 6.05633831
5.76801109 68.60443878 -2.50195479
-7.53508902 78.06279755 4.34153748
5.41966057 80.41720581 2.54112411
-4.24710274 71.01451111 5.60764027
-5.15977955 67.76026917 2.83639216
-2.72436714 66.30129242 -4.31052685
4.56302691 64.09377289 -1.32329690
-7.01359081 78.17166138 1.87779880
0.59976166 77.91811371 -6.89333916
-0.20192181 64.44422913 -4.90081882
6.27318478 80.56456757 4.86589527
-5.69309902 71.15025330 -0.63658899
5.09548950 75.16510773 -4.40814590
0.16112314 80.03146362 -5.70981550
5.82639265 80.45292664 -6.60820198
2.51785946 63.73045349 -3.90631437
-5.23370981 71.76694489 -4.94290590
5.74314785 67.80037689 -3.57040024
-4.33220243 72.68806458 -4.89713049
-5.83961391 74.90361023 3.13228798
7.39931250 73.96655273 -6.24110126
4.97194529 69.77296448 4.00872564
6.87064791 80.56077576 8.56738186
0.79787117 70.02285767 6.61909199
0.18795015 80.79352570 6.77829647
4.67438412 67.12901306 4.13310528
1.44587564 81.08067322 7.13362074
0.40998241 78.57687378 7.61614418
-6.74308586 73.82791138 5.46892118
7.17353773 75.84634399 -5.57827377
-6.81177616 69.85863495 3.18845105
2.15071678 80.78077698 4.74355221
3.89388347 73.53745270 4.81956148
-6.37922764 80.29903412 -1.06662941
3.39436436 63.74819946 0.34783292
-4.09092331 77.20889282 5.95674801
-7.08493853 75.66741943 -4.22257423
3.88773227 72.18166351 -5.86715317
-3.70444655 69.25762177 -4.91047764
7.09740829 74.06470490 -6.22186518
3.02797294 80.88745117 -5.97056389
4.29655743 65.60261536 1.70767176
-5.83453512 77.97365570 -5.86270952
-9.51003265 79.71811676 6.62180805
-5.45296240 68.96144867 3.09258628
8.27928352 80.25585938 -2.23389196
6.69282007 76.41693115 -0.53747672
3.48579764 80.51898193 6.83856916
-0.91673911 71.48595428 5.72124815
-6.76400995 69.03318024 1.84598613
-6.14400530 75.47943115 0.18467653
-6.67906284 77.19577026 -3.44872522
-4.63713026 68.35780334 -3.80484414
-4.60688066 77.64934540 6.70909691
-3.55997205 80.29382324 8.59055519
-6.24566793 74.54966736 5.51194334
-7.69147539 76.60522461 -4.27949905
-5.21208334 77.56111908 4.94466829
5.55905056 69.59858704 -2.39785147
-4.83346558 74.10152435 6.84181547
-7.08004808 77.78731537 -1.78234303
0.54692948 70.34944153 6.68583584
5.46532631 68.28787231 -1.91723680
-5.12645864 68.03945160 3.19057012
-2.80907679 80.45847321 -0.02008588
6.29322386 68.52863312 -0.73697788
-6.75820255 77.89450073 6.44042969
-7.77218485 80.52142334 3.49750280
-6.84768057 80.49842834 -5.84133720
-4.30546474 70.84496307 -5.19456100
-3.26765251 75.72148895 5.34779596
-2.88747692 72.76135254 -6.93524885
4.50327349 77.74308777 3.16431236
-0.51828581 71.39506531 6.12542963
4.29027128 74.27186584 5.89299726
6.15041447 80.46491241 -1.93368876
-6.95115614 80.26747894 -0.91777408
-5.90759182 76.81718445 7.56640530
5.37395096 75.32609558 3.44555187
-3.17527342 68.19307709 5.67056465
5.29257298 71.69942474 -4.36485195
-2.62355518 77.91598511 2.70958233
9.26418877 79.86125183 6.23323774
-6.11227322 67.44885254 -3.20828390
6.35629082 67.07188416 -3.49144268
5.94203711 69.57754517 2.93410182
-3.87334275 77.53573608 5.31133795
-8.47149277 75.52360535 -6.69841909
-4.59273624 79.99637604 1.19862998
2.79057860 77.76271820 1.89025521
-5.65821695 74.17590332 5.00800991
0.18736622 80.70712280 -1.74229908
0.89231831 80.33641052 -7.12906742
-2.04686689 80.97731018 2.94339561
3.26750851 70.45411682 5.26452112
5.49083567 76.92333984 4.27231646
-5.43691015 77.83726501 -7.53021955
-4.14167833 67.81001282 -5.51735926
5.52811050 75.71524048 2.90396523
-2.55426693 78.12860107 0.13463619
8.91159534 79.59937286 -7.13036633
6.19499779 77.39358521 -1.17776883
8.81680870 80.83982849 8.53088093
4.57863522 74.94369507 5.30478430
6.81737661 74.21386719 -0.91078162
-5.58430910 70.20330811 1.88978529
6.56301641 74.42880249 5.68110371
-3.58195210 75.17644501 -5.45945263
1.83097494 77.51033783 -4.55672550
8.39330292 79.21290588 -3.22858858
-7.50341797 78.46304321 1.09396732
-6.94692659 76.06253815 -0.16909994
-0.68822533 71.14418793 -5.50950432
7.21454573 78.76298523 1.14184237
-5.14487457 76.90517426 2.30336332
5.87162447 74.23699951 -2.46367025
4.89396143 72.36789703 -5.35853481
-8.18222523 78.56861115 5.77112293
-7.48116541 77.74299622 -1.73921216
-0.71485132 74.94850922 -6.70727634
-1.78606355 64.53428650 4.24903250
8.27840519 74.63365173 4.89643145
-6.58024788 69.21545410 -1.07653022
4.11841297 80.76946259 3.90810657
2.58451509 72.19848633 5.79671383
-6.18450594 70.62316895 -3.48308253
-5.81330252 73.94866943 -5.80268908
1.79304433 75.98931885 -5.50604439
1.50619149 72.50678253 -6.72832012
-5.67478037 69.36556244 -1.14480352
-6.08067465 80.65666199 2.90021658
5.95465088 70.34307098 -3.40129089
6.00635290 80.72047424 7.91780043
5.50586367 78.21369934 1.29833603
4.83554268 71.20795441 -5.44893932
-2.90713930 80.72915649 -1.88580239
8.69393730 79.33495331 5.66461039
7.51777267 78.55766296 0.40815750
-6.96060801 81.37732697 -5.58284950
2.29088426 68.53202820 -5.77390766
-7.31633854 77.49105835 5.14189482
5.94842291 80.39156342 -9.07825279
4.20658541 68.97094727 5.45566559
2.59825897 77.71934509 2.18190622
-6.35859823 80.35384369 3.19424033
-7.42895746 78.86989594 8.88854885
-2.61658406 64.22128296 -3.18836522
5.32855463 71.43148804 -3.08233857
5.13905048 75.37932587 7.86606789
-5.17326546 67.59182739 -3.98632550
0.23076101 77.42230225 -2.44879270
-7.43968439 76.57794952 -5.19954300
-4.05740213 68.06710815 -4.75560522
7.80134678 79.18589020 -0.13959894
-6.72406054 77.34491730 6.79629850
-4.31292343 77.92478943 3.07892632
6.83605576 74.48115540 2.16127729
6.91595936 76.01389313 -4.78156996
-5.31381798 69.77975464 -3.10546732
3.33881092 65.26347351 3.40629363
-3.81789184 74.06656647 6.65434504
7.60366058 76.87646484 7.60037279
2.77851701 65.94410706 -4.01005077
-6.27906418 80.61285400 2.17563152
6.83708477 77.55874634 -7.62688446
0.15161465 75.84452057 -7.11376667
-6.26788330 68.91097260 -1.21762204
5.89552307 73.43893433 -7.20163202
5.97748232 77.69940948 -4.52989531
4.90645456 70.15905762 -4.74246216
7.52274418 80.62996674 4.43102741
7.58290815 79.29776764 1.97515464
-4.95946789 80.50914001 -4.95574713
0.67383492 77.53047943 -6.64146662
-8.60375786 75.32119751 -6.11228371
-2.62084651 68.99343109 6.30620193
6.83473015 77.16365051 -8.02794075
-7.95293808 73.82064056 -7.80856037
-0.43298110 80.95649719 1.59081757
-5.52826691 76.02156067 -7.96065569
-8.65691376 78.54526520 5.60133266
7.38361168 78.40808868 3.28650093
3.91991568 76.49511719 7.44760942
4.58570337 78.07923889 -0.69822913
3.21232963 77.55006409 2.56877112
-6.99345493 76.59132385 8.23124790
-2.50671482 75.93170166 -6.67605495
-6.19865799 73.49445343 -6.13429308
0.01487447 80.22543335 -7.49273968
-6.88003922 77.32833099 0.52769130
1.88423193 78.24768066 -7.88377285
2.78695273 64.36264801 -2.11201477
8.19775486 79.64130402 -1.45823181
-7.51769447 75.63107300 5.16606665
7.17398310 76.39630890 -8.12330627
4.17614126 74.41445160 -7.23000813
-3.09884238 78.15718842 -5.46856928
-8.17030430 80.34240723 4.42157745
-5.40941429 80.38366699 8.91001511
-3.33868241 67.56181335 -6.79444122
-1.27206981 69.16804504 -6.33016014
5.03919840 77.76701355 0.25326428
-0.99907410 64.18009949 -1.43689549
-1.62670672 77.69689178 2.34219337
-2.50755095 75.79190826 -5.40207958
-8.39786530 79.28157806 -6.16249609
6.47150230 80.22528839 -9.21940804
7.94834566 80.37569427 -8.05006981
-8.31654453 75.15789032 -6.03948164
7.28855324 77.45763397 0.30004653
3.06723094 77.96017456 6.51172733
6.53748655 75.00036621 3.52446485
5.25884295 72.16571808 4.28228569
-6.42758512 67.65710449 -1.91638660
5.05636883 66.07399750 1.95518625
-4.29257679 70.06230927 4.33088064
4.09556866 65.26088715 1.40646660
-7.14057064 78.44273376 7.95322561
-1.77595913 73.29138184 6.08432484
7.51013613 75.55346680 8.45540905
5.37668610 72.68525696 -5.15218258
-7.39070749 77.98807526 7.94803905
-6.90737867 75.09812927 1.85218644
6.28324938 77.46925354 -7.72301102
5.12858009 72.67258453 -1.23948586
6.23230505 70.92807770 1.82661629
0.45015082 67.26804352 6.68866587
2.74405003 64.31332397 -0.01140222
-2.57946539 64.04128265 2.85399842
-5.38993788 67.51010132 -4.10199499
6.35949898 74.58891296 -1.34636414
-3.40871692 77.73237610 -4.15352583
-3.78457260 71.00654602 5.19584036
0.61697090 72.20992279 6.33005095
2.24539876 63.83768845 2.26536417
-3.55624819 64.89566040 -3.89229918
-5.27512503 80.70474243 -4.96831417
-4.20611429 64.97947693 2.31681061
4.28829908 71.06909180 5.08070469
-1.10887790 77.72928619 -5.05916500
-6.74439240 80.51923370 -7.91877127
-4.67524147 64.49081421 -0.34531403
-3.30761099 76.53810120 5.90144587
-6.39538288 70.99489594 -2.38424110
-7.06985188 75.65991211 1.75326598
0.60484165 79.20476532 7.83957100
-1.63965011 78.43302155 -2.19156957
3.94896245 73.67774200 -5.20973301
-0.77777803 78.04956055 -6.78823423
-5.93068171 70.00778961 3.66959786
6.02958775 80.58918762 -4.11135292
7.72314501 80.74551392 -7.50107527
-4.66191864 65.80866241 0.83063602
-5.81925726 67.77193451 1.40126252
-5.18822193 79.73685455 -8.70947552
-9.70921516 79.24102020 -6.43416262
-2.89746547 67.36427307 -5.90281057
8.54419708 79.30424500 5.35162354
1.95471263 77.70545197 -2.33833098
-6.35805178 75.77496338 -2.50353026
6.18353558 79.11048126 9.13641453
9.51271343 79.66677856 -8.53598022
-2.33166313 80.70650482 0.85379827
3.99998236 80.52754974 -0.94638389
-8.36738491 79.95113373 -1.44088793
4.74200106 66.38694000 -2.16256094
8.98519707 80.40092468 4.62561226
-5.15266609 74.33314514 -6.46057606
6.31626225 70.87749481 2.39331889
5.75843525 71.49295044 3.68134832
-2.22557354 72.08416748 6.14281750
8.57460308 77.73932648 8.03759861
5.92496252 74.11021423 4.50285292
8.10996914 79.47972107 0.41971126
8.33249855 75.93564606 5.08086491
5.35660982 72.92194366 -3.78598666
3.80173349 64.15602875 -1.23268640
-5.81228542 78.59302521 4.76001310
-2.86988544 73.23542023 6.33150101
5.73952866 69.43746948 -1.69208884
3.41234493 80.60055542 -2.83824563
-9.46734238 79.49803925 -5.46630239
5.77684736 80.24388885 -8.85483551
-6.98884773 80.73588562 7.97768879
0.31499392 75.92637634 -6.74405289
5.80603933 68.91638184 -3.79795980
-9.15345097 80.77549744 7.10869789
5.17300081 72.85016632 4.27369690
-5.19427395 74.15552521 6.05592012
6.70994091 76.05820465 1.44449997
-1.68774319 71.65668488 6.33246613
3.30990219 74.28800964 5.32574701
4.44220448 69.29151917 -4.39480162
-1.37290931 80.68345642 -0.65788716
5.27366829 78.13833618 2.52669811
7.92282200 76.97702789 4.60437822
-5.23005295 80.67887878 0.10863785
4.24461842 65.21218872 2.14286160
2.34616566 80.89160919 -0.39121556
-1.79750025 74.27529907 6.88873625
0.76490128 78.88792419 -7.43560600
6.95966387 81.14607239 8.68266296
-8.24858189 77.31732178 -6.39197016
1.72863591 69.28496552 6.21571350
2.36495399 74.35778046 -5.87069368
-1.67141449 72.32167053 -6.89088678
3.14972568 69.91475677 -5.24032021
-6.29730511 71.73653412 1.41747129
5.35215521 75.22504425 -5.18518257
5.75333405 72.08641815 0.72285843
6.25258780 80.98956299 3.15795088
-2.46469021 80.62790680 5.43364477
4.96515989 78.29216766 2.94971561
-2.12471008 77.39470673 -6.68454075
-2.78031826 75.48327637 6.83504486
7.18182135 78.46553802 -0.88186836
3.69542241 80.60400391 -2.94235444
2.36096263 69.72916412 -6.01066828
-3.28935432 78.97492981 8.07787037
1.47497189 77.07987213 -7.29062319
3.85764337 79.35774994 8.23659229
4.84268904 71.83535004 -5.30900669
6.07513332 72.24774170 2.73000574
4.55328798 80.82121277 4.90342999
-6.47880840 72.59409332 2.94475555
-1.06289971 74.55982971 6.25338030
6.27416420 69.93989563 -2.34008598
-3.98071337 77.61753082 1.97408366
-6.69948053 80.89269257 0.87665415
6.20598459 72.04831696 -0.55085814
4.32927656 77.86155701 1.29714859
-5.30851412 69.10964966 3.50050330
2.70665097 70.35704803 4.96167231
-5.91393328 67.11818695 -2.61804080
-1.93149376 65.29502106 3.77141070
7.37013912 78.36437988 -2.67287517
5.53377533 77.19551086 -8.05557442
0.42089865 70.31447601 -6.51653385
2.14446354 78.71840668 7.55050898
7.13103533 78.87834930 8.75976849
-0.96072286 77.92071533 -4.75202227
-2.18263435 77.18336487 0.54181153
-7.12130976 74.05318451 4.33965111
-6.29164076 76.64043427 1.71307242
8.76922703 80.47612762 -2.79495263
-5.02082300 74.15923309 -7.25472116
-2.66180396 66.08954620 -3.92038083
-7.32382870 73.48290253 -5.93172741
-6.04573202 75.47406006 8.47017956
0.28235054 79.15921021 -8.88692951
6.09534121 80.68708038 -2.42490649
-8.32185650 79.59156036 -4.24904680
-2.63529062 77.68077087 3.28722787
-7.06108141 80.32843781 -1.89244390
-3.76937413 71.15019989 -4.91298819
-2.32220125 77.86601257 7.33555126
7.39602137 75.45750427 -4.40968895
-0.29029700 73.46469879 6.87732315
-4.54014874 74.66113281 6.52922583
-3.21041155 64.25906372 -1.27432156
-1.49947667 80.74061584 3.80099583
-1.69943964 64.88567352 4.16588879
5.11135244 67.12317657 -0.39477682
3.55464911 80.48365784 7.53232288
-6.23807526 79.19854736 -9.12586117
2.53466296 80.81930542 -2.90160704
-3.50710368 78.03460693 -6.78048277
6.62237597 74.98183441 2.00117159
-2.98617792 64.02181244 -0.34247974
7.72771835 77.02281189 -5.57540083
-7.78915501 75.17850494 -6.34623194
6.35508251 70.81233978 2.17371583
-2.68918204 67.44996643 5.54040623
-5.00555325 78.03229523 -6.45265961
8.55216408 80.17476654 -2.30060053
3.90775442 67.71675873 -5.59388018
7.17923641 80.64472198 9.43432045
9.40102196 79.68039703 -5.80879498
-6.15545607 69.52069092 -4.08033276
-9.26758575 79.22430420 -6.79506922
-1.11824787 70.98270416 -6.73900127
1.81157064 80.77829742 6.85470676
6.85646677 75.02098846 0.20903513
-4.90957689 77.86900330 -2.26572204
4.30238962 66.59171295 -0.63924366
-7.39334726 78.00366211 4.53181744
6.18732500 73.69944000 -6.57227945
-6.55954409 67.84095764 -2.40409684
1.25466990 81.10420990 -4.90884352
5.57310915 77.30824280 3.46369243
-0.06730725 77.50098419 0.00542064
3.34534049 79.65451813 -7.89653873
-5.86128330 74.95993042 3.91725922
1.46166694 67.88327026 5.68984127
0.42981374 77.82333374 1.13462448
-4.82999229 80.37332153 -2.91997123
-1.02890849 77.41944122 7.17497015
5.35345840 80.76905060 4.12081528
-4.08649874 66.19093323 1.82350171
-3.56615090 80.05730438 5.20476294
-3.46260381 77.50008392 -0.41293010
1.43006122 78.08953857 0.97844231
6.40576410 66.99245453 -3.46665668
0.64465582 80.76514435 -2.78250432
-5.12596846 73.36603546 5.21634769
-4.02351999 71.57252502 -4.37131071
4.33289766 66.10516357 2.26394939
4.33056068 67.28776550 4.94604063
-5.20439577 73.20404816 4.39487314
3.12492061 71.30980682 5.57100534
-5.68183994 70.32054138 -1.81824017
-6.93698263 80.43001556 -4.64346981
7.52960157 75.68532562 8.64886284
-3.65868115 72.99594879 6.55365229
-6.43481016 72.38151550 -0.73497844
5.99426460 69.64853668 -3.18218374
2.31655836 75.07708740 5.20009470
6.12228441 77.50338745 -4.46117163
3.65723443 78.29857635 5.95475721
4.31857252 70.73957825 5.14016390
-7.30102348 78.29814148 -5.87201214
0.89448583 80.68179321 6.98534918
7.48746443 77.50592041 -6.64019775
6.85988903 74.09584045 7.66932154
5.49235582 77.61551666 -0.98985189
-2.71965313 79.95444489 8.86602783
-4.71301126 65.47311401 0.87695074
-3.71364236 80.72517395 6.02132320
-4.62014103 78.34293365 6.47048187
-0.98147321 75.36574554 7.13395548
-4.97314882 80.13123322 -8.89016438
5.68983650 76.39576721 -3.36794996
0.70387411 80.49210358 3.19528389
5.46238232 76.16776276 -2.09381342
-2.21865177 75.79860687 6.17033148
6.37909508 76.97885895 -1.70008588
-1.47680819 70.20700836 6.25804996
-4.61305666 78.29454803 1.03383875
3.73502445 77.51499176 -2.25573564
-6.51379919 75.52829742 0.42936912
6.60098934 80.69181824 -3.90682817
0.30978078 78.78079224 7.23977995
-6.86345196 79.90069580 -9.31857681
-7.55904770 80.51683044 -7.90445137
6.02119684 69.60807037 4.40227556
5.50778675 75.86400604 -3.34664130
6.80665255 70.45764923 2.63733625
8.16743183 79.34414673 -2.79151201
-6.86210632 78.02667236 -6.50091171
5.02180624 75.16372681 -1.98539650
3.67511225 64.32409668 1.29654288
-3.55633187 80.62424469 6.32340527
-6.46361780 69.98255920 -2.39492464
-5.11774445 76.42217255 -8.12878418
8.90620136 79.20734406 -5.28874731
3.34858322 77.42300415 -2.20442367
7.56445026 80.47718811 4.16555882
7.52759027 77.60112000 -4.14017296
6.85676146 75.39255524 -0.22830269
2.71487212 77.69849396 7.33013296
-7.43970585 75.72645569 3.65838075
-7.42960739 78.61159515 -1.58672893
-2.39995694 80.88808441 2.86508203
-7.95564032 75.25126648 5.35887814
-2.77088833 80.57598877 -1.30832922
8.08739281 76.12702942 6.02951908
0.83015728 80.77102661 -0.82938850
-4.04470444 74.46487427 -6.55605268
-8.86359215 80.21292114 9.03675079
-4.61767960 65.78536224 0.21569806
-7.02324295 74.03111267 -6.23794270
6.04367161 71.50034332 1.58902013
-8.06070805 80.87708282 4.83036232
-3.72675729 69.34494781 6.34159470
7.24004173 73.30667114 1.95408988
-6.39783239 74.64715576 0.27879962
-1.95372725 71.73989868 5.67014456
-4.10572290 64.42231750 -2.59542656
0.17787144 64.36186981 -3.43939567
-7.79366159 77.76809692 -5.01626825
-6.01522779 70.52014160 -1.69913626
-6.00810957 75.90229797 2.56941938
6.80595255 79.34976959 8.92258644
-7.27249336 79.28661346 0.99560100
-3.80223584 67.92130280 5.40465021
6.40647602 67.23130035 -1.86243546
5.27552414 72.46258545 5.07525301
-4.11332703 63.97727966 1.65017772
-2.32356715 64.66213226 3.53907418
5.07471848 75.45491028 -7.61990929
6.81043100 75.16609192 -1.04458427
-4.84452057 78.28604889 -8.14261723
-4.84939003 79.40263367 8.71179676
-4.39790344 77.87777710 7.43567657
-5.38066530 73.38062286 4.17919445
6.78351974 77.87023926 7.35336781
-7.79905033 77.78798676 -5.95409060
-3.31694579 69.58452606 -5.15063429
-1.95526433 72.15996552 -6.36958218
-3.31650734 69.31210327 5.52292013
1.70524001 71.43665314 -5.36114073
-0.91957951 75.67334747 7.19156504
2.53080010 74.95877838 -5.51555634
4.41276312 66.87685394 2.44725299
1.61963725 63.74905014 -2.31311798
5.29853439 80.02431488 3.00562859
3.15668869 80.84662628 2.43727708
2.76848078 63.73751068 -2.80986357
-6.44943476 69.30296326 -1.47455192
4.98856163 79.76937866 8.40699005
-7.00030947 75.67213440 7.95028543
-7.02940273 80.74904633 5.38087559
-5.23519373 80.76084900 -5.54294348
-5.02986670 74.29285431 -5.55868196
4.55955172 76.09613800 7.54677582
-5.44154501 80.73066711 -6.36525345
4.37021971 71.53385162 -4.54436970
6.04067755 71.53660583 -1.63708651
6.21180010 73.50939941 6.73111153
-5.79952860 68.19923401 3.40180850
-5.56740665 80.42777252 -0.16260350
-4.33836794 70.03071594 -5.09830427
2.03434348 78.15913391 3.77032804
-5.94894457 73.41933441 -5.60801935
-4.47715044 80.91106415 -8.08783722
-2.98177099 80.89556885 4.37443256
-4.17220926 67.26581573 3.45757055
-0.23902358 63.97238159 -2.79743290
5.54075003 79.07631683 6.50466061
-6.39142466 69.84117889 1.03808069
-8.87698460 80.45764160 -3.89171267
-4.24072075 80.26156616 -8.57979679
-7.57126904 77.84769440 -3.59226990
-5.17961884 70.72370911 -4.94217587
-2.30451465 70.83681488 -5.71204615
6.86884785 76.06661987 0.96436983
-4.98038244 76.36219788 7.34571600
4.19227171 65.74930573 2.51430535
5.47728014 81.02035522 1.70004439
4.88032722 73.35008240 -4.52472973
-7.29763126 75.24403381 7.91739225
3.66279626 76.87649536 6.68674374
-5.08296633 67.68555450 4.75807238
-8.30208111 80.37158203 0.82120150
-2.32662272 68.45177460 6.18667793
-8.55190945 74.82612610 7.65304804
-6.95668459 81.00485229 5.40544939
3.61524057 74.79631042 -5.60886192
1.54196072 63.87474823 0.88144833
0.32513434 79.37056732 8.94318676
0.09029862 69.16254425 -6.43683195
-7.30023384 71.67071533 0.05692839
-6.73769522 69.75207520 2.85085773
2.49363971 74.60375214 -6.53669500
4.59158421 73.01442719 -5.99183893
7.51396084 80.50762939 1.61257994
-1.04567468 67.45809937 5.21747828
-5.27098513 67.79910278 -4.50174570
9.01023483 79.78440857 5.75159740
-8.41545391 76.16425323 -5.21445942
8.24634933 80.06782532 0.84238815
-5.61001921 80.31767273 -7.29657078
5.79759741 69.60856628 -2.57549191
-2.55739188 68.31913757 -6.83667040
8.74214268 79.16584778 6.59295893
-8.02528286 76.89730835 4.07830048
2.65956569 70.79360199 -5.69035244
-4.99053955 68.86098480 -4.55225420
-3.83189130 71.86304474 -5.55857038
0.62432551 72.39429474 -6.21777725
-6.52463531 77.72048950 -7.87900448
5.57120180 69.89393616 -4.32333755
-7.66151810 80.83484650 4.78668880
-1.60059714 77.33451843 -3.31607342
5.20681477 80.81272125 -3.99804449
7.53778076 77.59506989 4.64738369
-0.52340120 75.08273315 6.28732920
7.96898508 77.89463806 -1.90532565
1.73357069 72.37774658 6.18597031
5.46296835 77.09125519 -5.38298130
6.48291111 74.64150238 -8.67842197
-4.08581781 75.95031738 5.96878958
-0.42373118 80.23933411 6.94512272
3.80392480 71.34803009 -5.60261250
-1.20956790 67.52716064 -4.97802496
-2.76038742 72.13354492 5.42154026
0.88280445 76.11788940 -6.98953152
-0.16098446 75.47863770 6.86717796
8.32112026 79.67021179 0.90767002
5.69888783 66.01290131 0.03602249
-0.87717015 70.25765991 -6.84536743
7.63953304 78.15453339 2.45906281
-7.34965324 75.09056091 8.35618401
1.51734686 80.85103607 8.15187931
-5.46874809 77.90630341 3.18505383
1.62255132 72.46585083 -6.78954124
-2.43201685 63.69850159 -4.05830812
4.75408173 74.37622070 6.37648153
-6.19891596 66.83441925 3.27681637
4.99438190 73.81645203 5.01691437
-1.59819770 73.03318024 -6.65810251
5.12635899 79.21384430 7.77549839
4.97940779 80.58715820 -7.65367699
1.76992655 77.72801208 3.37117362
-5.13736296 71.85834503 3.80999327
2.93605781 78.23065948 7.60511255
6.16011953 72.04697418 3.14557290
7.30206394 75.48536682 3.36124325
4.42898035 67.31540680 3.85530257
2.29996085 80.54888916 -6.00402308
-4.41187572 77.15167999 7.90723038
6.87256575 76.58847809 -0.42814115
-7.46492147 81.20412445 -0.52926439
-3.72381949 77.62220001 2.96987009
2.68090677 77.34531403 5.29164696
0.84947973 71.63580322 5.66063499
5.91287279 78.24227142 7.73292446
7.77977276 78.31594849 -3.39920831
0.86414182 70.42668152 -6.22842026
5.90111399 78.08399963 3.97812533
-2.11080790 79.82682800 -8.46103382
1.14451313 77.90300751 6.35717678
-5.51017094 75.55690002 -3.66777182
-4.08292007 78.35717010 -5.74769020
-3.30332589 80.29336548 -3.71554422
7.66564941 75.66748047 -4.95587969
-4.46223354 79.63780212 -7.64120340
-7.44023561 78.54434204 -4.20384073
4.58297634 73.74801636 5.56281471
6.59057999 74.45956421 4.63077450
-8.53392124 80.81304932 -3.31435108
-3.30460334 67.77720642 3.68466759
2.34532380 71.75942993 6.36549425
-5.62125492 79.82900238 8.73109150
-8.33559704 73.67791748 -5.54896164
5.86040688 73.72692108 4.61360168
3.15350437 75.70748138 6.18131113
-3.01033664 63.88398361 3.53833222
-6.85852861 78.85295105 8.70923996
5.45277786 69.43393707 -4.24655247
2.18579459 77.50221252 -3.00003791
-7.98866653 74.61924744 5.13796377
4.33903980 64.26843262 -0.41859561
5.46117592 75.80341339 -3.07605910
-4.91702414 71.13822174 -5.05914164
6.62553358 70.84253693 0.64967728
-8.15946770 74.34259796 7.17937231
-1.89944422 74.12417603 6.16434288
4.79774094 65.06117249 0.77094132
-3.24755311 80.45919800 -0.94928616
8.29378891 79.14167023 3.05484486
-6.40549994 70.65848541 -2.77741265
-1.60535669 74.87926483 5.73011637
6.35769939 74.69712067 -1.68549943
0.79892707 77.85235596 1.16954970
-7.14592409 77.47673035 -0.43049884
1.39957714 80.51424408 -6.94713020
6.68365717 80.69745636 -0.81348592
-5.89282131 76.35818481 7.85710239
-1.84415674 80.75457001 -2.53612852
-2.08934569 80.67407990 -8.19586563
-3.94517875 74.09213257 6.05921507
-6.24883270 77.72857666 4.78357887
-6.79574585 80.85002136 -1.63382924
-3.17503262 66.63964844 3.87142038
-0.10297769 78.35173035 -7.60670233
-7.20147991 80.41237640 1.04344475
-8.67064953 79.90158844 4.96159458
-5.81829834 80.30072021 -4.15132999
-8.05032921 79.66053009 2.42382097
-1.63456416 78.11347961 -6.86049175
2.72510862 67.69891357 -5.37278700
-2.61001611 80.57701111 -6.10483551
0.45293099 64.49906158 -5.16177416
-4.69871092 75.44633484 -7.10402632
0.69193810 79.16950989 7.46647501
3.67471337 80.42849731 -6.31577301
-0.51797700 66.17447662 5.36641979
-3.54686642 77.67221069 -7.58553028
-6.64151859 77.59873962 3.63813329
1.93654275 76.17683411 6.58539724
3.94418979 77.84632111 4.94428062
-6.76850557 73.98856354 -3.23272181
2.89608383 77.89768982 -6.03307152
-1.46471298 74.37078094 5.76736498
0.21506731 76.46862793 7.63297129
1.87407517 73.47348785 -6.84644508
1.81954396 73.04922485 5.74651623
-6.99028397 78.61916351 4.69770956
4.89586973 74.63140106 6.48411751
9.83756733 80.24194336 -7.94053984
-6.73401022 77.84923553 -6.67002487
-5.49821806 77.84381866 0.59299159
-6.97092199 73.60012817 6.11367321
-6.84971094 74.43823242 -4.13633680
4.78055525 67.37829590 5.09816170
-6.35392523 78.16534424 -4.25800896
6.04498816 75.14899445 -3.52503109
5.63311005 79.42545319 8.82266808
3.73691964 64.98466492 -3.15471077
6.22270966 74.51157379 -0.10188112
-5.09305573 70.16526794 -2.28017068
3.54593992 77.40096283 1.27269328
-5.16846657 73.35686493 2.81933713
-2.40308118 80.47257996 6.27650452
4.61343002 77.09243774 -5.76380634
5.45100117 78.04302216 -6.38766861
8.50064754 80.73432159 2.41758251
2.74108863 70.06126404 -6.58300447
4.99871349 64.97428131 -0.11584203
-3.91516829 77.24877930 -7.37533474
2.35373306 68.52217102 -6.19079113
7.24068785 77.76025391 8.43077374
-3.77598143 69.18655396 -4.76021862
4.12847281 78.21977997 0.89004833
-0.20747064 78.14797211 2.92652082
5.34026194 67.20718384 4.68255568
9.04819393 79.68305969 5.78142691
8.93170643 76.00626373 -6.98692322
0.97448993 78.05239105 -6.84844065
-5.54757977 70.88258362 3.39868426
-2.26119852 78.61862183 -7.62781954
-6.72095966 70.97605133 -1.75563037
-4.00933886 80.30358887 4.44394779
-5.94370079 73.68938446 0.73812777
4.98326874 72.86891937 -5.26477337
-1.94441462 67.55626678 4.57807302
-1.17314112 77.53778839 2.63096333
-3.22953725 77.91993713 6.49250221
-3.86897993 75.82490540 5.12784290
6.99217844 77.62844086 -5.48688030
-4.96330500 78.13032532 0.06793238
-6.95746946 77.91279602 6.89977551
-3.16399670 80.73040009 1.67454922
-6.25533438 67.04673004 -1.15733337
5.56469345 80.24632263 1.99987268
-6.82479620 77.07531738 3.70636344
-4.29998875 80.98312378 -0.30185613
7.18866348 74.72123718 2.14686322
-4.64583015 64.65873718 0.85534072
7.42809677 74.26692963 5.21542072
-6.64322472 73.73750305 1.74551725
-5.64988279 77.24317169 -8.48407078
-1.95620024 63.95025253 2.01361060
4.53701925 78.09838104 3.67001867
6.29083347 73.93455505 6.70711708
4.69905186 75.38709259 7.52884769
8.73571301 78.97105408 -3.13627696
-4.35786676 80.74700928 -8.22507954
-5.34885120 77.44589996 -2.89938569
-7.70017576 76.95288086 0.53146416
8.57895947 79.21366119 5.25362349
-5.35128307 74.10214233 -5.66601515
-0.27910385 78.94071960 -8.08442020
-0.14529444 65.48198700 -4.72470284
4.74699211 75.75163269 -7.84833860
5.56064129 67.89222717 -3.89483547
6.53985405 75.58224487 -8.32971478
7.30633020 76.88975525 -0.30338222
-1.04189980 63.78902435 1.16818976
0.89501500 74.63999176 -6.80432653
-2.94269896 66.25956726 3.75680685
1.25412297 67.84175110 -6.58668947
6.96178818 75.54305267 4.12422705
4.83732367 80.99816132 -2.67613673
-8.48866653 76.15063477 -7.57729435
-7.00803852 80.37818146 1.62874222
6.20131254 72.46108246 0.61741215
1.22799981 80.00747681 -7.57433367
-7.01855946 76.64680481 8.77814484
8.19577980 78.43534851 0.58970988
-2.39676189 64.79262543 -4.13892031
4.71670723 80.61830902 -3.08848071
5.20335913 77.56282043 -4.00101233
2.60738420 78.26419067 -7.36723948
6.44299841 75.09468079 1.73674655
4.95661020 64.39569092 0.23633246
2.30524230 74.61956787 6.93610430
4.28263664 70.44775391 3.97882628
-1.83402431 69.02384949 5.98227167
-1.84092104 70.03884888 -6.45673561
4.62679100 76.12205505 6.88558435
5.03286695 80.62329865 -9.04450989
5.50520849 70.30195618 3.82851386
6.40153742 68.67966461 3.61855555
-6.88920784 78.32524109 -5.85729599
6.97953701 74.19682312 -0.98805332
4.45248461 64.54869080 -2.47108626
-5.42192888 75.31872559 -8.60021877
-0.72505188 70.51610565 6.94007826
7.17950678 76.34304810 4.06471348
-8.40153027 79.44437408 -8.24278164
-1.46083224 77.93935394 1.64238703
-1.97094333 69.82703400 6.46160841
-7.84630966 74.13835144 6.49939394
-5.66827726 77.82635498 -4.49314690
7.16710377 78.70747375 -2.19216895
0.38403961 80.80047607 -1.11099207
8.22269917 79.52879333 3.86752558
-5.08490753 80.60181427 1.19404840
6.78307676 72.53885651 -0.48551488
5.56304359 74.12569427 -5.70073462
0.46719119 79.85232544 -8.42942810
-6.07778931 68.37141418 -2.16125751
0.46860644 77.14111328 -6.98354959
-4.37606144 68.64320374 4.24015808
2.49996758 80.71487427 -6.54317474
4.90232229 80.94093323 7.82492733
-4.48912048 77.04806519 5.01649570
2.04112935 67.02620697 -5.98159027
-7.52969933 75.04613495 -4.78209686
-5.15820742 77.71653748 0.33102101
-8.88594818 80.62182617 8.95726490
2.74023890 75.43056488 6.00743818
-7.49316788 77.70093536 -2.89232111
-4.78566074 80.62940979 6.40609741
-5.45446873 67.75968170 4.20160389
9.53079987 79.49360657 -6.15003538
-6.75031757 75.21635437 0.74991900
6.16484785 80.52418518 9.35542774
0.61378324 70.06687927 -5.83364916
3.29202580 73.93479156 -7.21024704
-1.05985355 64.04264832 -3.07097387
-3.90231109 69.01185608 5.45612001
7.03698635 75.45999908 -0.68964297
-5.53516245 71.27084351 3.70791745
-4.51647663 69.72132874 -3.64737296
4.39081144 68.06854248 4.81837320
5.37482691 73.99121094 -7.23733711
7.21344423 76.40706635 -8.38990974
0.76481038 64.35269928 -4.83693504
6.73290443 77.11864471 -2.30000353
-5.87961197 78.26629639 8.00804138
-2.21166682 80.99476624 -0.00980749
-5.91163921 70.56343079 -1.40876055
-3.62166548 64.44528198 2.84634852
8.22123718 76.87828827 5.29598951
3.31781411 73.93538666 -7.14330149
-4.11167955 71.46517181 -4.89539623
-4.46098614 66.56243896 -2.46153188
7.10280323 79.34806824 8.31069660
8.25483799 75.94255829 -8.28220272
6.42251444 69.57830048 -1.38834536
-6.03651905 69.96635437 0.24656835
-6.26672125 77.64943695 -7.99667263
-5.39382172 71.32984161 -4.96156740
5.45463037 67.89550781 -3.43672585
5.59721231 68.73899078 -2.39718366
6.94391727 76.20117950 0.51000696
-1.58065295 70.46276855 6.30348301
-6.83641863 76.70774841 -3.02977037
-0.40504935 78.35133362 7.51794863
-0.64794195 66.76520538 6.17880535
-0.29881322 78.50585175 7.38419151
2.40785289 72.12870026 5.18554735
1.40861332 71.65930176 6.05827284
2.04082751 75.07170868 5.61907339
-7.32170248 76.46537018 -0.28641188
-3.18338561 71.95697784 -5.71108818
-5.86930037 79.13265228 8.93833923
-0.62422293 70.90917969 -5.71861696
-3.70880604 68.84545898 6.31478691
-7.15655184 80.91751099 -2.77445388
-4.28112602 76.73684692 5.83094454
4.28803253 66.06792450 2.66022825
5.81375074 77.98281097 3.58085656
-4.81852150 80.46603394 0.46302852
8.46189880 74.45956421 6.59509468
0.72227967 77.64039612 -5.15880203
8.61178589 80.01684570 2.47974658
6.86343098 80.17391968 -5.46665001
-0.31891701 75.01033020 7.15397978
4.89103031 69.59255981 -4.70786285
6.13731384 74.99517822 3.45786238
-5.68488359 75.29158783 3.01549006
-3.03670168 75.38104248 5.79285717
5.96593618 69.37801361 2.83597469
4.85068798 69.34111023 5.10360527
-4.67763138 75.68353271 2.18619871
-3.52512527 70.84629059 5.82032633
0.83292115 71.20889282 6.34248543
-1.76369357 76.68298340 6.19544363
0.57717186 65.50634003 4.67283392
0.69559729 66.58286285 4.48691273
5.00083923 80.70339203 2.90764713
6.49420452 74.50136566 8.37659550
2.28607368 66.40288544 -4.31299210
7.35618639 78.70874786 -8.94528389
2.69017792 80.48152924 -7.10562706
4.71530437 77.83068085 0.11072294
4.28832293 80.92279816 -6.47540092
-2.30422425 73.50833893 4.99060535
5.39510155 79.98666382 1.03487599
3.87257409 68.50690460 5.38318825
-1.48522937 81.04083252 2.71486735
-4.41701078 80.27000427 -2.40215707
-4.07832098 80.57550812 -4.37106848
4.81789398 77.95679474 -4.11398792
5.02168131 77.98698425 -5.73263264
-1.65598261 69.92665100 6.09841347
-7.13377523 77.36543274 -3.59525251
1.96240437 72.82720947 -5.74597359
1.49844718 67.46128082 5.38407040
1.65718997 80.44972229 0.02159638
5.66799831 79.98029327 -0.72307539
6.16665173 75.97563171 2.74386287
5.24544191 71.81920624 -4.78386307
4.99323654 78.49908447 0.41486871
8.02067852 79.64105988 -2.81413460
2.63613582 77.88801575 6.42133570
-6.13076162 77.51410675 -7.38017702
9.71362019 80.85812378 -7.60071754
6.62738705 78.32832336 9.08338261
0.31056300 71.65496063 -6.38116503
6.99167681 73.83249664 -8.16474533
-6.71649313 78.18268585 -6.40901136
-2.62943435 77.98043060 -5.48776960
0.21380940 72.90287018 6.04603910
-8.36613083 79.90139771 0.16039321
-2.51456714 77.62999725 1.70560563
5.97586298 66.83386230 -1.11500537
-8.30774498 78.80764008 -6.04305029
6.47264433 70.29453278 1.32028115
-6.69706488 80.91403961 8.98698139
5.41272259 69.77503204 -4.29597569
-7.95330429 76.08787537 4.83837843
-1.44420016 76.55249786 -7.44850969
-5.18087053 80.34309387 3.72555566
3.77183151 78.24109650 7.44530582
0.56474519 79.53551483 8.08792210
3.13569283 67.47335815 -5.28147840
0.85341650 80.41015625 8.31185818
7.94148302 79.22951508 5.02101326
-2.30221224 80.80477142 -7.18533421
-0.38883173 64.66467285 -2.12496996
4.79473925 68.55930328 -4.25385523
-6.97650099 78.38956451 2.88073945
2.51794529 65.54965210 -3.97390151
6.66906834 77.63840485 -3.89501548
5.92000771 79.97284698 -0.09356407
3.34081006 77.80001068 -7.46043205
3.50944352 64.18515778 0.90330273
3.36810255 64.24376678 -2.61478806
-5.75319624 70.97817230 -3.45040011
-4.46927023 79.90051270 8.54528141
4.05042601 71.75819397 -5.05073023
-1.05031323 66.23194122 -4.97658396
-4.54404497 75.54210663 7.79456902
6.01417589 68.29288483 2.23232007
1.27792859 74.47100830 6.16368055
-6.28045750 74.63783264 -0.40830469
-1.12598050 80.50370789 5.56964159
2.59106660 69.62680817 -6.46756887
5.01746082 67.34268188 4.85385513
2.98202348 64.41526794 3.93143845
-8.46455860 75.15283966 6.33070803
-6.35696793 75.12030792 -5.00737381
-4.13369608 69.47615814 4.82050228
2.48759675 76.84043884 6.19240856
-3.26354790 71.12376404 5.77665710
-5.36988878 77.71157837 -1.11733913
-2.48395348 70.83003235 -5.82370090
-7.81732798 77.48641205 5.99379253
6.04987812 75.82811737 3.30974269
-4.49246883 80.88644409 7.47254419
