-1.00459671 0.96710241 0.06638785
0.96272385 -0.17496593 0.36471519
0.38490674 0.87796420 -0.91234875
-0.22165008 -0.88014388 -0.95516932
-0.44586173 0.96291071 -0.85714006
-0.19687589 -0.22649278 -1.00935960
-0.91263497 0.63083398 -0.36489910
-0.71915913 0.57562542 0.71319759
0.14043470 -0.94129705 0.96513033
-0.16260251 -0.90469134 -0.98501325
-0.67497480 0.07267769 0.75422525
0.17446449 0.85832679 1.01274800
-0.37502956 -0.99374580 0.61710966
-0.25684506 -0.17269543 -0.95471215
0.21764693 -0.73133558 -0.99452579
-0.28709766 -0.35729095 0.93098164
0.80133593 0.96590173 0.54203439
0.99110818 -0.01056804 -0.33177367
-0.96699297 -0.89836025 -0.13286941
0.67287910 0.44454038 -0.70256793
0.38722432 0.98293871 0.79715085
0.59652328 -1.04112697 0.53685236
0.27012157 0.94035900 0.72968447
-0.91421115 -1.00752234 -0.30465618
0.14379822 1.01590884 -0.28368443
-0.37900740 0.30778408 -0.91106856
-0.06126911 -0.53875721 -0.98732376
0.99656630 0.83938897 -0.07207096
-0.57921159 -0.57943410 -0.80311084
-0.97009647 0.81836033 -0.03525012
0.09678199 0.39189106 -0.99996853
-0.94952583 -0.13580598 0.01817716
0.24068618 0.52961636 0.95945382
0.58417082 1.01956201 0.19436613
0.05996644 0.88183701 -1.03272915
-0.79773128 0.45862332 -0.54607666
-0.76199186 -0.34724075 0.66117084
-0.16538270 -0.92427188 -0.03348733
0.73998296 1.08085525 -0.11808128
0.78385949 0.70311618 -0.58588135
-0.63533604 0.99798167 0.76853538
0.83124650 0.31132656 0.49187270
0.26864222 -0.32871500 1.02034795
0.74732924 -0.77942300 0.66884971
-1.00988841 -0.01061507 -0.21295238
-0.43142614 -0.96168894 -0.94139338
-0.78302360 -0.62728173 -0.69971621
-0.88888311 0.59022826 0.46511677
1.01139164 -0.41328889 0.05963089
-0.97715271 -0.67708498 0.25372517
-0.57027352 -0.54192466 -0.77144849
0.96315718 0.70742947 -0.30849168
-0.98834908 0.63061446 0.04283065
-1.00739753 0.74317282 0.32602829
-0.69813335 -0.01064366 0.65270030
0.97931099 0.01130526 -0.29574847
0.37925699 0.96608067 -0.19690482
0.84135532 0.96334475 -0.50015974
-0.27777135 -1.00236309 -0.69565022
-0.92292333 -0.19306025 -0.39211023
0.93220758 0.42744741 0.23753884
0.70569849 0.52285504 0.72874284
0.91674078 -0.12062538 0.33533683
-0.55424917 -0.41361144 -0.80979311
0.65490234 0.53629810 -0.73831272
-0.01314886 -1.01050115 0.74394202
0.82957327 -0.60318625 -0.52612364
0.62605536 -1.01311409 0.48235545
0.08739074 -0.35224837 1.03005934
0.11941674 0.03745518 -1.02470005
-0.45895293 0.90367138 -0.17013554
0.46928358 0.59761184 0.89444947
0.96812332 0.27972612 0.24839236
-0.99847341 -0.80799758 -0.00391759
0.45529404 -1.01184845 0.13530566
-0.05734002 0.98341554 0.01614754
0.96008861 -0.68809408 -0.31791776
0.04521863 1.04014480 -1.06509328
-0.71482885 0.36292017 -0.63224185
-0.40210107 1.02059054 -0.51220345
-0.28146762 -0.21752828 0.94278347
0.26476815 -0.69491714 -1.02336586
-0.93388486 0.98942047 0.16874762
0.99712861 -0.88457483 -0.08883108
-0.00720077 -1.01536369 0.08406471
0.03830993 1.08332276 -0.53179622
-0.04011428 0.37836131 1.03983927
-0.71549237 0.07484546 0.71562099
0.76022923 -1.01541102 0.52492106
0.15484194 -1.05165303 0.48813349
0.68726122 -1.00822532 -0.29427081
-0.96719325 0.20667213 -0.08389372
0.98727202 0.12180579 0.07990179
-1.02938068 -0.53096098 -0.09842385
-0.19775383 1.00546432 0.72655213
1.02579641 -0.30307230 -0.01688422
0.73262453 -1.03691077 -0.60461402
-0.26228559 1.05969548 -0.18305306
0.74083972 -0.37268829 -0.64501345
0.96334207 0.08625744 -0.26986736
-0.98786962 -0.33571878 0.17988205
0.19605656 -0.97232205 0.23869015
-0.98444676 -0.82551420 0.20145334
-0.91278636 0.70560426 0.47155771
0.75730121 -0.47283205 -0.60480380
0.40969107 0.28806460 0.95268464
-0.90026867 0.95087785 -0.33166423
-0.31557688 0.39533785 -0.94474399
-0.19366123 1.03339314 0.96374762
0.60172999 0.96192211 -0.51439559
-0.07735307 0.06984969 -1.02314508
0.36542729 -0.99095654 -0.10803682
0.63790905 -1.04329371 -0.35411179
-0.51875377 -0.97343534 -0.36255118
-0.89692688 -0.43045759 0.52017796
-0.48580927 -0.08775695 0.88732123
0.96642554 0.46702179 0.30465123
-0.86024392 -0.22606662 0.61129546
-1.02077520 -0.22134800 -0.04708249
1.00232792 0.80246472 0.24527176
0.90489280 1.01632845 0.06467643
-0.57313883 -0.14450492 -0.82125127
0.99371326 -0.21575019 0.19177996
0.11818644 0.00039878 -0.95368302
-0.01191460 1.02358615 -0.50039601
-0.66338134 -1.05195153 0.53856325
-0.73710215 -1.01468742 0.40221024
-0.72976756 -0.47515190 -0.60960412
-0.40567571 -0.58946258 -0.95869827
0.61345816 -0.52624333 0.74713790
-0.42029059 -0.05996053 -0.84320354
-0.76736093 0.29818526 0.61769366
-1.00533295 0.20107287 -0.06469209
-0.43181604 -0.32694197 -0.94744515
0.88647282 0.45856071 0.50383317
-0.98455739 -0.26187730 -0.24164402
-0.85802829 -0.49695787 -0.46419802
-0.73527598 0.61543280 -0.69244993
-0.12988506 0.97289568 -0.97709584
0.23961961 1.01733589 0.52684093
0.58166707 -0.46320623 -0.87122905
0.16643192 -1.00793040 -0.02650453
-0.27631593 0.08975252 0.98470819
-0.79804420 -0.98731935 0.00595044
0.46903300 0.83817917 -0.87236440
0.56500649 -0.93439358 0.69371665
-0.27215201 0.95208001 -0.32077301
-0.25286558 0.07665622 0.96740580
-1.01508832 0.62490433 0.13137095
0.59214497 1.04125655 0.50599039
-0.90351737 -0.79460299 0.48175809
0.43046001 -0.28498369 -0.89644456
0.91259587 -0.23838626 0.32601008
-0.92817295 -0.15393157 0.43442854
0.72038555 -0.42637518 0.70076942
-0.51822746 0.47285169 -0.90712774
-1.01406455 0.29485673 0.04927915
0.96063399 0.44140181 -0.25722978
0.48125535 1.00908685 -0.11902592
0.98311961 0.44743249 0.15123539
0.77214885 -0.98181498 -0.56103539
0.63869548 0.87187850 0.77269912
0.18629396 -0.99320787 0.58322668
-0.81308246 -1.00873435 -0.60301924
-0.76980007 -0.98054880 0.30286077
-0.75163352 -0.68357527 -0.76418698
1.01102376 0.74038529 -0.11857106
0.43734357 -1.02335691 -0.70485640
0.80573463 0.61487699 0.68875980
-0.06150765 0.54236478 0.98879516
0.84162509 -0.09557278 0.63224018
0.10665335 0.07428811 1.00996768
-0.93198466 -0.71458745 0.35928762
-0.48369887 0.99252641 0.17860290
0.88224316 0.26700121 -0.46495554
-0.85599995 0.48365793 -0.46104148
0.85885096 -0.92204058 0.51321936
0.09178246 -0.12518606 1.05059564
-0.76280904 1.01849449 -0.39714995
0.75068259 -0.95072854 0.60420597
0.15913481 -1.03543985 -0.52620232
-0.77300811 1.00727415 0.45526537
-0.87009692 -0.85593289 0.54532683
0.99542284 0.76533848 0.13495627
-0.18391947 -1.03094518 -0.95225883
0.78132415 0.98680848 -0.55362260
-0.72814643 0.34036779 -0.65104187
-0.16560654 1.00737131 0.81463110
-0.90185034 0.77549416 0.42270172
0.03016781 -0.55936766 -0.99168038
0.88738501 -0.89701885 -0.41734299
0.01166894 -1.03726125 -0.11395878
-0.62048435 0.96774960 0.13333963
-0.37419236 1.03583646 0.78789210
-0.47661999 0.98824888 0.71611428
-0.75797629 -0.21457933 -0.67851055
-0.38333499 0.96893364 0.65366447
-0.23865312 0.96697623 0.95930219
0.26263341 0.98968858 0.22447379
0.69937325 -0.71985501 -0.76380193
-0.25671205 0.99568796 -0.26072988
0.02557311 0.92734981 0.95784509
0.21254383 0.96238869 0.90084672
-0.53283858 -0.99753064 -0.67629087
0.58334041 0.99502146 0.06527033
-0.94051242 -0.43283725 -0.42745239
0.94433498 0.32167438 -0.25287965
0.41421655 0.12711352 0.92957234
0.61319053 0.97937071 -0.30652219
-0.88420069 -0.30783978 0.45718756
-0.71311712 0.75630927 -0.62528074
-0.76855862 0.51651859 0.60893667
-0.78434515 0.00985818 -0.60422730
-0.92411304 -0.03995558 -0.42826381
0.48592135 1.04080296 -0.50601470
-0.02515296 -0.24732018 -1.02533972
0.95933950 -0.92614108 -0.12447123
-0.13354266 -0.95737338 0.94903457
0.18496940 0.94869870 -0.99742520
0.58693790 -0.03677777 -0.82787848
-0.99298096 0.90998024 -0.27932814
-0.37782493 -1.03108001 0.14126295
-0.10731687 1.00795043 -0.78762841
0.18073578 0.24273095 -0.96478641
-0.92518592 -1.01271856 0.26116386
0.78910470 -0.36587662 0.54554069
-0.22616079 -0.98762184 -0.59962583
0.29800096 1.02260554 0.79493690
-0.86570311 -1.00137591 0.37526238
0.88053155 -1.01044178 -0.36662439
-0.69368589 -0.28252077 -0.75281513
-0.96983647 -0.11273675 0.14881879
0.53510535 -0.99535322 0.70403469
-0.16267253 0.36524570 1.00124764
0.73010159 -0.13958062 -0.69175589
-0.42365307 -0.94908458 0.20810348
0.93390107 -1.01065242 0.10235869
0.46521726 -1.00147653 -0.01508499
-0.87379396 -0.49193799 -0.36484975
0.22621123 -0.97871780 0.16834559
-0.98329306 0.29501238 0.00387389
0.91051579 -0.19247307 -0.43501273
-0.17234133 -1.02175188 0.90107441
-0.98986375 -0.37012216 0.15940045
0.69482350 -0.08097358 0.77289259
-0.97396994 0.33028638 0.05441583
0.90413010 0.54942983 -0.47255206
0.99209559 -0.64446318 0.02988097
0.06852310 0.08965260 0.97899103
0.69437170 -1.01209903 -0.70623255
0.47219962 -1.00956213 -0.09149606
-0.29432902 -0.97526032 0.43915808
-0.52499735 1.00390017 0.07777692
-0.91896021 0.34977645 0.48844224
0.41031492 -1.00476277 -0.72860897
-0.28557360 -0.98699439 0.33036524
-0.31727162 1.07958364 -0.85363936
0.28911814 0.74066341 -0.95426619
0.25842041 0.93280756 -0.99305701
0.86618865 0.86103958 -0.54732800
-0.49335438 -1.01868773 -0.23405786
0.41385391 0.41252136 0.91976786
-0.48875338 -0.71680188 -0.88899469
0.18426076 -0.21678929 0.95268345
-1.00880742 -0.84130311 0.13633613
-0.94812024 0.48728955 0.39751258
0.28351450 0.98758173 0.36573747
0.65186906 0.99858069 -0.24816050
0.32231677 0.99141866 -0.22423694
-0.00819761 0.19408329 -0.99152541
-0.58803570 -0.97843570 -0.68995476
-1.01030850 0.80648595 0.10538368
-0.39812133 -0.65413952 0.89506555
-0.13931964 0.93422055 0.98571932
0.60570335 0.19904779 0.77073228
0.90678096 0.92795914 0.30630353
-0.28283051 -0.04447324 0.95822549
0.87087786 -0.04075907 -0.48792225
-0.68872666 -0.97601372 -0.33184990
0.07290911 -0.45241749 -0.99715960
-0.94518852 -0.58012247 0.29224360
-0.15509501 -0.49819914 -0.95965016
-0.51465631 0.55516630 -0.84192514
-0.91055131 0.97779131 -0.07364969
-0.28837129 -0.69103897 -0.95890784
1.00180733 -0.39670774 -0.04152565
-0.76439106 -0.69551337 0.59283078
0.15001750 1.05178022 0.24723017
-0.52843773 -1.00260687 -0.54795063
-0.97863758 0.94561136 -0.34622177
-0.15612313 -0.89544410 -0.98280299
-0.36489236 0.99387223 0.36426595
0.43133572 -0.83324003 -0.88689232
-0.70265615 -0.01744271 0.74258912
0.76540279 -1.05947554 0.25411800
-0.96495390 0.56606948 -0.14106111
-0.63677049 0.98179072 -0.74717581
-0.42581138 -1.02061975 0.47225186
-0.91144824 0.20974474 0.35459727
-0.89138293 0.23716219 0.41890082
-0.77430177 -0.12562285 0.58370793
0.31846333 -0.28086421 0.94441128
-0.15831603 0.95292777 0.95911896
0.52338064 1.00517464 -0.10419704
0.25762454 -0.35199624 0.96247685
-0.87311900 0.32432118 -0.60625112
0.35775542 -0.99650925 0.89472377
0.76232362 -0.99453902 -0.35443163
0.46833640 -0.99112815 0.31971556
0.18280838 -0.97660744 -0.96199667
-0.36015555 0.60383230 -0.92112422
0.15444124 1.00827718 0.17031224
-0.48165554 -0.86110872 0.97125685
0.65861893 0.21654403 -0.71792626
0.97235215 0.82209533 0.04327570
-0.74427974 -1.01368654 0.68503487
-0.30824456 0.61206299 0.94095504
-0.98519039 0.59990555 0.05167898
-0.76323795 -0.42924902 -0.65108335
0.14554943 -1.00129414 0.18702152
0.89630151 -0.28592557 0.53353298
0.87126851 0.96725029 -0.04337451
-0.25276679 0.69757819 0.99183607
-0.75758529 0.80789304 0.62620723
-0.00737887 0.71286947 -1.00649369
-0.84117222 -0.51532149 -0.49322200
0.02241899 -0.98908585 0.92508185
0.44168255 -0.48504511 0.85078573
-0.46176520 -1.01102221 0.05531055
0.28145748 0.99179977 0.08436243
-0.80478048 -0.97090447 -0.35770875
-0.91295564 0.23622085 0.39766061
-0.27641222 -0.95929533 0.50869191
0.51515198 -0.36312780 -0.87159276
-0.63101339 -1.03714585 -0.77336419
0.51253664 -0.94869012 -0.04809630
-0.09417491 0.95271015 -0.66552293
0.52576029 -1.01879954 0.72659218
-0.72735703 0.31685010 -0.65701973
0.13201825 1.01144743 0.98717642
0.97815108 0.69790661 -0.24109097
-0.76445258 0.97583896 -0.64488351
-0.32106954 0.96401125 0.97571564
0.91624510 -0.93538254 0.46590978
-0.50610685 -0.31918576 -0.89630389
0.64356256 -1.03025687 0.61297178
0.01524360 -1.05222595 -0.42059252
-0.86039448 1.00632799 -0.44819826
0.06949735 -0.16588341 -0.95134628
-0.50659418 -0.22975288 0.87485063
0.85666001 -0.74908805 0.35569835
-0.39357397 -1.07279158 0.81021523
0.28939733 -0.55218273 0.96574247
-0.22519559 0.77557027 0.98856747
0.83011734 1.02045906 -0.47811702
0.21362324 -0.90781492 0.96096802
0.96718347 0.97617847 0.18800241
-0.21585903 -0.24959041 -0.93551064
-0.66588616 -0.98754710 -0.12825401
-0.10187801 0.97473210 -0.27965254
-0.52173948 -0.72445852 0.83946991
-0.62085629 -0.99472529 -0.72505617
0.85250771 1.01103926 -0.25791988
0.93027329 -0.85643500 -0.33890957
-0.55126655 1.03952217 0.58040023
-0.56412399 -1.01930749 0.31391782
-0.32799518 -0.61281836 0.97261119
0.34534153 -0.37875769 -0.92287934
-0.57952976 -1.00588298 0.03347136
0.89188361 0.66082966 -0.38443202
-0.35797071 -0.98036259 0.92551196
0.33207205 -0.29815948 -0.95986748
-0.95866346 0.97393382 0.30100852
0.57900727 0.26201382 0.84662712
0.88519704 0.70666778 -0.47201318
-0.66071415 0.79154217 0.70606875
-0.75183010 -0.54546422 -0.68231761
0.67286348 0.35905939 0.68423223
0.45371658 -0.23521014 -0.92232633
1.01041615 0.15988913 0.02303278
-0.76980698 0.71557254 -0.65188885
0.47998151 -0.94197619 -0.11009386
0.56751573 0.94300354 -0.85724926
0.89716995 0.46577588 0.19138183
-0.47755471 -0.13680005 -0.88911819
-0.56175351 0.88250142 -0.78062284
0.56389284 -1.02314699 0.70867288
-0.89117920 0.96903265 0.15038933
0.90350747 -0.45619017 0.50996029
0.57732630 0.07924665 -0.83434832
0.32442287 -0.82189244 0.90158534
-0.63832521 1.03484023 -0.17141604
0.57797027 -0.69878405 0.82250595
-0.87414908 0.09189366 0.53045428
-0.42677730 0.99066091 0.93644559
-0.96817768 0.82511348 0.37986544
-0.97684884 0.28683943 -0.03315178
-0.83220053 0.19440888 -0.57641709
-1.01686621 -0.51564014 0.15987267
-0.88968527 0.48451409 -0.45883647
0.23215614 0.46090680 0.96102834
-0.78179622 -0.81967682 -0.59423375
-0.73736072 0.99212128 0.21131192
-0.65012825 0.99710721 0.15657562
0.75383902 1.03251708 -0.14766942
0.84165716 0.20550659 0.48467785
-0.53266668 0.96508145 0.24189498
0.85675979 -0.96715403 -0.53894258
0.30626270 0.98679584 0.88454592
0.27411988 -0.40268824 1.01051748
0.00101971 0.99909800 0.13044956
-0.35783443 -0.49074090 0.94438243
0.27367702 -0.95356625 -0.90460205
0.87905121 -0.02370113 0.37217918
0.81025314 0.16554314 -0.61704147
-0.58007324 -0.63454330 0.82055569
-0.76826477 0.99155664 -0.02179495
-0.66038728 -1.02707946 -0.50653195
-0.12044001 -0.92879975 -1.00507772
0.29162908 0.84110570 -0.94101799
0.98072720 0.64022809 0.01916106
-0.14179447 -0.99323165 -0.30953383
0.63015449 0.98406422 0.37125382
-0.30859533 1.01179552 0.43374071
0.15812513 0.56874162 1.04950821
0.51245081 0.04785060 -0.84174371
0.96816003 -0.02021388 -0.22109953
0.57909143 0.00481169 0.83943832
0.59404004 0.39497894 -0.78331792
-0.99743545 0.31274995 0.06391535
0.61119545 -0.99047965 0.71594393
-0.17127304 -0.47746864 0.98410559
0.28827935 0.40888983 0.97257423
-0.91852176 -0.38753042 0.39818868
-0.35826969 0.87908018 0.95569110
0.65299904 -0.02497460 -0.75751364
0.92722774 0.72365135 0.35401383
-0.89246190 0.64731407 -0.19616088
0.15232666 -1.03315163 0.25458199
-0.19517732 0.49546808 -1.01320362
1.03851795 -0.75888258 -0.05308879
0.06252690 1.01211381 -0.66606033
-0.54429162 1.00165403 -0.67379510
0.46690816 -0.99033880 0.85756958
0.62718308 0.96969700 0.12340184
0.93875587 -0.83887202 0.16778463
0.63087213 0.43422648 0.77370691
-0.69283962 0.11219157 0.68452001
-1.01591814 0.46502861 -0.21450378
0.37187409 -0.93795055 -0.10386647
0.95671344 -0.72979015 -0.05665806
-0.95192516 -0.99694753 -0.41594493
-0.81872487 0.38703188 -0.56019390
0.36626357 1.02561557 -0.82785952
-0.14156091 -0.99861217 -0.11934838
0.44533038 0.16421707 0.93592906
0.14377938 1.04442763 -0.58844090
-0.22055471 -0.48795906 0.92218935
0.42069039 -0.96678472 0.34658495
0.21003376 0.95326418 0.25796446
-0.37282738 -0.61481839 -0.91654944
-0.09831379 -0.99740398 -0.57082677
0.77629852 -0.95391446 0.55998576
-0.29689634 -0.26206046 -0.97470045
0.42802057 -0.99111986 0.79909933
0.94913721 0.47702092 -0.32303929
-0.84504426 0.56209254 0.48778680
0.57872415 0.09905373 0.79366875
-0.97066200 -0.59835225 -0.05060212
-0.38862494 -0.83953172 -0.91214502
-0.06177108 1.01724350 0.80344284
0.68953049 0.68709290 -0.78811264
0.22658673 1.05278099 0.43143201
0.66132116 -1.02218091 -0.49681771
-0.95208561 -0.27832830 -0.41846865
-0.79415643 1.04772270 -0.09938031
0.76755738 -0.99023873 -0.11755737
0.97190201 -0.74745631 0.37593064
-0.23612519 1.01950240 -0.99694359
0.65739453 -0.99510032 0.32756683
0.94406056 -0.03639257 0.37793747
0.82839239 0.98132044 -0.30273020
-0.97860456 0.91614157 -0.26035780
0.62299848 -1.01154256 -0.15805441
-0.86851501 0.80824929 0.32830170
0.92709756 0.34653401 -0.26291296
0.94411528 0.12094513 -0.26923010
0.46145365 -1.02100325 -0.84320986
0.18944804 0.94820452 -0.75485528
0.23409668 -0.96268499 0.10339735
-0.03055545 0.76082784 0.92803621
-0.70744157 0.97135550 -0.29182765
-0.70388162 -0.15295237 0.69893062
-0.30394346 1.02887058 -0.56392562
-0.46291593 -1.02193081 -0.02490868
0.13281268 0.96163362 -0.65443051
1.02045369 0.41710910 0.23640205
-0.97580719 -0.53999853 0.16065080
0.08614825 -0.99985451 -0.02218592
0.27725181 -1.00345111 0.56060827
-0.66544557 0.68341964 -0.75897491
-0.99462044 -0.37435296 -0.21189238
-0.96718717 0.62290943 -0.08345381
1.03476655 0.85043532 0.09759066
-0.15731999 0.40263852 1.03986442
0.54066503 -1.02914619 0.72192061
0.23734617 1.01089895 -0.14034019
-0.94938469 -0.06409588 -0.31199628
-0.20093594 0.22666003 1.00522578
-0.13995731 -1.02187884 -0.77732182
-0.18733440 0.48176789 -0.95313966
-0.00937111 1.03457761 0.61378336
-0.82343364 -0.11649470 0.37386999
0.42882878 0.83321959 -0.92818153
0.34838343 -0.44204652 0.91472483
-0.45644906 1.03954113 0.02439901
-0.45775953 0.05673807 -0.91562617
-0.41728622 0.99532270 -0.63450980
0.27540559 0.18733779 0.95296395
0.13667393 -0.22788247 -0.94272947
0.05945405 0.73012823 -0.97383678
0.05421762 1.01498151 -0.99000943
-0.96295083 -0.44467109 -0.34245411
0.09855507 0.05159108 1.01546609
0.43081966 -0.39868429 -0.95241141
0.40395239 0.98405409 -0.58136785
0.86135972 0.16901666 -0.60978854
0.68552959 0.55402756 0.73760939
0.02795795 1.02565742 0.87110639
0.91107798 0.65385896 0.38765132
-0.19272500 -0.07703608 1.01182127
0.16566181 -0.99921316 -0.70968628
-0.99866617 -0.84482849 0.12277181
1.02659130 -0.01153471 0.13135643
-0.71323884 -0.51819259 0.72278309
-0.79357684 0.17422032 -0.62475574
1.01987338 -0.53668422 0.10549777
0.59042513 -0.96518564 -0.45469052
0.14208795 0.97975802 -0.98309743
0.65264022 -0.62317741 0.79070151
-0.05203743 1.06733620 0.44832548
0.76957798 -0.95500171 0.07817150
-0.82571471 -0.60636705 -0.48647305
0.57457674 -0.18877968 -0.85292232
-0.29695871 0.81197572 0.97312415
0.95929575 1.01236749 0.17373644
-1.02042210 -0.23957172 -0.00541589
-1.00964236 0.66600412 -0.02536209
0.70418465 -0.30698878 0.76725078
0.14637996 0.98165214 -0.78933680
-0.94658172 -0.25562802 0.34255901
0.93538296 0.94376981 -0.41051611
0.88986468 -0.62100703 -0.44971734
0.49364251 -0.71619105 -0.87555456
-0.34938082 -1.05332804 0.52983212
-0.17055455 -0.97117424 -0.93658721
0.99746156 0.37039402 -0.33687311
0.25141901 -0.20358659 -0.94079578
-0.08564844 -0.97269720 0.28365651
0.68531871 -0.09976441 -0.70291042
1.03802705 0.22643970 0.10338038
-0.97045887 0.28055122 -0.10019121
-0.23189980 0.97152352 -0.38261911
0.39839128 -0.99206668 -0.75896358
0.93973470 0.31365812 0.28714910
0.90058398 0.47388524 0.40739328
-0.09541044 0.94581026 0.31325081
-0.23443513 0.58265615 -0.95305026
0.00363871 -1.02611232 -0.94836533
0.98504591 0.31370166 -0.06390367
-0.51350844 1.01140475 -0.70320094
-0.73665786 -0.47838154 -0.68962586
0.72323656 0.23439656 0.70066774
0.76318848 1.02804255 -0.48195893
0.08114187 -0.93478894 0.98852873
0.49595219 -1.05612063 -0.51413846
0.99725306 -0.20259844 0.18164821
0.80624056 -1.01719391 -0.19615333
0.57905424 0.22349611 0.86739337
-0.99858367 0.37483916 -0.00184350
0.95909202 0.77429640 0.28158092
-0.63344872 0.04292540 0.88072455
0.79518056 0.27639151 0.57541788
-0.14243762 1.03632307 0.23425958
0.10331374 -0.99747854 -0.41314140
-0.98882020 -0.68518680 -0.03171429
0.30681384 -0.98664874 0.28388157
-0.46172631 -0.97488189 0.50522256
-0.14009626 1.00984716 -0.07042612
-0.03431951 0.20743139 1.02571905
0.29146576 -1.03773558 0.42015246
-0.05733467 0.66315275 0.98703337
-0.23896164 -0.89154118 -0.97998047
-0.88253808 0.11334297 -0.62458348
0.00717532 0.00825391 -0.95594561
0.21439752 -1.05040622 0.93143201
-0.49426046 0.38103369 0.81100607
0.67595267 1.00339830 0.05540935
-0.54791951 -1.03306592 -0.04950097
0.85997486 0.76603568 0.55896580
0.76934099 1.03098643 0.56300616
-0.41732112 -0.44738999 -0.86188340
0.13195030 1.02126276 0.51396263
-0.74070966 0.24194799 0.65732956
0.81703913 -0.68774295 0.59432590
-0.27353889 0.94435400 0.56847620
0.69676113 1.02359843 0.42688853
0.93411863 -0.46558130 0.27532345
-0.82926035 -0.67543054 0.54579866
0.00089532 0.08010301 -0.98715270
0.87849927 -0.55350560 0.51680481
0.83809268 0.98569393 0.45754853
1.06025505 0.47010630 0.07252425
-0.93023503 0.65602559 -0.37878567
0.60257721 -1.01580596 -0.81882501
-0.55137694 0.28485799 0.87288880
-0.54179275 0.38542107 -0.83599460
0.99733973 0.40927470 -0.13979192
0.19103853 0.93542868 -0.33834612
0.52617323 0.45058265 -0.82812619
-0.16856980 -1.02977264 0.14395417
0.19176419 -0.70508015 1.00821030
-0.95135713 -0.07229514 0.27449492
-0.90972996 -0.91931766 0.43403715
-0.19683398 -0.97750407 0.77066100
0.97047865 -0.34341151 -0.22646239
0.99630737 -0.09221832 0.03220005
0.94273031 -0.39123851 -0.24446468
0.36522055 -0.32784778 -0.89779723
-0.16855894 -1.00537610 -0.77642524
0.44311148 -0.33292571 -0.91120851
0.15858622 0.50085586 -0.98230684
0.62479997 1.05221450 -0.60332191
-0.18706995 -0.60431117 -0.95480156
0.95719206 -0.99764925 0.10572825
-1.02307451 0.85091299 -0.08768269
-0.01158203 0.98201162 0.51651025
0.30512208 0.61040252 -1.01837444
-0.18164569 0.09076867 -1.00224292
0.84806859 0.13152492 0.41666386
0.74531937 1.01902044 0.07249712
0.58044207 1.02343714 0.11478447
-0.42238256 -0.97140425 -0.33575168
-0.80540526 0.94886678 0.15865122
0.97484303 -0.78228539 0.36664528
-0.99709475 -0.37426344 -0.02040013
-0.92676520 -0.91494489 0.13842480
0.67206562 -0.11859626 -0.76386285
-0.32906491 0.99515784 -0.91214418
-0.89548886 1.04917896 0.23505041
0.48755017 0.93065107 0.13486926
0.65178049 -0.96938944 0.20000988
0.84945917 -1.01902413 0.15909302
0.65161133 -0.95591182 -0.10008063
0.47344598 0.39437342 -0.83261311
-0.05750886 0.62877774 1.00523710
-0.02631449 1.04676032 -0.80402195
-0.49120501 -0.22312079 0.84264624
-0.32292038 0.99633121 0.01330245
-0.96649337 0.80955803 0.04091597
0.72578895 -0.98225832 0.16753981
0.42410702 -0.67265469 -0.92069149
1.01065516 -0.34529284 -0.05536288
-0.60560536 -1.00537777 -0.64686179
0.96336150 0.88930559 0.33088273
-0.54342711 -0.81031883 -0.82778180
0.34961578 0.79458123 0.94749689
0.42735252 -0.56584096 0.90194821
-0.49126932 1.00652647 0.23253816
0.18470845 -0.60470611 -0.94369495
0.77083802 -1.01885223 0.39521539
0.88190818 0.46891338 -0.37901270
-0.29828814 1.01352310 -0.76586306
0.90004957 0.48177037 0.36867616
0.17724642 0.94341797 0.50556803
0.00307655 0.19385664 0.96915519
-0.38022175 0.44639915 0.89678371
0.41494998 0.97528028 -0.89617765
-0.71923625 0.56177437 0.72635031
-0.74373543 0.14497231 -0.71429193
0.28722370 -1.01942444 0.14794496
-0.19635265 0.99819267 0.75077403
-1.02932656 0.02197714 -0.32000303
0.70167279 -0.90217131 -0.71960342
0.30796897 1.01370871 -0.00643462
-0.06948474 -1.02642334 -0.28109485
0.29473537 -0.41865554 -0.92068899
0.89344168 -0.40547720 0.46308956
-0.58100140 -0.96199703 0.45181838
-0.73130858 -0.11212704 0.76364040
0.60312843 0.48913285 -0.76435816
-0.53132570 -0.32948899 -0.83365524
-0.81959307 1.02898943 -0.53124547
-0.77061975 -0.14652482 0.65737402
-0.46905670 0.96552145 0.11125725
-0.33823022 -0.84866697 0.97140217
0.65942645 -1.04276681 -0.50557220
0.31206855 -0.80316353 -0.89669561
0.98156726 0.97752750 0.07912176
0.98948479 0.67309856 0.05197612
-0.82278585 -0.86102790 -0.63772130
-0.61574793 0.76720393 -0.86998987
1.02442193 -0.28373235 -0.12656297
-0.96761882 -1.03222048 0.09183226
-0.37851125 1.01825035 -0.82959545
-0.01640165 -0.72382760 -0.97949469
0.00625972 -0.97243601 -0.98297167
-0.21975800 -0.96524006 -0.59059632
-0.03625621 -1.01696706 -0.56512368
0.96169221 0.86989212 0.04128294
-0.39453250 0.17907114 -0.93873858
0.81309485 0.47264785 0.50500035
0.06508143 -1.02275312 -0.91667938
0.81680524 -0.97223592 -0.07057634
0.11237989 0.97180837 -0.81559539
-0.05325302 0.73407352 0.99628854
-0.98026252 -0.28235760 -0.35861009
-0.53059566 0.98045123 0.28262299
0.62724507 -0.95706213 -0.36970103
-0.57372904 -1.01385868 -0.76180136
-0.23008528 -0.98948669 0.96283412
0.28125364 -0.03934702 -0.98513043
0.15414590 -0.36272261 0.97991228
0.16297296 -0.80615079 0.92442513
-0.72716355 -1.00702119 0.64873230
0.70141041 0.95540065 0.46165362
-0.99281275 0.90150309 0.21425518
-0.20437708 0.99367279 0.21978915
0.25174418 0.23827265 0.97736704
-0.48097482 0.79143590 -0.82111335
0.21812372 0.75775677 0.96411324
0.02184925 -0.85123152 0.95447683
0.36004052 1.00198901 -0.27727839
-0.13027306 -0.91869539 0.01953690
0.62280023 -0.96537113 -0.53146541
-0.97688675 -0.82715422 -0.30441645
-0.52794278 -0.48983508 -0.77229059
0.03305692 0.31856197 0.99615824
0.18743791 -1.02567649 -0.70758688
-0.92989111 -0.30747700 -0.36603087
-0.36250770 0.64554071 0.90002990
-0.66861045 -0.33394939 -0.74099648
-0.28437436 0.99906987 -0.92770505
0.41480583 -0.11370417 0.84625018
0.94715440 0.00964833 -0.38225362
0.74428093 -0.84963524 0.65102839
0.70141220 0.24543470 -0.73569357
0.52326918 0.45703554 0.82807148
0.74255407 1.01995802 -0.50506318
0.55682874 -0.07736809 0.85352719
-0.95800817 0.99972266 -0.08044337
-0.37897101 -0.59754956 0.94043624
-0.24821375 -0.46738675 -0.96162176
-0.65399659 0.47261167 0.81371272
1.00441146 -0.92654127 -0.02264646
-0.02353108 1.00020719 0.69312024
-0.91720104 -0.71910733 -0.44700477
-0.53653574 -0.72804117 0.90009022
-0.93184400 -0.45447963 0.40537483
-0.90018690 -0.39943007 -0.42462000
-0.54935896 -1.01159155 0.42611444
-1.01100338 0.47399250 0.13355930
0.31824148 0.47740614 0.90561366
-0.30357960 -1.02413714 0.06880045
-0.69418776 0.32938355 0.78494835
-0.11713365 -0.84746802 -1.02129495
0.95222735 -0.49996349 -0.09809504
-0.91964984 0.38206291 -0.39571425
0.81660676 -0.21821640 0.53569412
0.76236773 -0.29963332 0.59299469
0.34335461 -0.08085035 0.92376244
-0.84897375 -0.90418345 -0.53327239
1.01610696 -0.74890894 0.01250181
-0.45022380 0.59716648 0.85655856
0.65820599 -1.01910329 -0.17060131
0.67275906 0.99622732 -0.60661888
0.80922580 0.98181236 -0.60041475
-0.55535948 -0.38070545 0.78384221
-0.96832764 -0.40976086 -0.31158030
0.22288403 0.97553867 0.41730443
0.10593340 -0.05789741 -0.96874797
0.31980407 -0.51392549 0.98583210
-0.97915018 -0.73283696 -0.23864707
-0.35230091 1.00244582 0.64905548
0.74786448 -0.37999815 0.64720404
0.60466719 -0.87754530 0.78687215
-0.85258281 -0.67707831 -0.60281050
0.98393285 0.17462964 -0.13733579
-0.75988948 -0.46084327 -0.63650799
-0.98016000 0.50214422 -0.07461446
0.29884320 1.04789698 -0.38073859
0.37638012 1.02419209 0.60411584
1.05900896 -0.22418804 -0.00008490
0.97224975 0.72705203 -0.34343028
0.36687058 -0.97901160 0.23406906
0.62226200 -0.92287278 -0.29371703
0.30700886 1.03411424 -0.51717174
0.22283223 1.01958776 -0.05539143
-0.25107107 0.98329324 0.23400606
-0.69420540 -0.38563970 -0.65345669
-0.92001665 -0.15354832 0.35013470
0.37940639 0.52263165 0.90166390
-0.10228727 0.99979883 -0.85968339
0.02955233 -0.08670981 0.99447703
0.27446505 -0.32541507 0.92259431
0.14986658 -1.05751002 -0.83733308
0.94587779 -0.91016340 0.24934669
-0.42896020 -0.39647788 -0.96626353
-0.00730221 0.96601462 0.98010993
0.95240188 0.62309659 0.23589617
-0.22619569 -0.99379772 -0.02016767
-0.20379838 -0.21087699 1.00079346
-0.08202083 -0.50404620 1.04347682
0.18645689 0.92573488 0.98887730
-0.16367342 0.98925787 0.01158379
0.18893732 -0.46550331 0.95722616
-0.42929402 1.00347006 0.07092529
-0.16494131 -0.99706769 0.44298264
-0.93640220 -1.00949824 0.11095470
-0.52354145 -0.39628929 -0.91751015
-0.24454269 -0.22880399 -0.97849834
0.44843125 -1.00096679 0.35562748
-0.94746339 -0.03733129 0.23749098
-0.80181122 0.76946425 0.59713244
0.05415025 -0.96390814 0.62170732
-0.58660901 -0.98306739 -0.46648434
0.85966218 -0.07196296 -0.46586213
-0.96788478 0.86262369 0.38025874
-0.86606205 1.06758344 0.20227212
-1.02374518 0.98870486 -0.04716987
-0.85007477 -0.99855900 0.00739612
0.47092280 1.00437665 0.68404412
0.22651587 -1.03640711 -0.06802370
-0.13850352 0.38425532 0.97370052
0.00158693 -1.03318548 0.66065741
0.24420451 -1.02414775 -0.54885781
-0.22659875 0.27104625 0.96806014
-0.52821529 0.96103489 0.23558348
0.70837247 0.29030359 -0.75300169
0.88664329 0.96239036 -0.39936009
-0.77357507 -0.81475937 -0.63108492
-0.35381752 -0.96607405 0.28300494
-0.84632456 0.66739118 0.56238198
-0.19624333 1.03776574 0.13175006
-0.43276030 -1.01036441 -0.09256750
0.95377600 -0.65023577 -0.18296725
0.59952617 -0.99846625 0.34900996
-0.99242592 -0.83477139 -0.27625486
0.91171265 -0.13021912 0.40140983
-0.75725269 -0.51277411 -0.62571526
-0.12419711 1.04046726 -0.15305115
-0.36574468 -1.02011263 0.93864083
0.43065828 -0.99521291 -0.56687689
-0.77765965 -0.97411805 0.42531103
-1.07519257 0.94918060 0.04592296
-0.72606432 -1.00390220 0.60900140
-0.23224168 0.96324313 -0.21746626
0.98975420 0.44844919 -0.09195188
1.00738955 0.82880610 0.00220969
-0.95074415 -0.42173108 -0.46433347
0.84081483 0.58637410 -0.57009292
-0.81259251 -0.98977023 -0.03414800
0.94785607 -0.00740797 -0.26751721
-0.53901720 0.96126497 0.57988536
-0.74876559 0.05404992 -0.70301247
-0.65040505 -0.99483144 0.49367177
0.08884098 0.71345276 1.00773573
-1.01930749 0.97539419 0.16543274
-0.46342078 0.36492819 0.88672554
-0.89689386 -0.33471972 0.33351755
-0.66405809 1.02220201 0.38683620
-0.50893784 0.84643871 0.83515036
-0.39855403 1.01425099 0.95320189
-0.81661224 -0.99483335 0.02487499
0.64280140 0.52123135 0.75568295
0.89067006 -0.93619257 0.04936191
0.14274867 1.06065953 -0.97566640
0.12193176 0.98405564 -0.70730448
0.95368171 0.80292791 0.28039750
-0.43259740 -1.05898309 -0.05661668
0.17437848 1.04811931 -0.27020213
-0.25800052 -0.86277425 1.01551461
-0.41264367 0.99193150 -0.25497779
-0.47892994 0.47290841 0.85321689
0.76443017 0.02348442 -0.72826695
0.93575001 -0.99182838 0.18824661
-0.60589683 -0.71271658 -0.78238285
0.22169836 -1.02426231 -0.45846245
-0.48336190 -0.07145062 -0.80795145
0.97069228 0.99672967 0.33155435
-0.33468339 -1.01562452 -0.20236343
0.64381075 -0.67804998 -0.69712865
-0.71401405 -0.97521454 -0.22500940
0.14402761 -0.86686236 -1.02570033
0.44755939 0.67692155 0.87039936
1.01255119 0.32622269 0.02419341
-0.75963545 -0.99402809 -0.31253472
-0.71752489 -0.99711764 -0.39923033
-0.48213863 1.01067281 -0.29525632
0.41162273 1.00541699 0.30614436
-0.57580733 0.54004425 0.82776177
0.42096436 -0.98041546 -0.49123859
-0.33920208 0.99647403 -0.31599879
-0.99874556 -0.65529770 0.30159605
0.98102868 0.56902039 -0.19852304
-0.28519621 -1.01614022 -0.34095737
0.90612006 -0.74787766 -0.47646990
-0.25266284 -1.01083052 0.10786499
-0.17212969 -0.88129050 0.98442900
-0.75588691 -0.08042239 -0.55727839
-0.96878147 0.60756522 0.34965190
0.86548376 -0.36009142 -0.46073025
0.25344273 -0.32169539 0.90884304
0.72502291 0.36363980 -0.69937468
-0.23590304 0.78030509 0.97339201
0.23529901 -1.00091326 0.59059155
0.97638953 -0.32080123 -0.19156900
-0.49473327 0.51483721 0.90564525
0.96959257 -0.69665629 -0.25062829
-0.03363358 0.02798366 -1.02537549
-0.34936470 0.37951046 -0.88681316
-0.05363297 0.29998216 1.02620173
-1.00473666 -0.51244724 0.26096931
0.42371169 0.91802108 -0.91863430
-0.58465886 -0.04631620 0.87000680
-0.06528770 -0.73546821 -0.99005818
-0.63234377 -0.17178871 -0.77676642
0.83572710 -0.28561294 -0.45582646
-0.71161377 -0.53571367 -0.63890600
0.25477135 0.98240727 -0.92391610
0.07210283 -0.97066545 0.13198075
-0.95630538 -0.85416710 0.27941647
-0.40974927 0.05537451 0.91406810
-0.28630373 -0.99291503 -0.34647331
0.85538292 0.70039475 0.58949196
-1.01097381 -0.93600804 0.15323342
0.47111806 1.00619519 0.56052911
0.08878641 1.05234456 0.33148655
-0.78179765 0.99381465 0.18801937
0.74145579 1.00489616 -0.15238427
1.00298166 0.64013958 -0.19437641
0.87430537 0.47045925 0.52794635
-0.86361361 -1.02062356 -0.27152479
-0.90242457 0.23595215 0.50927496
0.07253130 -0.94754702 -0.98691058
0.10155106 0.97207278 -0.83737195
0.00504317 -0.26356947 0.98842776
-0.88352239 0.75045013 0.56220484
0.67781234 -0.97480869 0.14813186
0.81387544 0.29106262 0.57317579
0.95077741 0.28286672 0.31884247
-0.06899632 0.67327434 -0.98362887
0.64504802 0.96865231 0.10095049
0.70378053 0.57639080 -0.66029358
-0.85739338 0.95757222 0.49382156
0.50340343 -0.99096209 0.33726931
-0.96347702 -0.04504394 0.17777064
0.95555019 -0.95779115 0.02697512
0.83641922 -0.97662324 0.32493630
-0.93742931 -0.76292765 0.38000819
0.83526778 0.58906430 0.48963708
0.78267229 -0.79343855 0.62309384
0.21545616 1.05307496 -0.20947003
-0.79552090 0.99296755 -0.15019754
0.30520114 0.98609006 -0.19654973
-1.01747811 -0.89902121 0.12471326
0.74740005 0.78793412 0.55602026
0.03601410 1.02431273 0.92826986
0.07419068 0.96448833 0.89953876
0.94228828 -0.19783880 0.18288268
-0.47202691 1.02217901 -0.59040999
0.89631236 -0.93216074 0.35088107
0.90045607 0.22284393 0.56228793
0.90926886 -1.02114069 -0.00721251
-0.74671865 -0.99036837 -0.39573050
-0.13059816 -0.01167586 -1.01124728
-0.87804937 0.96791208 0.35893971
-0.56619620 0.98376936 0.49806288
0.77707231 -0.64290738 0.59208524
0.61931241 -0.30831459 0.78703964
-0.36459389 -0.99285042 -0.70570672
-0.17667784 0.73191756 -0.94676661
0.93171954 0.83089238 -0.29930678
0.70489502 -1.03099585 -0.57269537
0.61705196 -0.87851387 0.79610825
-0.82667708 -0.47410142 0.54666352
0.84153056 -0.34336111 0.44733158
-0.07754101 1.01201689 -0.84815538
-0.36682859 0.35742855 0.91863489
0.35426751 0.98276156 -0.09962144
1.00248682 0.88736451 0.00841259
-0.17321666 0.86590606 -1.02587759
-0.82645595 -0.23823655 -0.53487241
-0.04593617 -0.43076393 -1.02027667
0.27872568 0.99913633 0.36018205
-0.84410596 -0.51409304 0.54537868
-0.64800024 0.26269570 -0.73182535
-0.91066384 -0.72670329 0.48778999
0.31042701 -0.96854782 0.91247714
-0.85937011 -0.24580513 0.48970139
-0.13736819 -0.05783771 0.96682179
0.36530155 0.30925637 0.97744560
-0.02061994 -0.93947601 0.13793743
-0.83726227 -0.37084213 -0.48528770
0.80358458 -0.99405992 0.06086876
-1.01386213 -0.96690315 0.20724604
0.88424504 0.02726288 0.45338672
-0.98459828 -0.29102743 -0.11665902
-0.19814995 -1.00307071 -0.25615206
-0.46692994 -0.96864843 -0.26897410
-0.27103442 0.50097436 0.98144650
-0.82515216 -0.77035141 -0.53599215
0.35613489 -0.33247894 0.89020085
-0.99132919 -0.09169590 0.14299333
0.89253330 -0.98176754 0.33729044
-0.84009945 -0.28870636 0.49350986
0.41341102 -0.98080397 0.07219715
0.59783685 0.01224105 0.83271039
-0.12456685 -0.21118876 0.99498463
-0.79492617 0.71633482 -0.63125610
0.18463692 0.99098563 0.13471965
0.01230674 0.81728679 -1.00174963
-1.03214645 -0.82793760 -0.13274430
-0.96236122 0.83519286 0.02939446
0.12953845 0.55295855 0.96255350
-0.19618224 -0.43125403 0.96290421
0.67868638 0.97663993 0.06299788
-0.64887202 0.97848433 0.34752598
0.51266551 0.36376995 -0.85237527
0.15202013 0.98092669 0.88049614
0.46547240 1.00493085 0.22070882
0.37490243 -0.69673729 0.91108942
-0.15111826 -0.99856400 0.70676649
0.14756840 -0.46948889 0.96652901
0.60419130 -0.74542493 -0.75005901
-0.81469989 -0.60561591 0.60266399
-0.89033437 0.12984721 -0.39824796
0.52742743 1.02950764 0.24934024
0.17669810 0.48769397 -0.99008775
0.04381382 -0.97628391 -0.21817271
-0.72537100 1.03036284 0.44097307
-0.54281414 -0.34362194 -0.76928759
-0.95747530 0.17630152 -0.44859958
0.64800620 -0.98614073 -0.40119183
0.26648015 -0.79315048 -0.91127002
0.94610703 -0.70429260 0.16878891
-0.60980678 -0.67522722 0.78426635
0.76266038 1.00388408 -0.00706084
0.43290854 -1.01488447 0.04290745
0.71627247 -0.98208082 -0.30627033
-0.58989203 0.31887391 0.79114282
1.04872990 -0.85343856 0.02637580
-0.59204304 0.99986684 -0.62365150
0.31796706 -1.00247407 -0.79769909
-0.77660155 0.68980181 0.68846607
0.23278455 -0.37090960 0.95589101
-0.08007573 -0.83288240 0.98346198
0.20108242 -1.01124954 0.77383244
-0.71436453 0.00054289 0.65955019
0.43675825 0.73360115 -0.90503347
-0.69972754 0.17675394 -0.70994997
0.61808515 -0.34721979 -0.75762713
-0.06548424 -0.23932953 -0.97695720
-0.31326169 1.01159799 -0.74264371
-0.96468818 -0.40965563 -0.34766409
0.43965334 -0.88567805 0.89071417
-0.57021618 0.47263330 -0.84268355
0.69894505 0.98325562 0.25997871
-0.53260779 0.41261393 0.87119627
-0.38018727 -0.98201060 0.62192154
0.06374043 0.90179634 0.99010730
-0.30191046 -0.81359607 -0.88316274
0.82542813 -0.64203745 -0.64087844
-0.60004902 -0.66615003 -0.83897829
0.84256732 0.68918300 0.62571943
-0.94711173 -0.29398325 -0.26982835
-0.97258258 0.31038576 -0.13397686
0.20682079 0.67120510 1.03758323
-0.94342077 -0.79842192 -0.38536197
0.82082319 -0.33659124 0.66436696
-0.25008425 0.73879093 -0.96183383
0.67074025 0.10345555 0.77106094
1.01025414 -0.25061807 -0.02962787
-0.25812483 0.99253565 0.23473233
0.36900416 -1.02172387 0.26882827
-0.54503345 0.54942209 0.76775110
-0.95018733 0.43894094 -0.17401768
-0.03728605 -0.30479404 -0.97952437
0.36129326 0.92905420 0.12173943
0.73505425 0.95777041 0.69278884
0.38695025 -0.50945538 0.94271016
0.73138952 0.16875161 0.65409648
0.99010038 -0.84269845 0.03131042
-0.01113969 0.00594159 0.98882258
0.29226363 -0.58330023 0.93497801
-0.30024818 -0.06088364 -1.01572645
0.88453352 -0.89097995 -0.33152872
0.27071205 0.99473763 -0.90151310
0.08283573 -0.96876407 -0.81612444
-0.69256771 -1.00005925 -0.76212919
-0.66772437 0.98350608 0.50299346
-0.76266265 -0.50953889 0.62181258
0.88168848 0.18030263 -0.46839187
0.97379220 -0.47346058 -0.32262382
0.30598962 -0.22068563 0.95211291
-0.13073754 0.22699037 -0.96759605
0.88132131 -0.10887800 0.27056926
-0.86448479 0.03821891 0.55986428
0.47700298 1.02759051 -0.37212738
0.67547584 0.35380295 -0.77978969
-0.56997585 -0.47535256 0.84275484
0.95813382 -0.50782603 -0.17328805
0.18957825 -0.97975332 -0.52761626
-0.32157275 0.67717445 -0.92275095
-0.56570065 0.48969543 0.80354226
0.36200619 -1.01623666 0.12337615
0.98572409 0.00145383 -0.02172720
0.65064824 0.05395664 -0.73423135
0.71913612 -1.02005517 0.01247590
0.54366231 0.20835701 0.82036841
0.72495770 0.24805208 0.70047617
-0.28822145 1.01564503 0.03774766
-0.91745472 0.35613543 0.33813536
0.78154969 0.95770627 0.08399098
-0.61840975 0.32231721 -0.89982319
-0.77258205 -0.97225934 -0.58812475
0.37462854 0.99754220 0.70270598
0.25524715 -0.98787731 0.03658952
0.25279096 0.78051031 0.98769510
0.51004779 1.03103518 0.04707238
-0.57029700 -0.74229181 -0.82734585
0.95625985 -0.38319024 -0.38686571
-0.51348829 0.42074370 0.79977214
-0.73399806 -1.02945626 0.52626979
0.40914854 1.04999995 0.33976755
0.86176598 0.50644219 0.47599763
-0.65797031 -0.50008261 -0.75073123
0.74421620 0.41361296 -0.65033543
-0.82128048 -0.63145095 0.57327008
0.04312107 0.55340225 1.01066172
0.92780602 -0.06981703 0.24474882
-0.16027351 0.38510406 -0.99722409
-0.99044275 0.19427712 -0.14245833
-0.84009552 -0.23790540 -0.39651522
-0.68616760 -0.52332920 0.63323188
-0.90756381 -0.52529788 0.36057746
0.86549008 0.31358588 -0.52995646
-0.67242134 0.52730215 0.72765601
0.42312306 -1.02132547 -0.01603156
1.01235294 -0.23456798 -0.09091987
0.90428853 -0.90988702 0.17931290
0.95434916 -0.90205687 -0.21627438
-1.02604926 0.96996069 0.10245200
-0.00655401 0.94859993 -0.98410761
0.26463255 -0.99814636 -0.23509423
0.82377112 -0.16000053 0.60563254
-0.27228266 0.94932592 0.91794515
-1.02269530 -0.48729646 -0.03867979
0.01441971 -1.01312470 -0.64086401
-0.70839608 0.99064469 0.00241406
0.27807495 0.99030221 0.17414951
0.26970649 -0.42552590 0.95790207
-0.37842798 -0.32204813 -0.88169611
0.75494659 1.01800656 -0.50000072
0.98995841 -0.60470563 0.10769629
-0.24863437 -1.00456262 0.84177291
0.85734785 -0.53484505 -0.56217051
-0.19985141 1.02086198 0.05135942
0.54790521 1.00511014 -0.47206780
0.88003516 0.67405665 0.41459861
0.66919577 -1.00632465 -0.60214543
0.87160039 0.94146210 0.37138101
0.39607549 -1.00761640 0.21522793
0.33849490 -0.98801249 0.94977736
-0.81083655 0.21695554 0.52399290
-0.14557610 0.54470158 1.01398599
0.80609536 0.08744324 0.64050996
-0.18897583 0.85432529 -0.98720908
-0.73553252 0.49116272 0.67743087
-0.84025300 0.56113470 -0.61359596
0.96764100 -0.11988215 -0.26172861
0.53057253 -1.00166976 -0.54409432
-0.51628244 -0.72339159 0.87102401
0.90238988 -0.91940778 0.52034605
0.46284059 -0.04253211 0.90100336
-0.95637202 0.92243069 -0.13485737
0.06399094 -1.04229581 0.17251153
0.97350883 -0.91132474 -0.14023648
0.95198679 -1.02352691 -0.10437327
-0.11525219 0.95380580 -1.02969253
0.07302596 1.03679311 0.08392257
-0.94012153 -0.01191150 0.08723737
0.52956212 -0.89093059 -0.88508487
0.42355922 -0.60344034 -0.92983091
0.53689218 -0.65683407 -0.79937983
-0.97791076 0.21322194 -0.33890492
0.58176458 -0.41168106 -0.80230510
0.87950313 0.72154200 0.43191627
1.00046837 0.62478477 0.18449929
0.72365415 0.98858625 0.31197998
0.61111772 -1.04981279 0.45903948
-0.28569540 0.99896955 0.87544036
-0.53654170 0.95598787 -0.84920228
1.01091146 1.03057432 -0.05764447
0.97960937 0.11595391 0.03052264
-0.24467815 -0.98115027 0.09814483
0.20272785 -0.05586094 0.92868781
-0.03333462 -1.05462956 -0.66938794
0.89253914 -0.48324534 -0.44992954
0.00693167 -0.27276742 -0.89614451
0.22534782 -0.47056934 0.99592710
0.30337262 1.02146399 -0.52710462
0.61004961 0.18755358 0.83467638
0.24273138 -0.97122639 -0.64634407
-0.75930643 -1.00208461 -0.42046699
0.76613438 -0.97806722 -0.31828806
-0.89258337 0.13721313 0.47976968
0.20788082 0.24108765 1.01108694
-0.70381856 -0.92695951 0.72537839
-1.01258612 0.73699105 0.10823604
0.22622512 0.53788626 -0.96950126
0.51130605 -0.98644334 0.83050263
0.94581032 0.26486561 -0.31052008
-0.53355968 -0.49006832 -0.87511408
-0.10078280 -0.98127764 0.11274975
0.99926460 -0.12884858 0.22431868
-0.52270472 1.04223597 0.71564841
-0.78835142 0.08091338 0.58096099
-0.95746553 0.85094112 -0.41705409
0.98197818 0.61079115 -0.07192120
-0.14876929 -0.83964485 -1.00125527
0.76078606 -0.85355264 0.62534225
0.06201503 -1.02607691 0.36412537
-0.10589457 0.85160673 -1.02264261
-0.88347268 0.88629037 -0.42485747
-0.95913887 0.31037226 -0.26121765
-0.27067730 -1.01917207 0.42474464
0.48927632 1.03371060 -0.02561699
-0.78760242 0.32357168 0.59883785
-1.00384128 0.80405009 -0.15969162
-0.88740480 -1.00608420 0.11565974
-0.94027972 -0.60029060 0.23872976
-1.00448120 -0.50866586 -0.08336867
0.11563192 0.63200408 1.00340879
-0.47299254 0.97810435 -0.77944744
-0.87397766 0.26798382 -0.51927710
-0.04142928 0.48627290 0.99346471
0.88114953 -0.79275990 0.43615094
-0.76570582 0.92538393 0.67869198
-0.60009015 1.01827955 -0.24826024
-0.26592100 -0.99785233 0.19755025
0.09326579 -0.71971536 1.03799009
-0.96662533 -0.46081561 -0.13080598
-0.54578555 1.03385675 -0.81333458
-0.01914479 -1.01190984 -0.94200909
0.93164861 -0.97550368 0.16411778
-0.95574677 0.78285956 0.28179270
0.47470713 0.94163167 0.00887592
0.64165616 -0.60687613 0.74727297
0.98349857 0.71902680 0.08077107
0.26245075 -0.36661890 -0.93365145
-0.65789878 0.99166000 -0.27609494
0.28127730 -0.98707902 -0.95458758
0.20628312 0.96460277 0.87405038
0.68667889 0.08914260 0.71137965
-0.64647341 -0.97229499 -0.73856521
0.59702802 -0.99132252 0.65406334
-0.99303067 0.13606401 -0.06902105
0.95757282 -0.17979261 -0.15524811
-0.18100552 -0.02976889 1.01293528
-0.78596520 -0.01487448 -0.67815411
0.25410062 0.56329066 0.92075825
0.42456734 -0.96464890 0.86205900
1.00090730 0.49667373 0.05819327
0.83785760 -0.66083097 -0.53305233
0.69984174 -0.98454374 -0.69421017
0.70716894 0.98785466 0.40266490
0.04178143 -0.33611995 1.08372974
-0.78633487 -0.36108816 0.62602866
-0.64010239 -0.47066572 0.76020539
-0.22455388 0.39853004 -0.97366989
0.04137570 -0.30874613 0.96881211
0.73898160 -1.03498912 -0.49812451
-0.14913203 -0.99491692 0.34515125
-0.73310494 0.86033851 0.72643828
0.78239727 -0.99362308 0.56221330
-0.81390977 0.15015963 -0.67693532
0.49674323 -1.01361346 -0.18623859
-0.55491269 -0.09526107 -0.82529318
1.00159407 -0.35755020 0.15290445
-0.32626665 0.92409688 0.86805964
0.48830909 -0.99919689 0.04073747
-0.17368428 -1.01074314 -0.91046405
-0.70229983 -0.24490759 0.68319595
-1.04031694 -0.60031301 -0.23846047
-0.87555075 -0.63504952 -0.47073099
0.71629071 0.69740367 0.75168371
-0.50266302 -1.01953268 0.82808542
-0.27795631 -0.25532153 0.90837061
0.93001640 0.99185312 0.38435698
0.82361245 1.00248778 0.30149651
-0.29762572 1.04427600 -0.18032622
-0.12536393 -0.12431498 1.00714791
0.64212203 0.35459924 -0.80202961
-0.85866570 -0.98377681 -0.48617733
-0.56511748 1.02469528 -0.36792973
0.27473521 -0.97021192 -0.86658788
0.72020435 -0.99602032 0.31550750
-1.00926733 -0.44768509 -0.17705610
1.01046681 0.67947704 0.15945281
-0.69641733 0.86591381 -0.66062248
0.57263660 0.36609328 0.85068512
0.14005408 -0.29091561 -0.98234653
-0.63366866 -0.18585119 0.83048368
-0.08390924 1.01604855 -0.51389241
-0.09279440 -0.69363940 1.02264798
0.84761930 -0.86398578 0.54747415
-0.50995982 -0.10741418 0.88894391
-0.83689833 0.94102126 0.55612504
0.10179985 0.98861849 0.25145912
0.14306280 1.01696110 -0.55394220
0.35358304 0.87211084 0.92273986
-0.06059525 -0.98873729 0.06793825
0.88233793 -0.66123223 -0.42569602
0.79787481 -0.55595237 0.57765055
-0.22699529 0.85637414 0.98111761
0.56394696 -0.66244626 0.86905694
0.47961774 1.03608942 -0.10964795
0.72994399 -0.81190538 0.69829059
-0.62534297 -0.72010088 -0.75033367
0.96692204 -0.80962813 -0.29654828
-0.30737174 0.31652522 -0.98087728
-0.81760180 -0.77945065 -0.61733401
0.39739001 -1.02145231 0.62664652
0.87542772 0.06781888 0.56046653
-0.41305959 -0.25227836 0.91931915
0.26169932 0.80559212 0.97678697
-0.01865001 -0.98665226 -0.19154356
0.61870718 0.85144746 0.76960301
-0.05385099 0.98331416 0.49683473
0.45968026 0.96285576 -0.51301706
-0.40258744 -0.22047825 0.91455686
0.74867356 0.36231586 0.64237189
0.29438293 -0.99018109 0.27902192
0.83377302 -0.75505322 -0.60131764
0.08249119 -0.97349828 0.49142134
0.93445837 0.37125704 -0.28982973
-1.00019288 0.18649699 0.14723009
-0.30275145 -0.01591237 -0.93130827
-1.02689004 -0.64106143 0.13231298
-0.85395348 0.41425738 -0.47271767
-0.60718894 0.13919938 -0.85276318
-0.88617909 0.95640433 -0.44164315
-0.92215550 -0.08795468 0.36789802
0.95742953 0.20116574 0.18806183
0.96769083 0.68306541 -0.15624064
-0.49182931 -1.00151145 -0.11834285
-0.21489887 -0.98040694 0.64638233
0.82578826 1.01602793 0.09781336
-0.41090113 0.94854695 0.80216062
0.78192294 0.19042896 0.70000267
0.29534271 -1.00325787 -0.03145331
-0.97425413 0.58472902 0.19227809
0.62727594 1.03250301 0.30657190
0.97051370 0.50984865 0.21112233
0.92265844 0.99768931 -0.26033860
-0.96034944 -0.65143788 -0.11342007
0.56662154 -1.03679812 0.64786816
-0.93031275 -0.31046340 0.37637511
-0.15159546 0.44918939 0.99980092
-0.94755590 -0.46323666 -0.33284885
0.74111652 -0.27769190 -0.74645889
0.74496996 -0.79293931 -0.67991734
0.72909725 0.61411923 -0.73453152
-0.40496776 -0.98606259 0.53759766
-0.20921530 0.29592061 0.98864853
0.96975374 0.85660172 -0.22445390
0.43962097 1.00386393 -0.90081859
-0.53094292 0.51998448 -0.80969703
0.46593422 -0.99876338 0.74249160
0.02233352 -1.00156057 -0.22862510
0.77471995 -0.98840916 0.40345407
-0.63062704 -1.00260758 0.27635622
0.21366359 -0.36073744 -0.93079102
-0.31856534 -0.03290591 0.97911632
-0.98959517 -0.60841322 -0.17996022
0.91693211 -0.38140205 0.16819607
-0.99727142 0.06674824 -0.23378077
-0.26782459 -0.13337712 0.96766555
-0.62069333 -0.99471408 0.03521204
-0.23436232 0.98969662 0.56574416
0.91215777 0.73034066 -0.31342530
