-0.04663847 0.11811868 0.00483369
-0.02013328 0.14685754 -0.00876844
-0.06773961 0.16138418 -0.01654817
-0.02668539 0.07620875 0.00766150
0.00402450 0.09887254 -0.02933363
0.05370183 0.11779289 -0.00368996
0.03754374 0.11537564 0.01152216
0.01600635 0.06816833 -0.00352209
0.05711547 0.13968430 -0.02538263
-0.08365685 0.15790766 -0.00760148
0.02912055 0.08615813 -0.03295703
0.07270535 0.13865669 -0.01923417
-0.07267170 0.16593860 0.01457586
-0.08250357 0.06685713 -0.03172403
0.04448964 0.11989370 -0.03432433
0.07243048 0.06512561 0.00738734
-0.03080742 0.12561645 -0.02186667
-0.07455861 0.06822367 -0.04050945
-0.02361357 0.10955787 -0.02203868
-0.02585577 0.14927480 -0.02682106
-0.07172683 0.06230408 0.01220250
-0.05205056 0.17827402 -0.03912005
-0.08833034 0.06017224 -0.03355644
0.03037766 0.13852739 -0.00281038
-0.05696131 0.06738131 -0.03672736
-0.10363767 0.15962306 0.00808463
-0.03528845 0.12148514 -0.00401568
0.04194674 0.07894627 0.02546965
0.04389902 0.09327656 0.02979518
-0.04082737 0.06550953 -0.03969626
0.04367052 0.05447523 0.00698461
-0.03314611 0.11959849 -0.02237927
0.04023117 0.06471276 -0.04649901
-0.08215544 0.06991497 -0.00282723
0.02388082 0.06928267 -0.04174817
0.02878020 0.07432356 -0.04267995
0.01536204 0.07785791 -0.01176966
-0.03084305 0.14055924 -0.00480928
0.05290224 0.07847998 0.01210378
-0.03268140 0.16518888 -0.00306603
-0.06064350 0.08429576 -0.03589486
-0.06643172 0.14636265 0.00952211
-0.03983339 0.11055751 -0.01248945
-0.04847503 0.14080520 -0.02977082
-0.02965027 0.07911046 0.01644043
0.03021958 0.08055782 0.02266448
-0.08582698 0.15250693 0.01542190
0.06904927 0.10578834 -0.01556688
-0.04407334 0.09723873 -0.00405984
-0.01542477 0.13363492 -0.01723260
0.05586591 0.14719537 -0.02844423
-0.04949681 0.07620905 -0.03379517
-0.09816503 0.14031778 0.00461847
-0.00977980 0.07684796 0.00659750
0.04835872 0.10794551 -0.00395879
0.05764601 0.10463573 -0.02068081
0.04309085 0.08638285 -0.02175935
0.06476402 0.11670439 -0.00248074
-0.05423227 0.05370082 -0.00478901
0.02285882 0.13031548 -0.01201064
-0.07296710 0.14140630 -0.01899368
0.05448642 0.10607696 -0.02145275
-0.04546153 0.10661383 -0.00420608
-0.00602741 0.11425596 0.00571562
0.05705939 0.10643843 -0.01088365
-0.07792192 0.16930552 0.00708949
-0.08231700 0.16483302 0.00075907
-0.02128710 0.08690991 -0.02999383
-0.02895100 0.13617180 -0.00991561
0.06572174 0.11022633 -0.01356556
0.01286634 0.05674273 0.01207917
-0.02210775 0.14743000 -0.02945386
-0.05426445 0.17122847 0.01017532
0.02506731 0.08113369 -0.03436682
0.07423891 0.07610242 -0.00180763
-0.05881878 0.09488014 -0.02715631
0.01714820 0.07147793 -0.03405307
0.02729243 0.07283108 0.01325000
-0.02016570 0.07317222 -0.03570678
0.02842759 0.09298395 -0.03610242
-0.02185973 0.05636501 -0.03008773
-0.04671858 0.15345626 0.00187199
-0.05782746 0.16519822 -0.02949585
0.03829864 0.11800975 -0.03324294
-0.07811216 0.14795373 0.00306169
0.03446829 0.05654098 -0.05510220
0.02524658 0.06513421 -0.04867052
0.07153077 0.13882673 -0.01160119
-0.03833330 0.07603665 -0.03242982
-0.02789625 0.18871601 -0.02217800
-0.04422033 0.06752306 0.02027601
0.03979488 0.05269765 -0.01990546
-0.03973609 0.12038990 -0.00453432
0.07589119 0.14154357 -0.01907194
0.00865130 0.09893182 -0.00945145
0.07668421 0.07616448 0.00527741
-0.02995265 0.06537908 0.02457704
0.04296681 0.15575838 -0.02294541
0.08182348 0.10349537 0.00444738
-0.03295416 0.13897623 -0.00589482
-0.00859449 0.13972320 -0.01727304
0.00963587 0.07395066 -0.02968113
0.03073864 0.07805783 0.01735555
0.04484371 0.05949830 0.00841937
-0.03020813 0.10077795 -0.01223257
-0.01531079 0.07684356 0.01637473
0.00656449 0.14668341 -0.00345806
0.03553814 0.11458222 -0.02687250
-0.01711391 0.09762044 0.00139478
-0.04215315 0.11474319 -0.00711564
-0.08056513 0.06407499 -0.00664257
-0.03494775 0.07744861 -0.02685391
-0.00117798 0.07926680 -0.02300845
0.02706598 0.10620360 -0.02070864
0.06350504 0.08216589 0.00104372
-0.06429538 0.06502778 0.03371171
0.08847055 0.14036418 -0.00793672
-0.04335595 0.05284767 -0.03418943
-0.04790176 0.05648585 -0.02671637
0.04841286 0.05368310 0.01300254
-0.04168072 0.10819146 -0.01221159
0.05088017 0.07304099 -0.00180792
0.03917047 0.08393972 -0.03600835
-0.03714586 0.05798783 0.01278608
0.07603945 0.15000743 -0.01393911
-0.06339511 0.07276325 0.02803961
-0.02929830 0.09900194 -0.00651979
-0.00092388 0.13003740 -0.00330721
-0.05097540 0.14865403 0.00925713
-0.07298139 0.05487704 -0.01076645
-0.09078497 0.15442613 0.00521256
0.08631268 0.10234690 -0.00123187
-0.06945383 0.06705058 0.01749344
0.04976325 0.06503786 -0.02402901
-0.05633607 0.07298329 -0.03631853
0.06363317 0.13122652 -0.01676512
0.06602420 0.12089580 -0.01099235
-0.02796343 0.08086790 -0.03248549
-0.04460016 0.14707661 0.00126285
-0.00605690 0.06711262 -0.01624930
-0.05061916 0.06654477 -0.03267933
-0.09219706 0.17212254 0.00170156
0.01832830 0.12879625 -0.00702181
-0.04271192 0.08702388 -0.01004137
-0.00927410 0.13747647 -0.02754564
-0.01456980 0.12037794 -0.02717068
0.01553768 0.07911631 -0.01224434
0.06059521 0.12257911 -0.01171237
-0.01045181 0.07547580 -0.02682799
-0.04022545 0.07634612 0.02237791
-0.01316595 0.09653627 -0.03454668
-0.05807350 0.06210071 0.03510175
-0.04083493 0.09215559 0.00839616
-0.07569651 0.11219487 -0.01739936
-0.06690386 0.14726253 -0.02175055
0.04170817 0.11468078 0.00674772
0.04353043 0.11578839 0.00034367
-0.02973679 0.16749683 -0.01218249
-0.07650002 0.09467204 -0.01443825
0.04461412 0.06033700 -0.02686247
0.01518903 0.08118634 0.00208666
0.06391140 0.06794931 0.02240039
-0.03507065 0.18450040 -0.00118653
-0.07151829 0.15557085 -0.01434636
-0.02154109 0.06120186 0.00167625
0.05946906 0.08805503 0.01452420
0.06703232 0.05240080 -0.01069688
0.04594280 0.10945003 0.01859402
0.05305945 0.07703704 0.01857266
0.04617746 0.15567777 -0.01832820
-0.04993082 0.08690485 -0.02949806
-0.08133933 0.08800066 0.00850462
-0.08373221 0.13949765 0.01615803
-0.07526024 0.15872778 -0.01440520
-0.08482189 0.14516717 -0.01003032
0.03285767 0.08028872 0.00834410
0.04437029 0.05395093 0.00330227
0.02564041 0.09598079 -0.00194207
-0.05179583 0.06074169 0.02242353
-0.04595944 0.08811516 -0.02079231
-0.08573729 0.09333873 -0.01251096
-0.08156975 0.17262414 -0.00541685
-0.07836527 0.17499186 -0.00009802
0.06126544 0.08315109 0.02432376
-0.03541309 0.14035837 0.00154775
0.05582977 0.13766034 -0.02975809
-0.06161299 0.07499363 -0.03042549
0.01467152 0.08504736 -0.02831320
0.02078843 0.06378145 0.00157160
-0.07648836 0.16576335 -0.00000575
-0.01657129 0.13262269 -0.01780273
-0.01700135 0.07642917 0.01271801
0.03699367 0.08140564 0.00588476
-0.00968996 0.12991185 -0.01220261
0.02963295 0.13016340 -0.00456323
-0.06657416 0.16506925 -0.02356240
0.00788856 0.15095030 -0.01589528
-0.03470686 0.06149846 0.01985097
0.05684947 0.11411549 -0.01186030
-0.09118917 0.16767971 -0.00734841
0.01546969 0.08341643 -0.01700462
0.08509246 0.07795711 0.01385665
0.06427947 0.08044937 0.00240525
-0.07485150 0.16494554 0.00203340
-0.01926385 0.06587048 0.02138264
-0.04082119 0.16647209 -0.00011895
0.04207400 0.12255694 -0.00419978
-0.08371186 0.16989495 0.00679054
-0.05882244 0.17681235 0.01103945
-0.00109503 0.09588545 -0.00077926
-0.05347431 0.16069658 -0.02664374
-0.00900040 0.10129373 -0.03440262
0.02105313 0.13998716 -0.00162817
0.08323884 0.14599116 -0.00691483
0.05837910 0.05122227 -0.02352551
0.06724827 0.07117084 -0.00595455
-0.05376393 0.09812793 0.01169836
-0.02150348 0.05453124 0.00255269
-0.09387934 0.14475137 0.00370222
0.06705700 0.12938862 -0.01383981
0.06711245 0.09555447 -0.00180367
-0.08364709 0.05630788 -0.03185035
0.09235816 0.13302393 -0.00857577
0.01066114 0.07227959 -0.01430370
-0.03748126 0.05964541 0.02126507
0.03968945 0.06939375 0.01551963
0.04706727 0.06557941 -0.03317342
-0.08504783 0.14788249 -0.00051281
-0.05793197 0.07495178 0.02309196
-0.01706088 0.08885826 0.01196568
-0.07146416 0.12242826 -0.00122952
0.03776991 0.08690554 0.01827619
-0.00933218 0.12533943 -0.00502573
-0.00298768 0.08609368 -0.00294501
0.03172775 0.11027329 -0.02610508
-0.05479380 0.05594420 -0.01599588
0.07740013 0.11712090 0.00145078
-0.06890266 0.10129378 0.01248131
-0.04721739 0.05702192 -0.03455774
-0.02310036 0.05464570 0.01510200
-0.02124827 0.14723626 -0.02632121
-0.00851155 0.06361672 0.01448408
-0.01530381 0.12798159 -0.01211121
-0.03788755 0.11608100 -0.01774441
0.07386727 0.13397332 -0.01980698
0.06427599 0.11523184 -0.00461536
0.02750453 0.06416543 -0.04770449
-0.06753786 0.16638617 0.00890453
-0.07865497 0.11399911 -0.00818348
-0.06004636 0.06613842 0.03448091
-0.04748699 0.09892604 -0.01197525
-0.02047510 0.16260958 -0.00424960
0.00023718 0.07857250 -0.02617207
-0.00053599 0.11551646 -0.00089210
-0.04714924 0.05327035 -0.01824897
0.01620228 0.08093657 -0.00726636
0.00432542 0.15669648 -0.01761174
-0.10189199 0.15477821 0.00949371
0.04215828 0.07874593 0.01674122
-0.06759194 0.06892914 -0.03330548
-0.08286583 0.11094043 -0.00771108
-0.04435550 0.11078604 -0.02468592
0.05094661 0.14795443 -0.01042913
-0.00164904 0.09765305 -0.03272542
0.04395787 0.14000539 -0.03419526
0.03050537 0.10418541 0.00737904
-0.02300615 0.12103074 -0.02020118
-0.08607188 0.08327752 0.01038693
-0.04791944 0.08817606 -0.01818564
-0.08290132 0.16770087 -0.00268416
0.01980538 0.05975669 -0.00133736
-0.01917402 0.07478657 0.01239212
-0.01007162 0.09078896 0.00785174
0.09438219 0.13680001 -0.01390761
0.05419600 0.05318011 0.00154301
0.03501616 0.14224117 -0.00183229
0.01872476 0.06430046 -0.02183936
-0.00306446 0.14160718 -0.01852639
0.05400887 0.13194819 -0.02848914
-0.04352828 0.05497855 -0.03155058
0.00912145 0.14234394 -0.03193907
-0.06228727 0.11378711 0.00790125
-0.06571175 0.06996372 0.01582113
-0.05913357 0.06405653 -0.02754926
-0.06779385 0.14147787 -0.00659329
-0.02606295 0.08375789 -0.03582718
-0.08519385 0.16449104 -0.00137822
0.01765274 0.12526968 -0.00462340
-0.03580075 0.17242825 -0.04318668
0.02971549 0.09895003 0.01983123
-0.00051176 0.08633673 -0.00114960
-0.03294669 0.09149085 -0.02157268
0.01842602 0.15212400 -0.02476665
-0.06321011 0.08102804 -0.03177168
0.06214004 0.11611635 -0.02387949
-0.05469315 0.14027075 -0.00792104
0.05542406 0.08113343 0.00039995
-0.05298154 0.18367881 -0.01013629
0.02088582 0.12700987 -0.03106986
-0.06014492 0.05662016 0.01999419
0.05346430 0.07706815 -0.00033246
-0.07267335 0.08566849 -0.02385165
0.05649508 0.07549429 0.02065708
-0.02713666 0.07156613 -0.03915311
0.08492415 0.09727383 0.00460450
0.00026275 0.08269104 -0.01869289
0.06532898 0.08191364 0.02540826
0.05914723 0.05940270 -0.01894632
0.06217886 0.08344691 0.00423160
-0.08757637 0.08585979 0.00094431
-0.01136220 0.11941077 -0.00596511
-0.03068973 0.16889736 -0.00110180
-0.04696770 0.05728895 -0.02278720
0.06405045 0.07165246 -0.00990323
-0.06817970 0.12676318 -0.00206710
-0.02492343 0.09140399 -0.02409475
0.08730748 0.14220913 -0.01174348
-0.07189890 0.04995470 -0.01021488
0.04171341 0.10675310 0.01732835
-0.05106252 0.05449137 -0.02392415
-0.04144642 0.10830311 -0.01161207
-0.05409432 0.17738518 -0.02288225
0.04606665 0.10028217 0.02034278
-0.04662330 0.08760600 0.02094947
-0.06341763 0.07658531 0.02083319
0.04237754 0.09950881 0.02517979
0.06330309 0.05837412 -0.02214237
0.03296972 0.14548482 -0.03631657
-0.07754993 0.06591397 -0.01301591
-0.07260247 0.10542893 0.00520794
-0.00397739 0.13073243 -0.03286353
-0.07453350 0.09420718 0.01414010
0.00942346 0.10133708 -0.00958483
-0.08271378 0.14840817 0.01400408
-0.07503978 0.05647720 -0.01720916
0.07717191 0.11690644 -0.01347680
-0.07905339 0.14186327 0.01436635
0.04283413 0.06025513 -0.01894960
-0.04468817 0.17895269 0.00108034
-0.03573364 0.12275612 -0.03029501
0.05900399 0.14137979 -0.01729313
0.06672590 0.11364794 -0.00092939
0.07151420 0.12319101 -0.01664343
0.06191761 0.08316639 0.00137597
-0.03283608 0.06514186 -0.04137468
0.06641851 0.05150080 0.01682458
-0.04040564 0.05363315 -0.03468271
-0.01651638 0.11750449 -0.00821148
0.01993641 0.06037293 0.00381793
-0.05422029 0.08863666 -0.02869850
0.03859916 0.09739365 -0.03374255
0.06234092 0.14034432 -0.01663772
0.04209325 0.05710843 -0.00713522
-0.00988838 0.12103049 -0.00528525
-0.03560866 0.17470513 -0.02544767
0.02255042 0.10044464 -0.01768513
0.00516526 0.10990137 -0.03084567
0.00034285 0.11918341 -0.03530475
-0.05188766 0.17122281 0.00656472
-0.05455079 0.10932187 0.00845359
0.05889513 0.06250259 -0.02570665
-0.00603293 0.19073500 -0.03047465
0.02941940 0.08986364 -0.03223463
0.02422524 0.15317862 -0.02952813
0.05958299 0.14647511 -0.01996506
-0.07072767 0.12180777 -0.00175827
-0.00116301 0.12356628 -0.03177146
0.04963910 0.08311152 -0.03261415
0.04283158 0.06252493 -0.02230238
0.02934344 0.07574090 -0.03573062
0.00418075 0.09740224 -0.00586359
0.07031929 0.13876338 -0.01450543
0.01700783 0.14944403 -0.00494999
0.06719586 0.11902460 -0.00350351
-0.02929271 0.13297749 -0.02444946
0.02995399 0.08742414 0.00576880
0.01394727 0.06083606 -0.00145180
0.07073330 0.07348406 0.00106973
-0.01636562 0.10005146 0.00166068
-0.08530223 0.17835115 0.00644494
0.07337690 0.06699280 0.00161553
-0.04042017 0.15920097 0.00074879
-0.08239369 0.16600429 -0.00534978
-0.08585700 0.06940496 -0.00444037
-0.07634143 0.16095151 0.00089145
-0.00633774 0.06935883 -0.01782416
0.05753771 0.14148511 -0.02530651
-0.05580325 0.13840449 -0.00474212
0.03399562 0.15577744 -0.01133116
0.02485646 0.13276233 -0.00435591
-0.05639455 0.06108952 -0.02555901
0.08595762 0.14557289 -0.01123021
0.05576445 0.09319387 -0.01375421
0.02227223 0.08816667 -0.00688926
0.06825057 0.08047941 0.01993350
0.08346569 0.08511049 0.01418014
0.03054847 0.05986423 -0.04601084
0.04106576 0.12884086 -0.00535851
-0.06333123 0.14823686 -0.01836158
-0.06810978 0.09569193 -0.02590991
-0.03829709 0.09249663 -0.01621445
-0.02986967 0.14913549 -0.00206679
-0.04321318 0.05314837 -0.02977967
-0.02269898 0.09651015 -0.02852647
-0.08067582 0.16690612 -0.00986051
0.02186466 0.08006465 0.00375409
0.03445132 0.12119819 -0.00569936
-0.08186683 0.14146683 0.00099626
-0.02115974 0.10521524 -0.00030425
-0.08269604 0.06484671 -0.02083150
0.06052954 0.13750130 -0.01342133
0.00996913 0.15655826 -0.01666046
-0.03316592 0.05315038 -0.02725693
0.06448910 0.10449757 -0.00184742
-0.02316041 0.13821824 -0.01153822
-0.03742886 0.05649917 -0.01696030
0.03321115 0.11117283 0.00677409
-0.02933980 0.10563142 -0.01323918
-0.03151536 0.17710651 -0.00320483
-0.08550973 0.14036284 -0.00452560
-0.02485270 0.05235195 0.02097735
-0.09991312 0.15575251 -0.00078423
-0.04313499 0.14279310 0.00021282
-0.09249502 0.15511101 0.01601945
-0.05263445 0.17020124 0.00395205
-0.03996884 0.06105127 0.02015578
-0.08030404 0.17625169 0.00786165
-0.03624315 0.06345863 0.02515527
0.02989528 0.09126559 0.00668404
0.02078096 0.11806808 -0.02002869
-0.00552128 0.07638522 0.00089461
-0.08957013 0.17692921 -0.00218412
-0.00232804 0.09825747 0.00277005
-0.01796182 0.05146933 0.01276559
-0.00844328 0.14852446 -0.02181880
0.05854870 0.11694836 -0.00587875
0.02776364 0.04978624 -0.01908997
-0.02549687 0.15867239 -0.01879961
0.03982545 0.09216577 0.03009800
0.06464977 0.05164582 0.01713548
-0.07746661 0.10140143 0.01136054
-0.03823840 0.08795527 -0.01825185
0.04175522 0.08918756 -0.02128481
-0.03556550 0.05614778 -0.02444213
0.04235679 0.08209730 -0.03695557
-0.07983958 0.14921862 0.01247699
-0.02979293 0.14509021 -0.02640298
-0.03369465 0.09087667 -0.02048872
-0.06637198 0.06426083 0.02066579
-0.07936890 0.07167105 -0.01471145
-0.07947481 0.09870477 0.00978636
-0.04042127 0.10707548 -0.01440454
0.02740327 0.11313196 -0.02354817
0.06588564 0.10851284 -0.01891799
0.00663137 0.13731119 -0.03579884
0.05897828 0.06496181 -0.02751764
0.01371033 0.09450737 -0.01546254
0.07038163 0.06608759 -0.00070165
0.03209943 0.07830502 0.00556979
0.07446009 0.06455665 0.01390938
0.00125777 0.09166176 -0.00500076
0.03681482 0.08225542 0.00818398
-0.09000530 0.15537021 0.00114469
-0.06409016 0.11699199 -0.02209418
0.01950309 0.07949648 0.00168108
-0.02912672 0.09430777 0.00046679
0.04525898 0.09911285 -0.02859593
0.00058349 0.14955536 -0.01237558
-0.02268021 0.13224992 -0.02175184
-0.03635452 0.09435520 0.00189987
-0.01457000 0.08097097 0.01018956
-0.05192002 0.11585201 0.00594802
-0.08326737 0.14445370 0.01573639
-0.06388333 0.15057130 0.00968591
0.02267180 0.07055210 -0.03714472
0.02488463 0.06974585 -0.03362933
-0.08049501 0.16756266 -0.00281828
-0.02510351 0.08298749 0.01039840
0.06718281 0.07353972 -0.00048144
0.02283395 0.12087839 -0.02629904
-0.03733774 0.17827260 -0.04055402
-0.08620930 0.07579327 -0.00866108
-0.07674932 0.15231052 -0.00248926
-0.05157223 0.08798812 -0.02710601
0.06525166 0.05383185 -0.01979060
-0.08012485 0.14165224 0.00166978
0.02702846 0.10978830 -0.02483274
0.02235897 0.07550015 0.00928024
-0.07204569 0.08117401 -0.01974849
0.05196491 0.14956261 -0.02113949
0.04154317 0.08373728 0.01158898
-0.03317524 0.17957892 -0.00502295
-0.07048349 0.06996246 0.01247548
0.01451053 0.11404087 -0.02159076
-0.08370435 0.17870827 0.01550356
-0.02244003 0.04974798 0.02401761
-0.08520722 0.14085861 -0.00139928
-0.01194968 0.13401401 -0.01246710
-0.01128823 0.05798732 -0.00621026
-0.05681181 0.15449572 0.00074729
-0.08272997 0.06221843 -0.03838016
-0.07437439 0.14716093 -0.01322639
-0.01774589 0.17357157 -0.00611430
-0.01092059 0.06318702 0.01100866
-0.06571563 0.10913698 0.00561604
0.00187691 0.13338521 -0.03190578
0.04029447 0.05358660 -0.01298071
0.05493450 0.07713488 -0.00077248
0.03940829 0.05651557 0.01718087
-0.01776935 0.11280692 -0.00546409
-0.04699139 0.10679378 0.00332064
0.00986437 0.13602909 -0.00013823
-0.03380308 0.11951863 -0.01004870
0.04918463 0.07396457 -0.01172145
-0.04649073 0.16201359 -0.03559542
0.07220610 0.13125396 -0.01848215
-0.03536781 0.17267527 -0.03274347
0.04376756 0.10723545 -0.03470170
0.06579414 0.11234903 -0.00709903
-0.05535146 0.06074627 -0.02586609
0.05533395 0.05280238 -0.01782135
-0.02973881 0.09413401 -0.02694218
-0.03221243 0.05794144 -0.02685749
0.06600092 0.13044865 -0.02113364
-0.08853836 0.09179530 -0.00749595
0.06324362 0.06251613 0.02006489
-0.03592885 0.06072624 0.02296732
-0.08235760 0.08330682 -0.01681475
-0.02040637 0.07219273 -0.03588287
-0.02971048 0.16733968 -0.03504889
-0.02646129 0.11726098 -0.01701962
-0.05553551 0.15178473 -0.02718641
-0.07824203 0.14034811 -0.01318653
-0.05828412 0.17752288 -0.02522734
-0.06154212 0.09652231 0.01151663
0.00306994 0.12293652 -0.03329836
-0.05610811 0.17334655 -0.03429422
0.06781662 0.10693356 -0.00064316
-0.09032398 0.15554599 0.00456735
-0.03970731 0.14705953 -0.03775389
-0.07655712 0.09975183 -0.01853607
0.03436248 0.05823831 0.02452567
0.03264996 0.06547678 0.02263175
-0.01757164 0.06143232 0.02246541
0.03268466 0.07539843 0.00800600
0.06008241 0.10779557 -0.01791000
0.01983452 0.05962547 0.02330538
-0.04074673 0.09291485 0.00877484
-0.02110691 0.17831039 -0.02533095
-0.07742329 0.14511418 -0.00795146
-0.07415736 0.06230016 -0.00839989
0.06898345 0.10311809 -0.00706825
0.00601018 0.15339088 -0.02585223
-0.03454144 0.05586910 -0.00949706
-0.07207038 0.13841856 0.00444972
-0.06182005 0.09813733 0.01418956
-0.03129866 0.05272770 -0.01131159
0.02860661 0.10881627 -0.01302208
-0.00529580 0.14794588 -0.02251663
-0.05256640 0.17702739 -0.00008142
-0.02446932 0.15787379 -0.03845917
-0.06441779 0.06583324 0.03231303
0.01618785 0.16166593 -0.01938418
-0.05275220 0.06949989 0.03707946
-0.03131635 0.17251723 -0.04173253
0.04736176 0.09838727 -0.02590368
0.02784375 0.13395317 -0.03311355
0.05106512 0.11585882 -0.02516127
-0.08952697 0.17649601 0.01013920
-0.05555683 0.14656760 0.00672287
-0.08077575 0.06816432 -0.03904355
0.00217842 0.13631228 -0.00051441
0.02320008 0.09417235 -0.00831406
0.05592869 0.13393322 -0.00532311
-0.02910728 0.16969389 -0.01989385
0.01862728 0.06019635 0.02561751
0.04420240 0.11687382 -0.00275597
-0.04344882 0.06167780 0.03369174
-0.02208312 0.11827557 -0.01357451
0.03296811 0.07958319 -0.03470007
0.06202453 0.08598208 0.00297692
0.03392108 0.05619256 0.00332911
-0.02586168 0.14440015 -0.00431567
-0.06613052 0.12883000 -0.00749480
-0.04218439 0.18555188 -0.03843188
-0.08513973 0.17757468 0.00755316
-0.08275817 0.16984709 -0.00610398
0.04551894 0.07747442 -0.02835363
-0.04184828 0.11031321 -0.01746074
-0.04994791 0.05096032 -0.01056572
0.07898820 0.10600537 -0.00946498
-0.07339045 0.10474372 -0.01704802
0.06155002 0.06916284 -0.00975334
-0.02481107 0.14119042 -0.01011196
0.04582429 0.05403760 -0.01812212
0.08683067 0.14352565 -0.00443848
-0.02862488 0.15893704 -0.03604332
0.03163570 0.11429034 -0.00904620
0.01661482 0.06066574 0.00431187
-0.03787819 0.13200988 -0.02502293
0.04364633 0.14239824 -0.00450465
-0.06451811 0.15117623 0.00178735
-0.03807768 0.10982848 -0.01147673
-0.05928332 0.08642879 0.01639518
0.06161041 0.13857146 -0.02515236
-0.07433229 0.05360597 -0.00239566
-0.08489621 0.09170628 -0.00533354
-0.07968940 0.15722084 -0.01254941
-0.06072301 0.09485123 0.01670384
-0.02416583 0.18494284 -0.01930361
-0.03782981 0.07178706 -0.03179441
-0.01003339 0.11274797 -0.02937030
-0.06517610 0.06694839 0.03899524
0.07307627 0.06243824 0.01331134
-0.06738738 0.15190552 0.00985830
0.05956695 0.10379490 -0.01497580
-0.02928809 0.15073177 -0.03220772
-0.01325999 0.07118206 0.01276144
-0.07285422 0.08956683 -0.02562623
-0.04904752 0.14873655 -0.03110782
-0.02520387 0.05355550 0.02264715
0.03180209 0.11342791 -0.01015681
-0.06536829 0.06806882 0.01998946
-0.07678848 0.16720657 -0.01076282
0.04945094 0.13795756 -0.00550610
-0.05632120 0.17185506 0.00885799
0.05462769 0.11223768 -0.02429136
-0.07191995 0.06868386 0.01086433
0.03771592 0.12541543 -0.02825241
0.08391322 0.07827276 0.01229461
-0.05315097 0.11415683 0.00403272
0.05201551 0.06077618 0.00455630
0.08251299 0.08052155 0.00641138
0.05925176 0.07201602 -0.00052197
-0.07638960 0.15286697 -0.00579278
0.02586104 0.10105206 -0.02550132
-0.05992802 0.09501420 0.01768964
0.03105113 0.08778109 0.00417381
0.00795565 0.15211740 -0.00789598
0.07970538 0.11402538 -0.00976001
-0.03970464 0.08710785 0.01263234
-0.07126728 0.07882234 -0.02122924
0.04451827 0.07384314 -0.00229472
-0.03426509 0.08486864 0.00458714
-0.06170166 0.18178253 -0.01589600
0.03793407 0.12399621 -0.00612241
0.02949926 0.15736336 -0.00776712
-0.08761594 0.06058799 -0.03775963
-0.03349457 0.06877889 0.02299926
-0.03257079 0.06008379 -0.02517466
-0.04388892 0.09775930 -0.01192863
-0.08559351 0.14168414 0.01548650
0.06365826 0.11438536 -0.00798721
0.04307129 0.13974811 -0.03376139
0.03996778 0.10407351 0.02725793
-0.03063735 0.14924169 -0.03278413
0.01598485 0.06294836 0.01006358
0.01947843 0.14003764 -0.03211354
-0.08094828 0.07928130 -0.01458322
-0.03479590 0.18317370 -0.02368778
-0.01957644 0.11375098 -0.01285545
0.06394117 0.05398947 0.00021918
-0.06526091 0.09628931 -0.02357809
0.07445666 0.06941079 0.00132318
0.03760361 0.11162331 -0.03360493
0.05223300 0.09255563 -0.01488277
-0.09340937 0.18053344 -0.00474645
0.07227121 0.07162739 -0.00274171
-0.00109252 0.19556785 -0.03489108
0.06807350 0.05565974 -0.01073218
0.02094088 0.06202853 0.01167371
-0.06307006 0.05650245 -0.03337756
0.07711124 0.06812809 0.00712748
0.02598112 0.06558669 -0.03466305
-0.07221103 0.07602198 -0.02063175
-0.08651293 0.17186433 -0.01148075
0.04524420 0.09931734 0.01649424
0.06666092 0.12142664 -0.01808615
-0.02548354 0.18277013 -0.02669021
0.01137471 0.06688914 -0.02190319
-0.04509766 0.12061971 -0.02551771
0.03080801 0.08969697 0.01673726
0.03596504 0.10178705 0.02505090
-0.02144750 0.15075830 -0.01445281
-0.07908030 0.11176294 -0.01328474
0.01690214 0.07400911 -0.00313359
-0.02711597 0.07518165 -0.03288028
-0.01218129 0.18752624 -0.03051805
-0.06819092 0.06743933 -0.03223970
-0.07304821 0.06836936 -0.02123894
-0.04307518 0.08708423 0.01871081
-0.08408623 0.08446263 0.01383027
-0.00257789 0.08169501 -0.02551314
-0.07825810 0.15780607 -0.00567873
0.07458848 0.13385119 -0.00891674
-0.03784744 0.16555130 0.00314537
-0.06198163 0.05393847 0.02462380
-0.02586696 0.11819138 -0.01683104
-0.04072853 0.14397341 0.00178663
0.07176133 0.13504264 -0.01469734
0.04360328 0.07981372 0.01919998
-0.06353384 0.07281789 -0.03424777
0.04585474 0.07904732 -0.01736509
-0.02587619 0.07380235 -0.03261435
0.02205567 0.05875447 0.00966469
-0.03797964 0.19226959 -0.02545700
-0.00937743 0.11976047 -0.02798361
0.01985673 0.15885873 -0.02328015
0.06978881 0.06448735 -0.00257032
0.07391608 0.07381909 0.02180021
0.02550096 0.05215172 -0.01020976
-0.06364073 0.15452459 -0.02203730
0.00948990 0.05870840 0.00322873
-0.01802185 0.05153966 0.01189054
0.06194982 0.08535853 0.02382413
-0.02883478 0.16093031 -0.04046710
0.01187231 0.06421831 0.01899758
-0.02036067 0.18283412 -0.02769482
0.06792585 0.05314017 0.00832470
-0.09586371 0.14767918 0.01983992
-0.03993648 0.17704636 -0.02044543
0.04517037 0.10003883 -0.03127977
0.05420463 0.10109451 -0.02995741
0.04496705 0.09910540 0.01102128
0.03437494 0.15443650 -0.02977141
0.02861667 0.05987417 0.00498508
0.06879211 0.11946115 -0.02081509
0.02019012 0.07172683 0.01467838
-0.04546512 0.13991104 -0.00257080
-0.04218672 0.10937639 -0.02127421
0.02989660 0.12479213 -0.00681640
-0.03334844 0.17350434 -0.03379781
-0.02309409 0.10356237 -0.02777338
0.06901476 0.11406676 0.00462724
0.02405287 0.09635900 -0.02967030
-0.07270560 0.14107120 0.01067244
-0.07176360 0.05937821 -0.01326906
0.03648237 0.08204716 -0.03103937
0.05252553 0.09690367 -0.01069717
0.04873715 0.07221159 -0.03042610
0.02750885 0.11956261 -0.01421866
-0.02750484 0.17699578 -0.04548236
-0.05047541 0.15497841 0.00182266
0.01090794 0.07380404 -0.01421197
0.04569824 0.06291877 -0.02079920
-0.01272538 0.06957088 0.00568245
-0.07375697 0.14628731 -0.00649737
-0.01585012 0.08457296 -0.03228246
-0.03561985 0.09212568 -0.02381484
0.01132669 0.14293745 -0.00443858
-0.01878341 0.05256882 0.02243717
0.07621871 0.13527504 -0.02164410
-0.07463433 0.16587844 0.00343992
0.03157622 0.11464538 -0.01102282
0.06369904 0.13746576 -0.02369613
0.06037629 0.08299148 0.00546782
0.00509575 0.09028956 -0.01277149
-0.03169154 0.08734599 0.00994050
0.03790607 0.09715167 -0.00197197
0.01756680 0.08578773 -0.03143118
0.08656409 0.12396876 -0.01305743
-0.03136208 0.17468010 -0.00864745
0.06557304 0.08749940 0.02218509
-0.07128518 0.11222614 -0.01179466
-0.03190422 0.12412967 -0.01127174
0.04149025 0.05069856 -0.01134032
-0.03158322 0.12620308 -0.01962990
-0.01686752 0.08390319 -0.03458305
0.05997727 0.05777705 0.01631521
-0.05104018 0.05332943 0.02533913
-0.03032379 0.18030752 -0.00588726
0.05718154 0.13117577 -0.03163522
0.03794582 0.11354181 0.00584887
0.05056742 0.14755312 -0.02462801
-0.08173247 0.08023413 0.01219799
-0.06600308 0.17120236 -0.02544864
-0.03404805 0.16941872 -0.03114152
-0.02443429 0.15628543 -0.01635126
0.06065869 0.07718471 0.00001380
-0.02577076 0.14447355 -0.02929980
0.01482852 0.06611666 0.01233287
-0.07312867 0.12038197 -0.01576570
-0.06855191 0.15248846 -0.00617732
-0.00760955 0.11814156 -0.03242712
0.04652670 0.09145899 -0.00436054
0.01602136 0.07077563 0.00810155
-0.01623037 0.07023040 0.02044360
-0.03475749 0.13739064 -0.00536362
-0.02997704 0.16463940 -0.01454717
0.06216368 0.06903955 -0.01294173
0.01067197 0.13788566 -0.00014668
0.02652527 0.07408977 0.01688348
0.02842839 0.08287072 0.02481125
-0.00877747 0.05909946 -0.00421682
0.04541896 0.07621314 -0.02121295
-0.08259955 0.07545533 -0.02245675
-0.03020060 0.05391397 0.00462404
0.04474817 0.05420415 0.01717410
-0.05498322 0.06369705 0.03344855
-0.06532632 0.06904130 0.02304821
0.00846600 0.15329568 -0.01199982
0.01417296 0.06802802 -0.02010899
0.04297985 0.05566169 -0.02262633
-0.03637110 0.15116005 -0.04204597
-0.01961197 0.11516911 -0.01391418
-0.07364378 0.11780012 -0.00120934
0.07959935 0.07861990 0.01853011
0.04191418 0.10738831 0.01598779
-0.07588921 0.11530028 -0.01101307
0.05546393 0.12176304 -0.03426087
0.04172625 0.05995031 -0.00699838
-0.02953064 0.05746852 -0.03491549
-0.02283924 0.07725282 0.00772751
-0.02789712 0.07499009 0.02333831
-0.01769349 0.06711601 -0.02721294
0.03894063 0.06905505 0.01595547
-0.09222602 0.15387657 0.00530320
-0.06222266 0.05088296 -0.01597807
0.02290440 0.15449068 -0.02956435
0.00265167 0.12882899 0.00049954
0.05885914 0.05338924 -0.00380052
0.08035799 0.10735217 0.00254672
-0.07227868 0.17737857 -0.00547713
-0.04352020 0.14443238 0.00695551
-0.04280082 0.14365783 -0.03157462
0.03954098 0.06183176 -0.04090490
0.07305335 0.13271298 -0.02224678
0.03844064 0.05788143 0.00947959
0.07262492 0.13781053 -0.02148820
-0.03731482 0.14699668 -0.03552718
-0.02702807 0.10185011 -0.00805419
-0.04479949 0.17979935 -0.02612595
-0.00440080 0.12922913 0.00061207
-0.07261267 0.16800381 0.01503777
0.01312641 0.09014694 -0.01747191
0.08330698 0.07512827 0.00984584
0.01614086 0.09079448 -0.00830471
0.04420085 0.07305386 0.02302065
-0.03309670 0.09647765 -0.01124304
-0.05624526 0.14062805 -0.01321251
-0.04278284 0.17679803 -0.02958905
0.07598387 0.09956890 -0.00730313
-0.03211879 0.12387960 -0.01545452
0.08585507 0.08845773 0.00632867
0.02678644 0.09519938 -0.00651466
-0.02694784 0.14106017 -0.01518068
0.04482028 0.08532508 0.01623201
0.03938546 0.06311706 -0.04141690
-0.05092270 0.05575253 -0.00597059
-0.07002677 0.07794522 -0.02257094
0.01574033 0.08424144 -0.01320745
-0.06849148 0.11973076 -0.00396511
-0.08072631 0.05987222 -0.03232777
0.07599708 0.13512278 -0.01986041
-0.02495823 0.14337032 -0.01767763
0.05168288 0.10336322 -0.02929542
0.04067576 0.07110538 0.02282850
-0.00047855 0.08765473 -0.02486453
-0.07222054 0.07488371 0.01381926
-0.09993414 0.14889428 0.00168138
-0.06612684 0.14998156 0.00854317
0.01768150 0.07352521 -0.02172918
0.03720307 0.05108552 -0.00302387
0.04262402 0.13934255 -0.03537683
0.02992799 0.05653210 0.00714190
-0.01638385 0.11587653 -0.02164794
0.04054377 0.06270497 0.00915720
0.02416443 0.09177727 -0.03945993
0.05763702 0.10949694 -0.02055961
-0.08666252 0.09324422 -0.00042700
0.03651007 0.10515448 0.00575747
0.07653982 0.10875376 0.00321447
-0.10213030 0.15020244 0.01353161
-0.01225675 0.12790632 -0.02515964
0.05089011 0.12900661 -0.03606174
-0.07276873 0.16537546 0.01769724
-0.01737626 0.10818668 -0.02623623
0.00516383 0.10212113 -0.00823094
0.02941207 0.06753832 -0.04582827
-0.02785292 0.07151017 -0.03021872
0.00122509 0.13382255 -0.03219745
0.02550079 0.06914526 -0.04226477
-0.02480842 0.05384541 0.02363359
0.02301463 0.08207420 -0.00056105
-0.07620504 0.16972171 0.01138220
-0.10343183 0.17374569 -0.00612050
-0.02262395 0.15229325 -0.01816065
-0.02278094 0.17775343 -0.02325575
0.06389369 0.09235582 0.01778058
-0.01731665 0.08007074 0.00932650
0.06727953 0.05955101 -0.01981846
0.04465459 0.10682076 -0.02952909
-0.06745155 0.05600408 0.02344404
-0.04900184 0.06050237 0.02144445
-0.05345145 0.09649172 0.01776647
0.03502506 0.05574196 0.02258287
0.03740229 0.06637798 0.02208257
-0.04596093 0.12382951 -0.02637546
0.04742748 0.05252333 -0.00238795
-0.05335583 0.05419013 -0.00587473
-0.03287753 0.15525475 -0.00333554
0.01895347 0.09295145 -0.02133204
-0.05449094 0.17981343 -0.02057778
0.05851965 0.05393840 -0.00147326
-0.09919528 0.14347069 -0.00098522
-0.06093463 0.13030396 -0.00761706
-0.05897332 0.05532331 0.01032718
0.03558414 0.06030716 0.01488305
0.04182936 0.07499754 -0.00234616
0.01536783 0.12650304 -0.00662961
0.04874181 0.09382716 0.02000338
-0.03140755 0.07791421 -0.02609954
0.06716623 0.09162076 0.01759671
-0.00793594 0.06252813 -0.00404528
0.02569426 0.06870167 -0.03878786
-0.01599603 0.11694624 -0.00132739
-0.02703182 0.13197041 -0.01145772
-0.06445789 0.15682879 -0.02682185
-0.05800959 0.15409057 -0.02533581
-0.09272043 0.14709552 -0.00635429
0.02666796 0.12477603 -0.01814122
-0.06207177 0.15000890 0.00330375
-0.02298691 0.10987910 -0.01323499
0.07548403 0.07670054 0.02322249
0.02206610 0.08435488 0.01541841
0.06447598 0.09689251 -0.00354541
0.04068806 0.09266198 0.02978348
-0.08370785 0.17807712 -0.00624094
-0.02062566 0.05438296 0.01550953
-0.01376764 0.07262765 -0.02997585
0.01515445 0.07690792 -0.01527705
0.05305842 0.10240115 -0.00552171
-0.07328663 0.12161781 -0.01714331
0.03991674 0.06257793 -0.05248448
0.04619741 0.09689877 0.01334532
0.06868279 0.11920240 -0.00190602
0.02368009 0.05252799 0.01327032
-0.03548348 0.05448171 -0.03803531
-0.05778318 0.09215619 -0.02808743
-0.00631308 0.10628413 0.00378644
-0.01570326 0.10585997 0.00158422
0.04376718 0.15081123 -0.03221435
0.05751000 0.05541469 0.02152609
0.02748311 0.05670667 0.01832351
-0.07053485 0.17086759 0.00707943
0.03043673 0.09384616 0.01523887
-0.03320457 0.08157238 0.01519574
-0.07330379 0.17605045 0.00336886
-0.04271688 0.09252837 -0.01252877
0.04526445 0.11547495 -0.03420784
-0.08326556 0.07602455 -0.02318795
-0.01949520 0.12512450 -0.01798387
0.06686724 0.09014486 0.01985208
0.07520214 0.13817374 -0.02048638
-0.00383692 0.07395641 -0.01110717
-0.09731317 0.15253404 0.00644225
-0.03432171 0.15774247 -0.04118267
-0.01663093 0.09701209 0.00525506
0.02389088 0.11006041 -0.01975646
0.07374694 0.08784861 -0.00097224
0.02881046 0.11083000 -0.02379370
0.03650550 0.05231316 0.00636061
0.00656028 0.15006724 -0.00773277
-0.07084688 0.09387051 -0.02461936
-0.05640813 0.17612456 -0.03285927
-0.01771214 0.06782502 -0.02636313
0.02796940 0.08487494 -0.03531159
0.04526396 0.08879746 -0.02477377
-0.05416919 0.13028374 -0.00087727
-0.06126865 0.17863090 -0.01634160
-0.04363577 0.05730294 0.01170770
0.01186412 0.06613391 -0.01813114
0.02210064 0.08841906 0.01040142
0.05242410 0.05116275 0.01715009
-0.01679909 0.13028979 -0.01830647
0.05036233 0.08190391 -0.00024649
0.04282741 0.07869747 -0.03467639
0.08951450 0.13673091 -0.01291967
-0.05972486 0.05640415 -0.00332642
-0.00065675 0.14704937 -0.01515391
-0.04056824 0.12679932 -0.02701837
0.01873299 0.15718794 -0.01579225
0.04590698 0.08512961 -0.02505695
0.07834460 0.12074266 -0.00743179
0.02601145 0.08966681 0.01566983
-0.06482492 0.05805692 0.02566302
-0.01209754 0.09011873 0.00255469
0.00980785 0.06137042 0.01705155
-0.03677931 0.09222429 -0.00415728
0.03669666 0.12177633 0.00847671
0.03077600 0.06520972 -0.03305824
0.06982365 0.11434986 -0.01799875
0.02128972 0.12188054 -0.02311073
-0.07089861 0.16527319 0.00292976
0.03899494 0.08868349 -0.00952100
-0.10100374 0.15153946 0.00455724
-0.06266732 0.08509763 0.01795633
-0.07784210 0.16162373 -0.01608114
-0.03315812 0.15765733 -0.03746267
-0.06628893 0.06734406 0.02412138
0.03128032 0.11237466 -0.01697617
-0.03226009 0.09656674 -0.00706947
0.05055089 0.15778051 -0.02222736
-0.00725588 0.06820938 -0.01043634
0.03969901 0.12372753 -0.00434402
-0.00526294 0.09516002 0.00305078
0.04370945 0.08500673 0.02038570
-0.02236888 0.09777338 0.00325564
-0.03194631 0.11800301 -0.02156852
-0.03448896 0.11051729 -0.01560735
0.03092654 0.06171649 -0.04453023
-0.02802498 0.18263856 -0.02865269
-0.08217262 0.09351452 -0.01541135
-0.08001223 0.08742678 -0.01986408
0.05559718 0.07914831 0.01899320
-0.04749622 0.09749833 -0.00203434
-0.01597061 0.05133229 0.02692617
-0.07478874 0.11580688 -0.01801400
0.00307858 0.10258412 -0.02964004
0.05531051 0.13284570 -0.00605333
-0.05601350 0.07738103 0.03385907
-0.06598692 0.05958001 0.03182034
-0.03770495 0.05080029 -0.02683487
0.03839415 0.05418387 0.01174626
0.05189972 0.07882290 0.00887171
0.01312597 0.14970113 -0.00789432
-0.04073118 0.07015482 -0.03256403
-0.06338035 0.06804968 -0.02175199
-0.06302981 0.14208487 -0.02009634
-0.02258062 0.10772690 -0.01004825
0.00605859 0.14592358 -0.02880622
0.01906736 0.13300253 -0.03754359
-0.04071657 0.10901405 -0.01005688
-0.02113065 0.08696969 -0.03467604
0.02170650 0.04982173 -0.01384331
0.03730792 0.08099577 0.01511283
-0.02378649 0.11750580 -0.01111853
-0.05340378 0.18224525 -0.01425118
0.04883425 0.10638309 -0.02894938
-0.08141327 0.09094773 -0.01767686
-0.06175838 0.07579844 0.04250386
0.05860169 0.05633775 0.01997414
0.05661987 0.12131793 -0.02436943
-0.08413465 0.18146412 -0.00363467
0.06281719 0.13114342 -0.01193142
0.02321536 0.05823105 -0.00693311
0.03041581 0.11169910 -0.02957753
-0.05754898 0.15722367 -0.02137390
0.03833390 0.15221465 -0.01209235
0.07167787 0.09988702 0.00893806
0.03732886 0.05242366 -0.01340994
-0.05350584 0.06382406 0.03734164
-0.04150571 0.09605388 0.00267721
-0.05074573 0.06406750 -0.03539995
0.05314938 0.15198724 -0.02205966
-0.08701469 0.15229641 0.00970117
-0.02837428 0.06508496 0.02868951
-0.04734579 0.11490780 -0.02501155
-0.00307840 0.12728840 -0.00502463
0.00633889 0.10983375 -0.03018881
-0.01204504 0.13196138 -0.02620869
-0.03585334 0.12285856 -0.00459537
0.03129273 0.15473703 -0.02600195
-0.02914124 0.05695511 -0.02740184
-0.02736894 0.14871874 -0.00250886
-0.01321761 0.07580774 -0.03219582
0.05439135 0.09423460 -0.02019990
0.04833397 0.07617164 -0.02737466
-0.04522112 0.05518480 -0.00153580
-0.08467728 0.14097491 0.00516670
-0.08234931 0.08097363 0.00703464
-0.03806895 0.10872142 -0.01969136
-0.05226357 0.10954036 -0.02488633
0.03558647 0.15117930 -0.02435954
-0.06351307 0.12353570 0.00717237
0.01773012 0.07320055 -0.04003345
0.02941537 0.11280990 -0.00564672
-0.03314998 0.13647713 -0.00514915
-0.03386445 0.13806228 -0.03018876
-0.05391270 0.10387202 -0.01519660
0.00339370 0.09608314 -0.00386107
-0.01137496 0.06129716 -0.01315563
-0.06564355 0.14317466 -0.00581004
0.02326731 0.07329661 -0.03729887
-0.09082369 0.16274184 -0.00984815
-0.04107830 0.13968170 -0.00250502
0.04828198 0.05887412 0.00872006
0.03658942 0.06065078 0.00374878
-0.02685011 0.15779155 -0.02354519
-0.07875334 0.06286530 -0.03989431
-0.02510655 0.15260392 -0.02558138
-0.09938139 0.15799125 0.00956755
0.04184049 0.06140985 -0.02676921
-0.00024142 0.07698856 -0.01164246
-0.06983586 0.14302467 -0.00829405
-0.02633139 0.15341403 -0.00081835
0.01168267 0.08686040 -0.01707256
-0.03284112 0.16125453 -0.00477180
0.02701227 0.16097550 -0.02253977
0.04286391 0.06837022 0.02239841
-0.07028037 0.12018456 -0.01449956
-0.00287373 0.08755766 -0.02924075
-0.01896707 0.06240194 -0.03253362
0.08368070 0.10849653 -0.00403687
-0.02434945 0.07845794 -0.03739590
-0.08487630 0.07626119 -0.00850804
-0.05300460 0.06355107 0.01491655
-0.04925559 0.16703777 0.00646280
-0.06766112 0.10134997 0.00776957
-0.03536445 0.05303259 -0.03399958
0.03719378 0.15667671 -0.00894932
0.02932970 0.10221119 -0.03000620
0.03179256 0.09411129 -0.00644076
0.03045105 0.11835659 -0.01806162
-0.05364775 0.15069498 0.00845002
0.04633753 0.09659120 0.01377520
-0.09131437 0.17776960 -0.00031289
-0.04357293 0.07206957 -0.02928369
-0.00267621 0.12758012 -0.00012330
-0.00783807 0.13454969 -0.01199656
-0.00088890 0.14408229 -0.01292535
-0.02366470 0.15024492 -0.03686222
0.01073543 0.05229556 0.01500257
0.05001016 0.05580229 0.02048600
-0.08250535 0.09637906 0.00813846
0.03534216 0.06431080 -0.03758781
0.01970348 0.08282235 0.00829229
0.06349538 0.13779455 -0.01828281
0.03596099 0.15450859 -0.02001753
0.01818966 0.15882166 -0.01314292
0.02983179 0.06035769 0.00749067
0.01832523 0.06506477 -0.01675557
0.04256527 0.08250056 -0.03398862
-0.03406164 0.19222370 -0.02188939
-0.04615033 0.16736799 0.00146509
-0.05827081 0.15396789 -0.02622821
-0.04482890 0.10090376 -0.00514730
0.03984012 0.07766110 0.02326741
0.08057215 0.06603952 0.00118203
-0.00910269 0.11575309 -0.03374045
-0.04359804 0.11781044 -0.01938780
-0.03032305 0.08405845 -0.02690721
-0.00092750 0.08488807 -0.00487226
0.00130961 0.08982220 -0.02872579
-0.00592298 0.07842419 0.00630106
-0.03141807 0.12755926 -0.01228557
-0.04807290 0.17836979 -0.00372852
-0.02967141 0.17957993 -0.02314168
-0.07140905 0.07210740 0.01166539
0.05503061 0.07910524 0.01835497
-0.00160361 0.08006266 -0.02047451
-0.02307340 0.05950644 0.02537509
-0.05085186 0.13728485 -0.00050549
-0.04265227 0.06476830 0.01341354
0.05150161 0.07937280 0.01253303
0.03495283 0.06465384 -0.02865981
-0.07698160 0.16843449 -0.01802265
0.03221557 0.05596074 -0.04774743
-0.05393016 0.12865430 -0.02423685
-0.08218206 0.06612362 -0.02938459
0.06115571 0.12836203 -0.02478573
-0.04731439 0.09151895 -0.01853235
0.02666163 0.08212173 0.00053258
-0.04472779 0.14513873 -0.03266635
0.05916820 0.10827777 -0.01487663
0.04159632 0.07545999 0.00382180
0.07295930 0.09013435 0.01847931
-0.05729253 0.18184721 0.00462671
0.00854860 0.05613060 0.00245649
0.06168417 0.14412543 -0.02167535
-0.02131041 0.13166484 -0.02137843
-0.05596446 0.13151442 -0.00696826
-0.05089143 0.07951364 0.02002636
0.00782468 0.11193269 -0.02168475
0.07819499 0.11180507 -0.01057730
-0.05064164 0.09953767 -0.01900843
-0.05606657 0.07648066 -0.03542437
0.02092487 0.05653193 -0.00312262
-0.02234537 0.16455603 -0.01317166
-0.06183517 0.12502988 -0.02263719
0.07595549 0.15005688 -0.01002684
-0.04752630 0.11190385 -0.02211411
-0.06507951 0.14249539 -0.00128118
-0.02944056 0.08525978 0.00855558
-0.03124743 0.09921629 -0.01389717
-0.01802011 0.09101750 -0.03192241
0.00603185 0.13529940 -0.00331150
0.01971203 0.14220089 -0.00192326
-0.07817452 0.09875567 0.00836204
-0.05629405 0.12131622 0.00797751
-0.03397603 0.09286314 -0.02625996
0.05536408 0.07187562 0.02341822
-0.03536325 0.06117915 0.01369004
0.04542533 0.08667765 -0.00628338
0.01784782 0.12350920 -0.00941308
-0.09543809 0.17289515 -0.00715269
-0.07615241 0.06790999 0.01139373
-0.02575564 0.14002296 -0.02678234
-0.03391129 0.17616825 -0.00711155
-0.02409234 0.05289411 -0.01060099
0.07203101 0.07446614 -0.00066152
-0.04568503 0.09013870 -0.01610720
0.04513116 0.11669392 -0.03409564
-0.03532765 0.05716491 0.02168463
-0.01125732 0.12311567 -0.00321366
-0.06980297 0.14826688 0.00649285
-0.04662694 0.18248093 -0.02838555
-0.01667864 0.17377296 -0.01547293
-0.04203788 0.17338300 0.00278066
-0.05126570 0.17934245 -0.01900570
0.00614906 0.14895257 -0.02687632
0.08431433 0.12848185 -0.01278574
-0.01634463 0.05311733 0.01447535
0.00559626 0.12705889 -0.03106449
-0.01706873 0.10983758 0.00524146
-0.06415271 0.05632772 0.02510579
0.05183248 0.12705688 -0.00234909
-0.05530928 0.16272278 0.00486706
0.03283091 0.09523612 -0.00442674
-0.03276547 0.05970743 0.01345411
0.00825959 0.09784696 -0.01510378
-0.06660943 0.10121529 0.01988361
0.01562959 0.06338377 0.01531321
0.01558850 0.13645153 -0.00384886
-0.00979449 0.14130959 -0.02043729
-0.04652671 0.14600095 -0.00593964
-0.03812516 0.15396090 0.00158616
0.00487371 0.10820445 -0.00480197
0.00689245 0.12549885 -0.03716452
0.07489045 0.06505455 0.00958215
-0.02489675 0.05562617 0.01253482
-0.06098653 0.14950527 -0.02986845
-0.07338311 0.15237427 -0.00113454
-0.06603364 0.11265711 -0.02375991
0.07908969 0.06582637 0.01043929
-0.03629741 0.07298606 0.02389088
-0.00309245 0.10059039 -0.03015643
-0.04944312 0.18073833 -0.01589319
-0.08910852 0.17049195 0.01193774
0.03297580 0.05692095 -0.00564139
-0.01784857 0.13251680 -0.01749725
-0.03759477 0.08007567 0.02271433
0.04899224 0.05131970 -0.00885361
0.04689198 0.12085614 -0.00372487
0.07939579 0.10383476 -0.00982282
-0.03564765 0.08714947 -0.02287539
0.05855743 0.06689718 -0.01886073
0.04311865 0.07114535 0.02087878
0.07886102 0.09267838 -0.00334602
0.01530283 0.05722269 0.01757705
-0.02745350 0.05757529 0.00848261
-0.07385020 0.14236876 -0.00535389
0.04223778 0.13700278 -0.00176471
-0.01583029 0.15143931 -0.00615518
-0.02423691 0.08799787 0.00569813
-0.02839487 0.12751748 -0.01428008
-0.06711552 0.16161567 -0.00593367
-0.03722973 0.17426240 -0.02428350
-0.04698190 0.12388013 0.00290211
-0.07349591 0.05896425 -0.02099433
-0.03506029 0.17622888 -0.02104084
-0.06973895 0.05675277 0.00001022
0.02181881 0.15911780 -0.01675866
0.01486081 0.09198245 -0.02044311
0.02983474 0.06016158 -0.02521034
-0.06755368 0.07386413 0.03849218
0.05774905 0.11839598 -0.02549713
-0.00554608 0.09273112 -0.03208243
0.00194308 0.14782029 -0.01632332
-0.02494229 0.12834820 -0.01321593
-0.05490042 0.13440345 -0.02565471
-0.01756177 0.18245725 -0.02340196
-0.03107776 0.16622412 -0.03157778
-0.08782078 0.15717715 0.00179065
-0.09526095 0.15496308 0.01355399
-0.05645012 0.18149543 -0.01393031
-0.05604349 0.17909032 -0.02287887
-0.04221407 0.05803412 -0.01858927
0.06255697 0.09264825 0.00929858
-0.08758363 0.08974970 -0.00813931
-0.02147181 0.06344846 0.02331259
-0.04090524 0.05097432 -0.03985512
-0.05272735 0.16480355 0.00256488
-0.00271382 0.12129983 0.00145376
-0.04557505 0.11864003 0.00183209
-0.06197099 0.14476728 -0.01786056
-0.04700292 0.15940307 -0.00252306
0.04774358 0.15224947 -0.01092979
-0.05210001 0.06877062 0.03702775
-0.00898593 0.05492824 0.02441843
-0.05717630 0.12267366 -0.02260060
-0.00735281 0.07102854 -0.02440535
-0.01660166 0.05666208 -0.01118669
-0.08120511 0.07004844 -0.02789059
-0.00898740 0.05800845 0.01850051
-0.02707355 0.09874664 -0.02428566
0.07324096 0.06444626 -0.00162772
0.01217521 0.15791497 -0.02181024
0.03401941 0.05467362 -0.01573125
-0.03977113 0.11814560 -0.00215453
0.03262055 0.05550841 -0.04769402
0.01531552 0.11651842 -0.02596581
0.01977962 0.09425388 -0.02349786
-0.05961534 0.11983000 -0.01511880
-0.05002096 0.13798678 0.00068710
-0.05298887 0.09363861 -0.02383751
-0.02929722 0.12005539 -0.01798769
-0.01108849 0.06967182 0.00728935
-0.05401717 0.14561409 -0.01252629
-0.00190526 0.10979337 -0.00009588
0.03134972 0.05306466 -0.00125657
0.07049394 0.13613428 -0.00985082
0.03721279 0.11162043 -0.00571559
-0.05356459 0.16142963 -0.00539654
-0.06681454 0.16041677 -0.01909671
0.02978734 0.05392087 -0.01558723
0.04628940 0.08096723 0.00314141
-0.06022650 0.16527860 0.00704490
-0.06814612 0.16010961 0.01296010
0.00324120 0.08904254 -0.00396416
-0.08549347 0.17918129 -0.00079521
-0.02998779 0.09843776 -0.01465341
-0.00111621 0.08529416 -0.00524332
-0.06575201 0.14821039 0.01057134
0.03270193 0.06549141 0.01629804
0.02968942 0.10877535 -0.01306705
-0.04903062 0.05245780 -0.00647834
-0.08899179 0.08706427 0.00440141
-0.04746545 0.14476794 0.00310073
-0.09189816 0.18003559 0.00186326
0.02453341 0.08964553 -0.00520094
0.03994998 0.05850879 0.01988947
0.04825363 0.09183438 0.01542096
0.07203969 0.05484916 -0.01135642
0.00353824 0.05348916 0.02143669
0.01561483 0.10957036 -0.01642008
-0.01138975 0.06165032 -0.01592492
-0.02410278 0.18382758 -0.02753378
-0.05045753 0.14324038 -0.02499947
0.05364108 0.09677385 -0.01363237
-0.04066859 0.09076881 -0.01817719
0.03062530 0.10232562 -0.00444913
-0.09840573 0.13630815 -0.00364785
-0.00745760 0.07352813 -0.00645674
0.01876675 0.06658383 0.00020624
-0.07497972 0.13957532 -0.01636537
0.00310502 0.14406733 -0.02957730
0.05815301 0.12576570 -0.00803101
-0.04380943 0.05975484 -0.03827593
0.07072094 0.08228347 0.02502793
-0.06763969 0.16112395 -0.00100788
0.05571982 0.06732272 -0.02627044
-0.02475281 0.10008238 -0.00322840
-0.05863594 0.09704455 -0.02140810
0.08711630 0.09493491 0.00270077
0.06106409 0.08772822 0.00932375
-0.06150428 0.08681342 -0.02812694
0.06459836 0.13799274 -0.01649644
-0.08239151 0.09834105 -0.00161606
-0.02746624 0.17411965 -0.03837483
-0.08834958 0.13710779 -0.00852908
-0.06526649 0.13966188 -0.02038064
-0.07550436 0.11371383 0.00936007
0.02193613 0.09915235 -0.02208405
-0.06437676 0.07620645 -0.02819081
0.01491147 0.12902267 -0.03522366
-0.02453300 0.13766178 -0.02410585
-0.04488006 0.10411210 -0.00592195
0.02593980 0.10566197 -0.00979099
-0.07219015 0.11294580 -0.01973096
-0.05980972 0.06343889 0.03415759
0.04240905 0.07384919 0.02313457
0.06136539 0.11753868 -0.00802022
-0.06959495 0.16209961 0.00876564
-0.09478711 0.15317453 0.01509778
-0.07575584 0.16719413 0.00860480
-0.07433738 0.05778364 -0.02137165
-0.03513698 0.17868449 -0.01310773
-0.03931634 0.16978136 -0.03756390
-0.05279184 0.16106662 -0.00464826
-0.01589909 0.08547100 -0.02869929
-0.02209683 0.15364510 -0.00992759
0.04585982 0.05541077 0.00919079
0.04465323 0.09060973 -0.02836882
0.07805675 0.10748651 0.00796337
-0.04980398 0.17158513 -0.03579155
0.05035586 0.11851106 -0.00437902
-0.04250797 0.18004617 -0.03336815
-0.09198660 0.15364359 0.00956083
0.07655345 0.06407801 -0.00022559
-0.04179801 0.18324050 -0.03710733
-0.01311242 0.15423235 -0.00807335
0.03883940 0.11932501 -0.00425808
-0.06346816 0.07648065 0.02909598
-0.06623639 0.12370963 -0.00519207
-0.08162177 0.09397243 0.00446229
-0.09155350 0.06082373 -0.02571844
-0.08402836 0.17962202 -0.00806328
0.00141731 0.13189633 -0.00373950
0.02460545 0.13476175 -0.00259702
-0.02602794 0.09636218 -0.01784375
