-0.08856392 1.50744438 40.89513016
0.81382549 -0.04503525 39.30163956
1.11461532 -0.57212323 39.94204712
0.94646806 1.84805715 38.71276855
1.00542068 1.68059111 41.82382584
2.19879651 -0.06107324 39.17620468
1.32886612 -0.56726909 41.36044693
1.19687593 -2.32946539 40.36551666
0.79337364 2.15521240 38.95109558
1.24364126 -2.27462101 40.35712814
1.18464243 -1.45885336 39.73980713
0.33682400 -0.25473261 38.80303955
0.47110313 0.44633606 38.81543732
1.72282720 -1.04722881 41.13368988
2.06514859 0.72696656 38.79171371
1.73662269 -0.37765247 38.92410278
2.56648540 1.36829007 41.43080902
1.54975510 1.91238487 41.09458160
-0.07231057 0.90273786 39.19712067
0.82427204 1.38203454 41.79911804
1.32954609 0.19570425 41.54208374
0.03789425 -0.23317580 38.94585037
0.21031755 1.86828434 41.40839767
-0.26488435 1.68155551 40.26205444
2.23837781 0.48608452 41.37950516
-0.22934854 1.00854456 39.75722885
1.99964404 0.36447591 41.79648972
2.01552486 1.55202997 39.21196365
2.47026849 0.26792446 39.02871323
0.30172259 -0.06398236 40.82804489
2.03856063 -0.25521889 39.33394623
1.70011401 -0.67681569 41.14421463
2.23384905 0.07789763 40.49383545
1.20823586 -1.54309952 39.68286133
1.23412359 -0.29682639 39.97897339
1.73058534 1.28840268 41.85340118
2.49867773 0.54519004 39.14845276
1.18591356 -1.42887998 39.63257599
0.84523058 -1.35373378 40.10089493
1.08223796 -2.10788679 39.94919205
1.68064666 -1.62107956 40.71070862
0.99163550 -2.35360861 40.41915894
0.91965491 -1.64545023 40.95255661
1.18535292 0.22165602 38.84486008
2.70797181 1.77683723 39.69849014
0.65038556 -0.19613829 39.31803131
-0.21835005 -0.11601314 40.81363297
0.07233751 0.80812263 41.75023270
2.51546097 1.61260486 41.67424774
2.64404988 1.68378890 41.62484741
2.05097318 1.89364231 39.82962036
2.58634186 1.25345147 40.64514542
1.25233984 2.11452579 39.42484665
0.23559177 -0.12967981 40.64347076
1.67496753 0.38252160 39.47798538
0.08930492 0.33253345 40.13332748
1.66234446 0.60940474 39.41991425
2.57526064 0.42771608 40.25226593
0.63010263 -0.10591599 38.71785736
0.88616681 2.26314878 39.13379288
2.41364813 2.45578003 39.10612106
1.46862817 0.47317225 39.25080490
-0.13865614 0.97965753 41.03154755
2.53795910 1.65748560 41.32898331
2.34873438 1.58059716 40.47366714
2.40206695 -0.08769391 39.05893707
0.26996893 -0.23553629 38.88040924
1.71954608 1.01582801 39.19591904
1.75459611 -1.10349000 41.13119507
2.22688603 -0.25505751 40.34447479
1.38875401 -1.92637002 40.62176895
0.46526420 0.91730815 41.85648727
2.02308965 0.57544529 38.69964981
1.79868269 1.54793155 41.85519791
1.87300825 1.83706856 41.28924942
1.66122711 -0.29003865 41.29971313
0.03457463 1.82397437 39.33411407
1.99224401 0.95765352 39.05666351
-0.25110555 0.94090188 41.01969528
1.65269780 -0.16085647 39.47569275
2.59151530 1.45880568 40.56422424
2.21748352 1.32425678 41.14810944
-0.05424249 1.70062530 39.44319534
-0.09227312 1.67007542 41.73599625
2.01923132 2.07491207 39.96845627
1.74386597 1.51843178 39.30933762
0.83478653 2.06621885 40.31404114
1.56105840 1.16517305 41.83054733
1.19657469 -0.98809457 41.24245071
0.39764977 -1.40167403 40.92539597
1.32677460 2.02986097 40.14220428
1.05250025 -1.48433959 41.09314728
1.63798368 1.77397966 40.99843979
2.07633066 0.43475774 39.94482422
0.01987684 0.53618240 40.91233063
1.39976084 -2.09344387 40.06943512
0.59214294 -0.52161467 41.34446335
0.38070077 0.46735072 39.13397217
0.67470962 -0.93089038 41.25325775
2.75511885 1.71309006 39.72817612
-0.31899297 0.75617594 41.31164932
0.93648207 0.47320724 41.61268234
0.60201418 -1.19825232 40.17543793
1.79393387 -0.86517632 41.13705444
0.96311265 0.47605443 41.50252151
1.08091772 0.40648729 39.19556427
0.50721306 0.47952807 39.08100128
0.98367620 -1.82457340 40.81133652
1.68447864 -0.51994038 40.06016922
0.68712890 0.50130361 39.39666367
1.30908012 -1.30442953 41.16159058
1.86226869 0.04356882 39.50382614
-0.06945968 1.82627070 41.49407959
1.05291057 0.92647254 41.79595566
2.00669527 -0.04387248 41.24705887
1.74727464 -0.88038486 41.07848358
0.25842315 0.25010940 38.73123932
2.45893979 1.27909386 41.32268143
1.38855004 -2.02425575 40.80455399
0.23758876 0.99423158 39.00005341
1.67519045 -1.37953043 40.83715820
2.70242929 0.99741793 40.28698730
1.89139831 0.50099736 38.75757980
1.30879283 -0.22508045 38.96087646
-0.18029308 0.47920817 40.23348236
-0.33018935 1.03408897 39.45588684
0.85017747 0.25855827 39.05678558
0.64526552 -1.69811571 39.87925339
2.13195944 0.16455080 39.53001022
0.63922584 -0.33827305 38.82511520
1.13181555 0.04047489 39.18611908
1.24654925 -0.76108438 39.99740982
-0.26376069 1.18587482 40.72205353
0.58180261 -0.84968412 39.98273087
1.22034919 -2.16993952 40.33810425
2.10014486 -0.37403184 40.21893311
2.03049088 0.19360860 41.13515854
-0.31800318 1.64197409 41.47122955
2.09453344 -0.41259181 40.83826065
1.94928336 -0.49990943 39.93124390
1.78137577 2.03201818 38.81670761
2.09645629 -0.43145546 40.91619110
-0.23445320 0.98755836 39.87947464
2.22854853 0.46577227 41.24396896
-0.05022287 0.02172974 40.46191788
2.41687012 0.35854787 39.42266464
1.94910741 0.14566308 40.07984543
1.27787232 0.60466671 41.71798325
0.91219318 0.83723921 39.23308182
1.26786578 -0.33940411 41.44011688
-0.00901723 0.54867041 38.69708252
0.66205186 1.76513207 39.38003159
1.99896741 -0.67601573 40.56188202
2.65495443 1.77544487 40.33870697
2.33776712 1.54041588 41.82699966
-0.13065338 0.62647063 39.94313431
1.32481050 1.62704384 41.81179428
0.54719025 -0.42426014 39.86049271
0.66728741 -0.16020426 39.77142334
0.71574396 -0.17052594 39.74612808
1.63322246 -0.24646586 41.23912048
2.39335823 0.12143889 39.07234192
0.29005033 0.86855400 38.67074966
1.58828866 -0.46601230 39.81523132
0.30522531 -1.32884920 40.96608734
0.14510119 0.45163408 40.13166428
0.77135271 -2.09607744 40.60739136
-0.39342105 1.02074897 41.10704041
0.39909178 -0.33191606 41.20061874
2.45364046 0.75095469 40.95645142
0.84209442 -2.09214497 40.80700684
2.44011593 2.13274097 40.53197098
0.70974946 -0.06056245 38.84651566
1.83573115 0.02133643 41.29486465
0.76151657 -0.91286033 39.99893570
2.18500447 1.78503847 41.47839737
0.43275195 1.93457007 39.79303741
2.43454885 1.30461991 41.85401535
1.30408454 -1.07444024 40.16343307
2.05289125 0.43201110 39.55757904
0.37259293 -0.29411530 39.56272125
1.09209824 0.94259155 39.23450851
2.40430713 1.96821797 41.02725220
-0.30124640 1.88189614 40.90698624
0.95679033 1.55736125 39.15021515
1.65361333 -0.40823352 39.69716644
2.53650880 1.59008515 41.76078796
0.19692492 0.57156831 41.55204773
0.49028575 0.58002466 41.63304520
0.66189259 -0.32790732 41.51145935
1.50214219 1.65838706 39.20541382
0.16002369 -0.49927610 40.53192520
1.97701585 1.36891866 41.79581070
1.06699276 -0.99152666 41.19892883
0.22379905 -0.05186319 40.69994736
0.21910512 -0.81923622 40.83245468
1.38363314 -1.09396636 40.04282379
0.33478212 0.59362739 39.70016479
1.94380736 0.24958041 41.11606598
1.46184361 -1.51907766 40.45944977
1.06265545 1.84313226 40.80155945
1.07161057 -0.40829411 40.10285568
0.26849502 1.01018894 38.77114105
-0.04393911 0.02087630 38.80681229
2.66443539 0.88813370 41.48472595
1.93223071 1.97189534 40.37570953
0.60184997 1.43161345 41.69712067
1.56826270 1.45333624 39.08557892
1.44096220 -0.12291990 39.59121323
0.86343396 1.89392805 40.73658752
2.44039679 2.09525108 40.82019424
-0.07215393 0.34792563 38.83022308
1.83968186 2.09007263 38.80312347
1.87638831 1.91131079 40.40655899
1.31241333 1.85262060 41.27523041
1.70370340 -0.39700693 39.51917267
1.75358319 -1.29504836 40.90663528
1.22600973 1.15405059 39.15713882
0.19363463 0.17122889 41.00521851
1.20559466 -1.86437368 39.64786530
0.75431931 -2.28853846 40.60277176
2.19063854 0.36538130 39.67046356
2.14345574 2.03362226 40.17013550
2.17022324 -0.04833888 41.04228592
0.41518527 1.55876589 41.90134048
0.61831921 -1.32266235 40.31026840
1.58050990 -1.71583986 40.69774628
2.53341317 0.80937016 39.80262375
0.58271122 -0.74985129 41.18168640
0.92816275 0.69826865 41.71452713
2.44350886 1.99519551 40.09526825
0.41018242 -0.42166495 40.04944611
1.75477076 -0.57513416 39.85742188
0.92479253 2.04075146 40.08846283
-0.23201454 0.79474086 40.64238739
1.21132219 1.42427301 41.76868820
1.83011186 -0.01291109 38.80691910
-0.24442983 1.27046764 39.35196304
-0.12209845 2.00964642 39.56710434
1.76447463 1.78690207 41.32565308
0.50968403 0.25629082 38.93090820
2.45008659 0.23289198 40.05828094
2.16877961 0.36330715 41.47679138
1.55409062 1.91322517 40.96521378
1.67978084 0.32763374 39.18554306
2.57772875 1.42869973 41.69019699
1.97385931 -0.83900142 40.69244766
2.25824451 0.81659901 41.89907455
2.29478693 -0.08424415 39.16158295
1.84950697 1.03398883 39.10118866
2.20347643 1.13280499 39.00359344
2.51625156 1.47808254 41.09814835
1.99056137 -0.79841226 40.86042404
2.11203909 1.47032750 41.75293732
2.69926691 1.96302903 41.03140640
2.56452608 1.24124444 40.75457382
-0.22934246 0.67163259 40.17609406
1.94897640 -0.02841475 39.55312729
0.15958655 -0.20671199 38.69455719
0.60705483 2.12643385 38.92707062
1.20497191 -2.48939323 40.51916504
2.50594282 0.50988770 40.66257477
1.09209502 -2.03169441 40.82032776
0.52687091 0.59431273 39.60506058
0.64679742 -1.54773772 39.99314880
-0.15871954 1.27026749 39.17415237
0.61525106 -1.42911637 40.12421799
1.06658697 -0.01883481 38.66776657
0.40234488 1.30614471 41.92380524
1.49842942 1.66511846 41.50099945
0.28041232 0.23830697 41.06390381
1.03291345 0.01234925 39.46288300
-0.01045501 0.72334224 38.64630127
1.84026313 0.99103546 41.84827423
0.09915590 2.06135368 39.66675949
2.40550756 1.16370070 41.03942490
0.91229939 2.07512617 39.55534363
2.54995632 0.27425840 40.30899048
2.00915432 -0.28646293 38.71308517
1.85342550 0.13788521 39.34764862
-0.22219002 1.56685364 39.28850174
1.19454443 -0.02447649 41.57999420
-0.00631785 1.86020136 39.28448868
0.86324400 -1.90377736 39.71283722
1.50165081 -0.22622621 39.76497269
-0.13467073 0.61108780 41.14590836
-0.10982096 0.39335915 40.93474197
1.86863470 0.33026397 39.67893219
0.86849958 1.73615122 38.97293854
2.40854263 0.33230969 39.01805496
0.10171151 -0.16447534 41.06528473
0.16293037 -0.04538116 40.49106216
0.66559261 0.20151447 38.93486023
2.08581591 1.64456952 39.22522354
1.60070527 1.39006090 41.88990402
0.31925476 1.63799286 41.78279114
0.97100073 -0.54486066 40.03484344
-0.32640672 1.14328933 41.31652832
0.63462740 -1.03313029 40.25712204
2.51283503 1.17233801 41.26877213
1.57031226 -0.22976393 38.79814529
1.15316021 1.73581004 41.43801880
0.59992915 -0.25808895 39.21115112
2.59408498 1.25889170 40.63130951
2.19958925 1.63375068 41.86388397
0.34456491 0.40145484 39.95034027
0.33791125 -0.83798021 40.91070557
2.55136061 0.86409456 41.25827026
0.02246809 0.37017694 40.21736526
-0.13588762 2.14380407 40.36249542
-0.20535707 0.34966183 40.16065216
1.70078933 2.15240717 39.34301758
0.89461315 -0.07187925 39.03288269
0.18261468 0.24916020 40.17381287
2.16166997 1.68948424 39.36099243
0.42817581 -1.12214363 40.85643005
1.80535293 -1.39301586 40.57889938
1.79095542 -0.29095399 41.30381012
1.85812962 0.43427968 39.56182098
1.35856652 -0.06344997 39.63644791
2.29481030 0.18240173 39.57952499
1.20744824 -2.08546734 39.95663834
2.67947698 1.03760469 39.50616455
1.17179942 -2.46307182 40.61833191
0.15422320 0.58693790 39.49539566
0.26256013 0.53443432 41.47084045
0.38499147 0.26503173 39.36306381
1.79855382 -1.48254502 40.56398392
1.97049308 -0.22599626 39.98699951
0.89422011 0.14358515 41.52140427
1.27743578 -1.37689483 39.82814407
1.99650693 2.40939474 38.90154648
1.85514975 -0.31966531 40.84612274
0.79463083 -1.36328411 39.91994095
1.12515306 1.88008630 40.41687012
0.60693365 2.14681339 38.90205383
0.63354111 -1.82030010 40.00837708
1.79239917 0.73788762 39.06492996
1.79068351 1.46169162 39.34255981
1.30305839 2.03604364 40.08232498
-0.08489549 0.81901616 39.07307434
2.59025097 1.33266532 40.34974670
-0.32555246 1.22957194 40.01984787
1.67145622 2.00498962 39.77480698
2.28486633 2.02080822 40.02999496
2.12694097 -0.02406539 39.22980499
0.87723470 -1.88242674 39.78594589
0.50275850 0.14869893 39.15916824
1.95421970 -0.37250087 39.49329376
2.37479401 -0.08649684 40.68690109
0.35267466 0.60303438 38.84340286
2.57306123 1.97917902 41.34326553
0.42983544 1.18126667 41.71787262
1.81996918 2.11601448 39.29071808
-0.11735296 1.53409207 41.91211700
0.36187273 -0.37762183 41.09056473
2.15675640 1.19033933 41.83841324
2.68364334 1.71183956 41.16372681
2.55052996 1.25836682 40.62346649
1.40322852 -1.16506755 41.20040512
0.20350832 -0.13996021 39.48108673
1.03994083 -1.10269547 39.99860764
0.57767183 -1.07685900 40.33579254
0.95359868 -1.97647965 39.63947296
1.74870539 -0.00019776 38.90243149
0.97640729 2.31431866 39.17873001
2.21507311 -0.36132374 40.91228485
2.45927811 0.77724355 41.41435242
0.11424351 1.66767049 41.82118988
0.98999643 0.11611381 38.76880646
-0.00527954 1.00079310 39.27863312
0.40393549 2.15063190 39.15251541
1.11003304 1.96912968 40.40850067
0.59249270 -2.33778143 40.07073212
-0.15500951 1.86258042 40.63018036
1.36814177 -1.69112504 40.03326416
1.68082345 1.85214472 40.64153671
0.71482706 -1.35310841 41.08193207
2.48353767 0.34198031 39.28906250
0.48117375 -0.28282869 40.71894455
1.41341305 2.02364874 39.76467514
0.87164307 -1.96259809 40.40660095
1.91466153 0.39167368 38.72477722
1.16898918 0.02458075 39.12086105
1.46431279 -0.22396357 38.73175049
0.00295019 0.68710428 40.88472366
1.91872704 0.26334962 40.08877182
2.00027013 -1.03270245 40.80035782
0.41478163 0.32569310 41.50572968
0.61849439 -1.91770792 39.98193359
1.28130364 2.16563177 39.87745667
0.52368462 0.32655141 39.65965652
2.48002744 1.88057816 39.02145767
0.49409288 1.95501328 40.62004089
0.33669412 0.62260973 41.59827042
-0.22442067 1.65586257 40.44376373
2.44954109 0.35861224 39.08316803
1.76725292 1.65209138 39.42202377
1.49916995 -0.08429455 41.59238434
-0.18222165 1.84337139 40.35737991
1.44274366 -1.85904300 39.90730286
1.75121689 -0.17625336 41.34256363
-0.22278845 1.52888191 41.70022964
0.84499228 -0.54486400 40.09948730
-0.18954349 1.55466986 41.23356247
1.49266756 -1.84816551 40.74459457
1.61106706 2.29433346 38.94859314
0.13185549 -0.14706680 40.07672119
1.40890574 -0.12562877 39.17071533
2.12835503 1.81472278 39.25897598
0.43986720 0.41284162 38.97660065
2.32008505 0.43213242 38.80580902
1.55472565 -1.26684642 41.00800705
0.28943676 -0.15220907 41.14071655
1.85474038 0.59173280 39.25669861
2.14898396 0.21271569 41.10781479
2.08932805 1.87823343 41.18455505
1.49672961 0.48884141 39.35622787
1.30536795 -1.29669023 39.96203613
0.56838953 2.07064438 39.49520493
0.78046489 1.80528522 40.48744583
0.66490328 -1.92791998 39.79888535
0.84419101 -0.53161663 41.27516174
1.30922520 1.66972935 41.67671204
2.29754543 2.01640272 39.46070099
-0.16497409 1.52240896 39.94044876
0.13949716 -0.18568422 40.91276932
2.71824217 1.07200813 39.81188965
2.29626369 -0.00181111 40.52187347
0.47217941 2.11431742 39.08236313
2.42739630 0.53725940 39.41061020
-0.05117583 0.34732065 40.47377777
0.20768964 -0.07313180 38.65991974
2.43738413 1.07528055 41.88336182
1.75427723 -1.47569561 40.47775650
2.13615465 -0.15556061 40.60229492
1.03825998 2.10884762 39.78433609
0.93819535 -2.08487606 40.39247131
2.40659595 1.54787254 40.54787445
0.38173020 0.29078951 41.16883087
0.46829402 -1.81925571 40.48465729
0.84043705 -0.30122024 40.02878571
0.80571866 -0.05680478 39.35557938
1.80405140 0.25511912 39.76305008
2.25384164 0.01538406 41.15529633
0.25241226 -0.52585745 40.73265076
0.41793340 0.62858355 38.88569641
0.45004594 0.81391567 39.28171158
0.42589176 -0.45719463 41.22499466
-0.00562155 2.00340796 40.09987259
1.97296715 1.46908796 39.19972992
1.28561091 0.45200515 39.31089020
2.23672295 -0.23053749 38.75226212
1.89632845 0.01844305 39.13834763
2.37752104 1.53979778 40.79365540
0.20570982 -0.06761239 39.48322296
0.12337840 0.44230473 40.14479828
2.79233432 2.04984140 39.53036118
1.06842947 2.09134483 38.84280014
0.61056519 0.07579294 38.81612015
1.90749454 1.67288315 39.25517273
2.69777536 1.84037149 39.87034225
2.29272318 1.77363241 39.16612625
2.28177023 0.66947848 39.08660889
-0.01191819 -0.08923723 41.13032150
2.12117052 1.05201960 39.08016968
1.62808216 0.08668599 38.84351349
1.21793532 0.92793262 41.85906219
0.34270221 -0.30974942 39.84628296
2.43022299 1.88344634 40.73624802
0.39464325 -1.16254222 40.43114090
1.84697914 0.08637927 38.97294617
0.72636181 -0.10990700 41.49359894
0.62302351 1.82346845 41.48813629
1.13398206 2.18547010 39.09016418
0.49015164 0.39219010 41.52542496
0.37215304 0.45788154 40.96743774
0.33148086 -0.22247379 38.97407150
2.39513516 0.47864568 38.86647034
-0.01646292 1.80018568 39.16149521
1.58913708 -1.69711256 40.68096542
1.51462650 -1.31296813 40.40104675
2.49846697 1.84523404 38.92550278
1.82679939 1.87726724 40.72529984
0.17915690 0.52482134 41.24090576
0.76237655 1.93198490 39.00348282
1.28639030 1.35664284 41.88587570
1.63096941 0.08249395 38.79513931
-0.25998008 1.69870436 40.91231918
0.95678496 0.01954018 41.63959503
1.53109527 0.97280884 41.71307373
1.40837765 0.34752178 41.67577362
1.47879362 1.92952204 39.83604431
2.16401267 2.39142704 39.18386841
1.61457789 0.65712881 41.68976593
1.58879042 1.54995191 41.79561615
1.21257663 -1.24141681 41.33675766
0.77673328 -1.91626215 40.78804016
1.35256398 -2.35024023 40.48565674
2.38891363 1.99808443 40.72564697
-0.11580110 0.44781166 39.32999802
0.91328752 -2.04083967 40.81665421
-0.40161967 0.88816416 40.77329254
0.45618993 -0.33922979 38.96516418
0.11746740 0.54762614 41.42275620
1.11561263 2.21842527 39.11637115
1.89056146 2.25405645 39.35269165
2.17060280 1.75939238 41.90423203
1.88264537 0.39757487 39.41494751
0.20697063 -0.14688614 39.57466125
0.96335995 0.12494059 38.84147644
1.92602539 1.07108688 39.07177734
-0.24650216 0.75435114 40.67688370
0.42206162 -1.98691452 40.34324265
0.18458688 -0.01890740 39.96172333
2.43120790 1.99450004 41.68466187
-0.18660581 1.89598894 40.96014404
-0.01527882 -0.27945107 40.92855835
1.52574813 -0.29161969 41.45349884
2.36205339 1.36704671 40.80596161
1.01409030 -0.40683490 41.37453079
-0.02133453 0.58857840 38.67856598
0.45643336 0.29743543 39.27317810
1.30948782 2.27189541 38.81817245
0.30640370 -0.71971732 40.47309875
2.70074368 1.20866525 39.92293930
0.36589670 2.04607773 40.40362930
1.48486400 -2.27407217 40.23186874
1.11056888 0.30521128 39.01887512
1.81656754 0.18143839 39.45460510
1.97106147 0.06317057 39.28074646
1.84725213 2.32660055 38.97809219
1.86441159 -1.19224036 40.69971848
0.31652576 1.45103323 41.86389542
2.00100040 1.78856838 41.40686798
0.22040242 2.04319334 40.28569794
1.27088010 -0.28226382 41.52139282
1.96249104 -0.26528808 39.25981903
0.17790341 1.27876556 39.00401306
0.83685231 -2.56532335 40.56796265
1.06113815 -0.03796742 39.24455643
1.09573710 2.12236881 39.19516754
2.47701120 0.66354239 41.74127960
0.49846661 -0.43421534 40.02910614
2.28335094 1.87071443 40.18991852
-0.27439141 0.99999022 40.80053711
1.53796852 -2.00874710 40.59793091
0.88211697 1.77822244 39.06428146
0.12798882 -0.12847695 40.33960724
1.76092172 1.67831564 39.13913727
1.50438666 1.87999117 40.40962219
-0.23733997 1.54144859 40.98793793
1.88176858 0.23879296 39.66207886
2.09939384 2.32098866 39.21202850
2.16055584 2.01219273 40.19168854
0.64735478 -1.36601555 40.99835205
1.15691423 1.12208831 41.63135529
0.43326128 -0.31646165 39.80579376
2.59143853 1.07253897 41.24761581
0.32136744 -1.28161788 40.68942261
0.49957156 2.09569502 39.39901352
1.43728805 -1.87396681 39.97919464
1.72201824 -0.16216114 41.27887344
0.21687067 -0.18861601 38.64053726
2.55187845 0.94550651 40.04722214
0.49082792 2.01425171 39.88330841
0.77428067 1.79779208 40.91935730
-0.37160492 1.96469676 40.96362305
0.19109213 0.29960975 39.36288452
0.15953708 1.59738398 38.97993851
0.49586862 -1.44298971 40.78424835
0.06368220 1.89698696 40.66406631
2.30180550 1.91444397 41.32537460
1.97890556 0.74256176 39.04458618
0.41959375 1.06989670 41.83607864
1.52166390 1.77721417 41.30133438
-0.30192542 0.91467047 40.99588776
1.51874912 -1.48848450 40.50674438
0.31742078 -1.42060125 40.70700455
1.47983873 2.13775873 38.89833450
2.68121791 1.51484609 39.85942459
0.93308508 -1.97622645 39.64855576
1.05826855 -0.75012141 41.44195557
1.44728482 -1.43746614 41.09985352
1.48234081 0.05658178 41.66766357
2.52974892 1.54648268 40.94385147
2.51138020 1.24951541 41.36008453
0.11481643 -0.27189872 40.33086395
0.94123185 1.87146997 40.55567551
0.12094879 -0.03990177 40.40790176
0.38242418 -0.45036560 38.73495483
1.66054916 0.34382689 39.33375168
1.03600442 1.62019825 39.40259933
-0.24855888 0.48225141 40.90557480
2.29987192 0.04598045 41.14474106
-0.17470181 0.83294451 39.74885941
1.43844986 1.98653281 39.86700821
1.20371222 -0.21213955 38.66243362
1.69462943 2.08956432 38.73471451
-0.08227956 1.83069110 40.48400879
1.05276787 -0.49325094 41.49069214
0.40955275 0.60396230 41.60015869
0.46806026 1.99282992 40.06799316
2.40587759 1.59895122 40.36725235
1.77069771 1.65709507 41.58242035
0.50458372 1.89035559 41.29058075
2.46198988 0.20640792 41.16607666
2.15882921 1.77412772 41.00065994
1.54882956 2.38344431 39.09971237
2.37371922 1.78561699 41.31672287
0.96258527 0.26022118 39.19837189
0.34581101 0.40730730 41.13387299
1.67573452 -1.08465469 40.32235336
-0.30798852 1.33606768 40.49652481
1.09115386 -0.33626744 38.66009140
2.07345462 1.71728504 41.87388611
2.06897616 -0.16041920 38.68987656
2.35225201 0.51342595 41.34640121
1.48582041 2.38771439 39.10843658
1.06757092 -1.98723543 40.14466858
0.25548011 0.00703268 38.64141846
0.06786633 0.40880433 39.38571930
0.72883606 1.82705104 41.04034042
2.17975712 1.81476796 41.18082428
-0.04375875 0.48342764 41.11608124
0.44147217 1.74085355 41.66672897
1.18165565 -0.07350700 39.14321518
0.75157320 0.10202335 41.49984741
0.46812576 -0.21479680 41.27841568
2.56470490 1.24720943 41.40221786
1.27691102 -0.15117580 38.94839096
2.67276955 2.01320601 40.12519073
1.93173122 1.34083343 39.25975418
0.83556962 -0.23143168 41.49732208
2.59664345 2.26482010 39.40660095
0.49044836 0.38492456 41.33403778
-0.26134098 1.32776177 39.71914291
0.94806945 -1.28819990 39.75992203
1.66470921 -1.55733979 40.71335602
1.52800882 -1.79226542 40.41419601
0.87117493 -1.74163580 41.02230453
1.24575663 -2.06863976 40.29322052
1.19338858 1.85532129 39.22468948
1.85403979 2.17160463 38.82648087
2.35128808 0.57414550 38.77131653
2.06687927 -0.23953761 41.13417816
1.96252656 0.98223066 39.06854630
-0.19648588 1.03771460 41.68078995
2.45397449 0.58069217 41.24805832
2.05495310 1.96685469 38.74067307
0.21282291 0.33820891 38.66370010
1.78643322 1.64302957 39.29621124
2.60173821 1.50440300 40.18219757
2.75099945 1.96931994 40.85751724
1.87582088 0.69393945 39.06324005
-0.19910395 0.89686459 39.86795044
0.42835802 -1.36541378 40.38068390
-0.39663017 1.36111021 41.34220123
2.70197535 1.41598821 40.22101593
0.52060515 -1.89696610 40.04483032
1.35976934 -1.55962896 40.94962692
1.39980567 -0.16607241 39.02507782
1.90220809 -0.10641085 41.37375259
0.96787316 -2.34229374 40.62526703
0.59223145 -0.10892222 39.52947998
2.55778360 1.53953624 39.38171768
2.12735248 1.81171489 40.82470703
0.43208408 1.04542208 41.74496460
2.40452290 2.13492775 39.71685791
0.47623509 2.16671658 39.11283112
0.20923597 0.62969804 39.88174438
-0.11642575 2.11786747 39.48564911
1.12238252 2.00133801 39.75555801
1.42294598 -2.37108612 40.14849854
-0.32266629 0.75926131 40.46614838
0.93742830 -2.26651335 40.36140823
2.64670181 1.27196968 39.53761292
0.51690871 0.85379684 39.16373062
0.71379435 1.81451869 39.07313156
1.99128842 -0.12124498 39.22055435
2.33080149 1.23730445 41.74732971
2.35975981 0.62160522 40.87984085
-0.14349210 0.62810016 39.81657410
-0.02621198 1.46991432 41.77269745
0.14600635 -0.31624004 38.96072769
2.35177660 0.55834168 41.67779160
0.44228870 -1.84317112 40.18766785
2.65789509 1.40833092 39.76942062
1.67958522 2.05385923 39.53982162
-0.22858667 1.83349729 41.18937302
2.51216269 1.37110627 41.33931732
0.92870033 -0.34372342 41.50424957
-0.26952279 1.18509555 40.61407852
1.78380191 0.79322338 39.37626266
2.15722609 -0.30915582 41.03078079
1.22522509 2.11272192 40.07187271
2.68282294 1.61599612 39.58592606
0.86355793 -0.26510668 38.80723953
1.00561595 -2.34503841 39.88896942
1.05188406 1.83868802 40.69066238
1.54586506 0.90404058 41.80406570
2.24685907 0.37082645 41.53087997
0.95701087 1.64806843 38.92913437
2.05736756 0.50322956 39.64441681
1.27082360 -0.62402713 41.34782410
2.34031391 0.46749437 41.47498322
0.60523224 -0.08824077 39.55640030
1.70859504 1.21229768 41.76081848
0.29748976 1.03905475 38.81670761
2.41740274 0.79050404 40.79594803
0.19984126 -0.36281055 40.47850037
1.82905459 0.39311996 41.33867264
1.76705456 0.50074446 39.54888153
0.10428441 0.32437950 40.18433762
1.66795051 1.81968272 41.76667023
0.98589104 0.32329139 39.33301544
1.20334864 -1.61516833 41.07088852
0.92898178 0.09517565 38.91624832
2.20855093 0.34577993 39.91861725
-0.30259418 1.71280754 39.42583466
2.60451651 0.74869102 41.43325043
-0.18019962 1.98162258 40.82753754
1.78160310 2.25633812 39.32103348
2.30347776 0.53540272 41.16339493
-0.23271239 1.72949445 41.36037064
2.19134474 1.93379164 39.89014816
0.96028507 0.21954852 41.45875931
0.38134646 2.01758814 39.94632721
0.84645945 -0.36377975 41.43615341
1.31970346 -2.12477303 39.87931061
2.23566389 1.69445944 39.13439941
0.67163974 -0.17287721 39.64429092
1.39352536 1.70503914 41.80318451
0.42173719 -0.37114093 39.12971115
0.83760774 0.70187205 41.80698776
1.43977273 -0.58471191 41.37157059
1.60232306 1.75921702 41.61392593
0.50740999 -0.30788714 41.35340118
1.52724886 -1.68245876 40.80344772
0.51120615 -1.05493498 40.35502625
1.11120355 -0.78578031 41.29421616
0.55245876 2.08100986 39.29065704
2.44572210 0.66783029 41.71893692
-0.21313393 1.58555508 41.14332581
2.64922476 1.15330637 40.19328690
-0.06083715 1.85406828 41.34453583
1.29992056 1.98035300 39.86268997
1.32012737 -0.08125506 39.48197556
0.66417211 -0.69663721 41.26105118
0.15254259 -0.24048650 40.38790131
0.28677279 -0.01188316 40.92339325
1.74168992 0.38575765 39.55044174
1.19602144 0.68796551 39.02633667
1.69914532 -1.43462002 40.93592834
2.69578934 1.05344665 39.83459854
1.94556272 0.11438939 38.82282257
1.76962137 -0.65442473 40.99378204
0.82173598 -0.16806760 38.61440659
0.17349267 1.95960176 39.75255966
1.27151155 2.26574659 39.19299698
1.43049955 -1.32282937 39.77013397
2.05946183 0.88662088 39.03020859
-0.02963471 0.74121839 41.51481628
0.88979125 1.50906169 41.79368973
-0.39038682 1.12476587 40.63962173
1.86276042 -0.91339612 40.27781296
-0.32843447 0.92243773 40.02004623
0.65339071 -0.34067541 41.34279251
0.29191512 0.13908674 39.58703995
0.85993630 -0.80752647 39.94263077
1.04699755 -2.25013781 40.69025040
0.36385256 0.81376326 38.81291580
1.21837342 1.48575616 41.83666992
1.28085327 0.05428842 39.51721191
-0.01772535 -0.26953128 40.83840942
1.29834580 -0.22607085 41.57166290
1.83479786 2.13945532 38.77587128
2.09684920 0.85523051 39.03292084
0.38174856 0.88081723 39.16791153
0.03366268 1.63732135 41.69324493
0.06601095 -0.33856076 40.86074829
2.51970959 0.68880272 39.68119812
0.33877140 1.95017958 39.99879837
1.26263332 -2.15757418 39.78949356
2.41949224 1.35294485 40.46084595
1.71749425 0.13149916 39.47436905
2.17152619 -0.29679358 41.13645935
1.80560064 0.88794726 41.86203766
1.13520420 1.81781971 41.55963898
1.94089973 1.85216749 41.02142715
1.87638402 1.98381245 39.70203018
1.65311491 -1.03862190 40.21961594
2.79905033 1.93705523 39.71476364
-0.17520249 0.73287374 39.68098450
2.47055078 0.61989015 39.80055237
0.94738412 -0.19949310 39.89970016
2.66103816 1.86115682 39.81950760
1.37793183 -0.25500679 39.90326309
0.16999352 0.02855086 38.58964539
1.02400064 2.21227455 38.83691406
2.32579279 2.15140343 41.13357544
1.65506029 -1.27014351 40.63750076
1.26673770 2.06601286 38.97264099
2.47064257 1.70366573 40.27975082
0.12908363 -0.06987100 38.69862366
2.39688420 0.08629139 38.86045837
1.93374324 -1.16306174 40.71360397
1.78082538 1.92874134 40.43070984
1.89705336 -0.57785618 40.05308151
0.81274879 0.02955051 39.53855515
0.65456122 -2.18399382 40.76877213
0.82088697 1.95961392 40.46846390
2.57176828 0.13689548 40.66689301
2.60465240 0.74952537 40.66366959
2.19713306 -0.18429260 39.04467392
2.66363406 1.80054879 40.37793732
2.15367484 2.27651644 38.93933105
1.90642893 -0.80845505 40.91590500
-0.15750742 2.14880562 40.00287247
0.00704992 -0.22496758 40.95228577
-0.18109632 0.72718316 41.48063278
1.18520999 2.41827726 39.07861710
2.54695463 1.93945909 38.98826981
1.45101905 0.02113262 41.51290512
0.91838872 -0.25194818 39.94495010
1.10298753 -0.58532119 41.31067657
2.66064215 0.71595925 40.18463898
0.84927535 -0.59764361 41.38754654
-0.12831604 1.00662053 39.29731369
0.06564605 0.71644872 41.36746597
2.53274584 0.58426571 40.26154709
1.36247027 -1.37523615 40.03279877
0.15139139 -0.17733358 39.75065994
2.61946130 0.59315389 40.16960526
0.53641486 -0.11810112 41.38634872
0.96526939 1.22201943 39.15809250
0.81557131 0.31298515 39.34507370
1.22209167 1.77059066 41.54270172
2.39906287 -0.17903645 41.02215958
-0.22410500 0.66352880 40.91809845
-0.18411148 1.00305200 40.96235657
2.52846169 2.27371359 39.47257614
-0.01339722 -0.07811743 39.21443558
0.42172551 0.07125210 41.40077209
2.48141432 1.62731159 40.69087982
0.07782352 0.91358972 41.78108215
0.61560857 -1.96232998 40.62772751
0.98137403 -2.22993135 40.47812653
0.21353680 -0.03438773 38.70160675
1.77796304 -0.45459726 41.12350464
-0.30920100 1.80715632 39.34564972
2.24791288 1.28575289 41.07535553
2.60035205 1.25740933 41.46443176
2.03935337 -0.50142288 40.54558945
0.77069062 -1.40357029 39.86246109
-0.26931155 1.35283875 40.63763428
2.19708443 2.04317713 40.05003357
1.30474234 -2.10422516 40.71626663
2.08779383 -0.09664817 39.25587845
1.30110586 1.78727853 41.67710495
1.07197404 -0.09004374 39.00589752
1.03168154 1.02978742 41.75507355
0.64061898 -1.57498384 40.29426575
0.88406003 1.98506010 40.02260208
2.07146120 -0.43677318 40.89442444
2.37786627 2.04826689 40.23114395
1.96075153 -0.37522307 38.70204163
2.74507642 1.81184435 39.37588882
2.70251036 1.92481768 40.52350998
2.09677720 1.93309402 40.50593948
0.84739852 -2.43719673 40.37984085
0.05162823 0.13894084 39.08460236
1.11458683 2.02990580 40.22127151
0.56756556 0.50250888 39.25781250
0.87946773 -2.32003784 40.09759521
0.85596967 2.13778973 39.78096008
2.18898201 0.44192410 41.00335693
-0.31431067 1.11216116 39.97059631
0.32939333 0.11838004 38.75465012
0.29917479 2.10980844 39.42712021
2.18872404 0.10305288 39.35154724
0.92662728 -0.23232129 38.75587082
1.52109063 0.99692380 41.77965927
-0.08410585 0.12504517 40.54120255
1.81327868 0.12861715 39.31767654
0.47270066 0.78204525 39.18490601
2.77056789 2.24518585 40.58482361
2.27548456 0.52539957 39.88917923
1.53750539 -1.75316405 40.39491653
-0.24738789 2.14764166 39.58079910
0.52804202 0.69144863 39.59084320
0.90607047 1.87936747 40.47202301
1.06487465 -0.61304158 40.12582397
1.11664891 0.71010572 41.74575424
1.23388565 0.30715561 38.86753845
2.56195426 1.25086808 39.52015305
2.58438635 0.83048087 40.65512466
-0.32964456 1.02184713 40.43068314
2.49606180 1.20090461 39.29583740
0.84751618 -0.55677629 40.04150009
1.47913456 -0.67171508 39.94671631
1.34932756 0.67245799 41.69346237
0.21710813 -0.15519345 40.75868607
1.85174012 1.19777024 41.85421371
0.30812836 -1.24186003 40.81241989
2.58483028 1.03548563 39.73318100
0.27087015 0.89436841 38.81488037
2.43657255 2.21282244 39.38613129
0.44020796 0.39958289 39.69326782
0.86016035 -0.64796066 41.29027557
2.72109032 1.69881213 41.10237503
0.16073167 0.44500792 38.70457458
1.80581808 2.36107779 38.98403168
0.06282198 1.18478298 38.98796082
0.93210918 -1.67688346 41.09033203
-0.02742898 2.11815071 40.07802963
1.24251056 -1.80657315 39.78677750
1.83220828 1.26622784 41.90353394
1.05234003 1.94445682 40.27067184
-0.32469606 1.42841721 40.03465271
0.89290345 -1.95195448 40.05184174
1.22063005 2.11132526 39.41681671
1.48529518 -0.13863778 41.50539398
-0.22174704 1.84296799 40.23320007
2.40222859 0.18524557 41.19772339
0.32186049 0.05980158 39.76876068
1.98958230 -0.96678770 40.72861481
2.70596957 1.62661004 39.40743256
2.79902220 2.03958178 40.73900986
0.05983174 1.70957792 39.10702515
2.75255990 1.85027373 41.44757080
2.42351174 0.52501822 38.78865433
0.45940131 0.55068702 41.23593903
-0.04798353 0.29662505 40.92900848
1.48758948 -2.18616962 39.99813843
2.09016156 -0.78296417 40.61705017
2.39592028 2.09649992 39.64732742
0.57588744 -0.59530163 41.28975296
2.28263712 1.13972735 41.78549957
0.41598320 0.81414163 41.68229675
2.35039735 0.05727130 38.94265747
-0.19125998 0.02557214 40.86155701
2.34706497 -0.07388029 40.48746490
0.45854765 1.85384166 40.55253601
2.05393124 0.42773318 39.68812180
0.43923962 0.36438584 39.26181030
0.81222254 -1.17948866 41.11916733
-0.32192254 0.65275633 40.22012329
2.44509339 1.14580584 41.16529083
0.77590686 -2.35250902 40.68695450
0.89520216 0.97852528 41.82304764
2.04215240 0.10854544 40.15915680
1.65059495 1.51585746 39.22866821
0.91879141 -1.88621378 40.26686859
1.98500109 0.53228086 39.87771988
1.21168685 -0.02335865 41.57011032
1.48750734 -2.12328529 39.85623169
0.29501802 -0.18430497 39.23010254
1.22098887 -1.37331200 39.83852005
1.39342189 1.74214864 41.10701752
0.33696842 -0.39391932 40.01411057
2.18061423 -0.05629597 39.24537659
1.07295942 -0.92242068 40.09791565
0.52333468 0.24241397 38.83206940
2.06901836 1.63267803 39.25349808
2.68484020 1.04418838 40.06887436
0.15091681 -0.79633039 40.64221954
0.68873489 -1.92696929 39.76980972
2.39594913 0.94505525 39.20107269
-0.25027263 1.01384676 40.92800522
2.61699176 1.61770105 41.30253983
0.03221989 0.23183343 38.78323364
1.57738447 1.74628854 38.77032852
0.41994417 -0.58671755 40.90892792
0.56378937 0.62752223 41.55450439
2.40174747 -0.15981138 41.01598358
0.98817194 -1.25753915 41.15665817
1.82207406 -1.45627177 40.88880920
2.12737584 -0.05458465 38.63632202
2.39298654 1.02088940 41.89311600
2.64400196 0.72404104 40.11590576
0.69079030 1.82439864 41.15090179
0.09038901 1.94340682 40.41519928
1.09642029 -2.29890156 39.93755341
0.82126749 2.09743881 39.85189438
1.46138823 -0.99638331 40.28310013
-0.28143811 0.26042101 40.79587173
2.39711952 0.21803987 40.24415207
0.38880605 -1.43461168 40.47425079
1.75118494 1.24363184 39.09722900
1.66855216 2.46663618 39.00763321
1.80251455 1.85185933 40.40562057
1.33696508 -2.01418781 40.88510895
2.29464674 1.78227580 41.16465378
0.70623887 1.61682677 41.77528000
1.54711616 -0.51200318 41.38778687
0.89788628 -0.55554688 39.92086029
1.67198539 1.00990796 41.86688995
1.48322773 -0.58984333 41.25615311
1.15903544 -1.70148969 40.91616821
0.22354668 1.21510959 39.08544159
0.90689290 -1.97379434 40.20727921
0.97622538 -1.05408382 41.27257538
1.70518851 1.19033921 39.16903305
2.04986286 -0.37658921 39.12577820
0.43815935 0.97095644 39.22396088
0.94576722 -0.10847016 39.89060974
1.33082914 -1.34731638 41.24019623
1.87158775 -0.56035691 39.79506302
0.30699199 -0.65016901 40.81152725
2.40426397 1.13250613 41.89797974
0.74473363 1.76171494 39.21160507
2.37808084 2.12954378 39.78004837
0.45864081 0.50475734 41.38897324
1.61861432 2.00558138 40.99365616
1.55132890 -1.46666384 40.40140533
2.53436184 1.10460687 40.31671906
2.22664452 2.04205036 39.55810928
1.00778127 2.14824867 39.44031143
1.70111299 -1.17566061 40.97615433
2.54958105 0.62023318 40.15190506
1.59286082 0.88032216 39.04820251
2.17705774 0.31324682 39.57764053
1.51198125 -0.05812301 39.57965851
0.18120718 0.20121846 40.02220917
2.67259121 1.58351266 39.39447021
0.51453108 -0.53377819 41.26959991
-0.08903384 0.91790563 38.90333939
1.36384308 0.11782852 41.61080551
1.35403287 1.71890008 39.22492981
2.40152144 1.58296442 39.28379059
2.31962729 0.01464940 38.74360275
0.41096222 0.50287390 38.95847321
1.51010525 -1.82676947 40.81558609
-0.16793191 1.49124193 41.24304962
1.03471589 -1.50412178 41.08469009
2.78039289 1.89683688 40.01307678
0.74163353 -0.99491560 41.26375961
2.44403601 1.14100158 39.02463913
0.40915781 1.97926342 40.47307968
0.75701940 0.01403632 39.62104416
2.70304418 1.71350515 40.39802933
1.64535701 1.15203142 41.78513336
0.25956714 0.48564446 41.01015091
1.49564195 -0.64743590 40.08646774
2.68741441 0.60739762 40.52820969
1.66173613 2.00158978 40.58463669
2.26795149 0.26216528 40.13924789
0.25027454 1.99511755 39.12922287
1.29146338 -0.01610687 39.78285217
0.83346736 -0.47686478 41.39043808
-0.32246566 1.57436466 39.59456635
2.35370350 0.31233543 40.13530350
1.99269402 1.16131532 38.94096375
1.62691784 -1.67652977 40.57437515
1.37352562 1.69610667 41.38571548
2.16123629 1.11817694 38.98418808
1.18051088 -1.94449949 40.85413742
0.17342615 0.56393021 41.52930069
1.72607708 0.03246903 41.52123260
1.98007774 1.90067482 40.51910400
-0.01190126 -0.03540469 40.80218887
0.85642195 -1.14094007 41.23892212
2.01361847 -0.15187573 40.10968399
2.24044514 0.43048364 41.44308853
-0.07757163 0.23351088 38.77150726
1.99139190 -0.20482852 39.97847366
2.36340284 0.40472630 39.45059204
2.49743104 0.73397034 39.21224594
2.71828508 1.78343761 39.54024506
-0.24312508 1.75433207 41.04191589
-0.15723872 2.01245594 39.46884918
1.14523160 -1.57173467 39.65201950
0.41155851 -1.53223681 40.53915787
0.40998632 -0.59760356 40.30730820
2.49102783 2.28858709 39.58904648
1.53782094 -1.75053990 40.31830215
0.94517612 1.78334177 41.65813828
1.73059130 -1.13130021 41.17220306
1.81966186 -0.13978013 39.41626358
0.48027760 -2.14138651 40.30455017
2.25195670 2.01345921 38.91041946
2.73189759 1.98707116 39.58737564
1.08505952 -1.08360231 40.03146362
0.86663330 -1.86747086 40.86426544
1.79642224 -1.16470325 40.93447113
-0.31286895 1.88714540 39.54516983
2.46129751 0.30903715 40.27504730
1.04333746 1.57939351 39.18466568
1.87826717 -1.10821605 40.58593750
0.69417810 2.06158924 39.23701477
0.54405087 1.77647960 39.21318817
2.16303682 0.35433349 41.22458267
0.89006621 1.61419749 41.84254074
-0.05574250 0.38681224 40.89379501
1.15292966 -1.83683681 40.92545319
1.46160531 -2.21441746 39.87112045
-0.03229320 1.90290797 41.13107681
2.72210288 2.34895515 39.07609177
1.77489591 -0.64473903 41.10462952
1.82126427 -0.38956314 40.42125320
2.19712901 1.70728528 41.34544754
0.20759010 2.09765339 40.44561768
0.38410562 0.13444935 39.21356583
0.91799134 -2.46068382 40.35472107
-0.21220791 1.36526430 41.24049759
1.58754444 1.63719833 39.22674561
0.83822000 0.80575824 41.72801971
2.20895076 1.92062104 39.86637878
2.16047478 0.40450856 38.56245422
1.33400810 -1.53742981 39.68411255
2.05217457 0.52565581 39.96560669
1.31863773 2.27599812 38.85989761
0.93023741 0.22899297 38.82533646
0.49874419 -0.33188936 40.78821182
2.68154955 1.74398196 39.45443726
2.27569318 0.62746561 38.89679718
-0.23462546 1.91314638 39.80321121
2.52424812 1.36211288 41.13050842
0.26584780 -0.49295738 40.88248825
1.63534057 -0.39264992 39.78750610
2.17759609 0.64176583 41.72196198
0.27496165 1.78896487 40.99417877
2.76717114 1.76163578 40.23862839
1.13216400 -2.13710737 40.69335938
0.38198847 -0.58405524 40.51487350
1.46327710 -1.69987464 40.98437500
0.30730778 0.23166689 38.80718231
0.79389250 0.48399132 41.71220016
1.31968355 1.69402373 41.67247009
1.72494185 -0.56111455 39.75233841
-0.30756712 1.21550083 41.65881729
1.49883127 -1.21589959 40.30497360
-0.28091443 1.89814663 39.98612595
2.15383840 1.74338591 41.86812210
0.22488570 -0.24511501 39.08845901
-0.28932619 1.70141613 39.75978851
-0.07831597 1.76760983 40.41309738
2.68348742 1.65206528 39.66913605
1.27496445 1.04203176 39.13088226
2.30469131 0.47990990 39.44142914
1.63309741 -0.17011926 39.31178665
1.68666077 -2.25991106 40.16912079
1.18201935 0.53397989 41.69769287
0.61433148 -1.97656107 40.55701065
1.04325044 -1.94212437 39.65871429
1.31220508 2.48579979 39.02308273
1.82195258 -0.46364364 39.47100830
0.98854184 1.60314548 39.15199280
0.19091994 1.35213828 41.90220642
1.79046488 -0.82560372 40.31719208
1.36055875 -0.05358395 41.67115784
0.94308734 -1.37191594 41.11915588
0.61541778 -1.85917461 39.95322418
1.30345774 1.79268777 41.44601440
0.79650044 1.01493895 41.85459137
2.66711330 1.45143294 39.54091644
0.04829168 -0.09639149 41.04138947
1.97885799 -0.08088583 38.76332092
0.75928557 0.03898279 39.23812103
1.29475045 -0.07819505 39.08974075
0.90332437 -1.87220144 39.57450485
0.17163730 0.09438844 40.25885773
0.22267705 1.95109141 40.68365860
0.37395418 -1.29528880 40.92724228
0.00380540 -0.15703732 39.02405930
1.82819533 -0.51232827 39.38905334
0.80905217 2.16061592 39.58676147
0.07489288 0.69286078 39.73300934
-0.21563625 0.69562703 41.24578857
0.57160449 -0.09062573 39.34584427
1.22150123 1.38797975 39.18419647
0.52615714 -0.62396705 40.21871567
0.16249096 1.77325511 39.09872055
-0.34230626 0.85357767 41.61685944
0.73609853 -0.25657928 38.65081024
0.80150962 -0.17975086 38.97621155
2.68161130 2.10889959 40.32852173
2.56430125 1.75554955 41.58393097
1.56950474 -2.09961987 40.47605515
1.55169487 -1.43881583 40.50098038
0.00896108 0.56533641 40.00080872
1.52949166 1.64389551 41.56943893
2.50015521 0.92968291 41.76336670
0.23200989 0.58629161 41.60956573
-0.18446970 1.16481030 39.80997467
-0.35249221 1.50595450 41.10224915
0.30704224 -0.39877287 40.44714355
-0.39025271 0.96501064 40.28166962
2.39245057 2.23842764 39.68396759
1.37849700 2.05986929 39.51398468
2.10973907 -0.59508324 40.45266342
1.58775461 -2.12640953 40.51433563
2.23715925 -0.04950980 39.04758453
1.29519236 -0.05351950 39.02370834
-0.26433694 1.90417469 39.69091034
1.12837815 -0.79956615 40.03500366
0.93967980 -1.07163143 41.30323029
1.47724342 -0.22959752 39.82103729
0.16477287 0.31062403 39.41481400
1.89604640 -1.40523875 40.97945404
1.34169674 0.12863457 41.59656525
-0.31221521 0.76748270 41.22667313
1.25348055 0.12378757 39.10230637
2.12466812 1.87464440 39.04026413
0.73301733 2.19489384 38.88709641
0.47870904 0.45826066 39.27462769
2.60369658 0.77530801 39.51019287
2.45581841 2.05675411 40.58315277
2.14939499 0.67706937 41.96114731
1.00883913 -2.07433939 40.20063782
2.75562501 2.14030170 40.14072800
2.24977183 2.02064562 40.28094101
0.53400862 -1.42209458 40.50330353
2.53075147 0.33879456 40.59330750
1.54699278 -0.58873367 41.28033066
0.95136905 1.94559050 40.54844284
2.64786005 1.74612439 39.88643646
2.06028843 -0.37044215 39.48272705
-0.31092870 0.78182989 40.93310165
0.45552850 0.19951335 38.63999176
1.89379334 -0.21014838 39.47468567
-0.12909698 2.00894928 41.17558670
1.47758269 1.79907632 41.59932327
2.02075338 0.21557668 39.81031799
0.35706913 -1.04730272 40.93679428
0.68178362 0.69845194 39.27568054
2.41869545 0.05145450 39.04132462
0.49157345 -1.08539903 40.15711594
2.53299522 0.38609844 39.01762390
1.06860733 -0.79173189 40.01662827
2.43917465 0.67599356 40.87553787
1.38350308 0.02933306 41.58618927
0.25763023 0.41272032 39.41098022
1.04660499 1.66633141 39.44869995
-0.35756373 1.44939470 39.64476395
-0.37614715 1.77472305 41.32283020
1.34887469 -0.71560168 41.26134491
0.03223896 -0.02906700 38.67602158
2.52254176 1.58651912 40.15289307
1.90546679 0.97097337 39.19510269
-0.16197431 1.77501833 40.73624802
1.44382215 1.73507774 39.23583221
2.48019505 0.79672647 40.87480927
1.11338568 0.98403895 39.15106583
0.91833216 -2.37652254 40.44383621
1.87064910 0.00920834 41.19753265
1.51576042 0.44804785 41.71022034
0.94497597 0.87347746 39.33639145
2.55060720 2.08751869 40.42681122
1.07251418 0.20460419 38.79872131
1.07519305 0.75207967 39.19315338
1.13510036 -0.92610598 39.97701263
0.12730217 0.60911673 39.84323883
-0.32652938 0.66709852 41.07905579
0.09112263 0.43179184 41.49572372
2.01057410 1.70615566 39.32606125
2.75682139 2.05978489 39.85705566
1.07695079 -1.94734335 40.50683594
0.31131738 1.60175288 41.73406219
1.72570848 0.05512745 41.42589951
2.05928850 1.98109329 39.57958603
1.31345928 -1.49373138 39.85460663
0.98562121 1.90328908 40.42604065
-0.36996830 1.38324940 39.33378601
1.62801766 1.29822099 39.11635971
2.28379464 0.02608924 39.18289185
0.97143096 2.06960344 39.48578644
0.31565171 -1.00674510 40.98018265
0.99636680 1.53890836 39.12063217
0.60904104 -0.32781047 40.12800598
0.95134163 1.46626198 39.10197830
0.27184147 0.50825417 39.90973282
0.34195161 -0.31008396 40.04829407
-0.11981440 1.15125430 41.91532898
2.51558065 0.20785199 41.09912872
0.05408549 -0.15998623 39.23411179
2.53986263 0.51174992 40.42055130
1.64525056 -0.67515707 40.29269028
0.12085128 -0.29614553 40.84783173
2.65401888 0.76043546 39.71691895
2.21990585 1.97039211 39.90825272
0.93048424 0.65024692 39.23600388
1.66136146 -1.11497056 41.19975281
2.34222054 1.44622350 40.80092239
0.30628210 0.47726399 41.10175323
0.72302926 1.99128735 39.07612991
0.87857687 1.63249385 41.84553146
1.16433513 1.94202209 39.81229019
0.71934891 -1.15494478 41.11645126
-0.15735722 0.56742007 41.20838165
2.28977156 1.17333734 39.01372910
2.48732948 0.28917193 40.66331100
0.51498145 -0.11421300 39.45312119
0.63328886 -1.47421336 39.86462784
1.87813020 -0.31143367 38.76726532
2.31641006 -0.01299752 40.89336014
1.98995399 2.31162024 39.08267593
1.61654806 1.47698867 41.76370239
-0.31333530 1.41246843 40.60435867
1.63474321 -0.21954469 39.26914978
2.44866657 2.09679985 40.28720474
1.73398662 -0.50544226 40.22546387
0.07610965 -0.13361277 40.95075989
0.27070999 -0.21136151 40.61848450
2.38211775 1.51525438 40.28874207
1.90080929 -0.36755383 40.08965683
-0.47581685 1.03548431 41.30345917
1.75377154 2.10294676 39.83352280
-0.03233480 -0.03688043 40.53737259
2.15157461 -0.53582799 40.60393143
1.48005342 -1.24132037 40.16901779
1.66373789 0.87515211 41.83696365
2.26729488 1.55328333 41.81571960
-0.10170496 1.58112550 40.74573898
0.78653371 2.10257435 40.08268738
2.13258505 1.13581347 41.84885406
1.18265796 0.42675275 41.62165070
0.49193627 -0.32350212 39.11656952
1.69182515 -1.33465075 40.46097183
1.69389868 -0.38124105 41.41256332
0.67354542 -0.49761426 39.90916824
0.58553493 2.23598766 39.32214355
2.60545731 0.47026092 38.93225479
0.81807017 0.32939997 39.18409348
-0.09037113 1.66373003 41.57145309
0.22442091 1.09495509 38.97022629
2.48222542 1.60033548 40.97820282
-0.18615580 1.95413077 40.45583725
1.55982149 1.95669556 38.99494553
0.73079008 1.33918726 39.01210022
1.64820647 -0.15425789 41.58662033
2.62971830 1.97836125 40.01721573
0.61680096 1.16937482 39.21999741
-0.26781547 1.43830574 40.89834595
1.06912231 -2.05256653 40.26947021
0.11735380 0.44055748 41.47484970
0.15563154 1.92942584 39.22543335
0.77870286 -0.22508533 41.49352264
-0.17673814 1.24289513 39.34246826
0.73629934 -1.35511196 39.95860672
2.65600109 1.45204473 40.06289291
-0.26129806 1.44229567 41.80293274
2.51855040 0.49460471 39.26372528
1.95107245 1.01614368 42.00336456
-0.40260482 1.23066854 41.20481873
0.21088845 0.64040804 39.98029709
-0.04199147 1.48557627 41.08268356
2.70156813 1.04949033 39.41750717
0.61651087 -0.15909688 39.10176849
0.51912951 -0.29277802 39.58563614
-0.03437448 2.08735466 39.49731064
0.09479785 1.87511075 40.95470428
0.08859837 1.93798554 40.84493256
0.06390595 0.43257490 40.96810532
1.18935859 -0.41160575 40.05293274
1.75858974 -0.89385033 40.26671219
2.44478321 2.09038448 38.85982895
2.58821177 1.30270195 39.99795532
2.51915598 0.57588297 40.03046036
2.30952597 1.56399035 40.68210220
1.46342158 -2.01307249 40.22486115
1.03706372 0.49447572 41.83876801
0.48925829 0.28598064 40.02217865
2.34776402 1.15694463 41.94101715
1.43921590 2.14541864 39.33751297
0.28236425 -0.75523311 40.32861328
0.36521089 -1.27347279 40.64103317
1.56145251 -0.92747772 41.26873779
0.61286682 -0.78281897 41.24256516
2.37329793 0.22535402 40.40209198
0.60327846 -0.67141867 41.03850555
0.29103887 -0.37878489 40.30299759
0.64926326 0.32211834 41.49768448
0.16211855 -0.11134068 39.93810272
0.64944488 -2.28048944 39.96501923
0.74796158 1.70771801 39.20092773
0.37799209 -0.34725508 41.01934814
1.91948366 0.40530142 41.25659561
1.14902723 -1.71956074 39.62152481
0.09063530 1.39085627 41.83224106
0.87874502 1.00003517 39.17807770
0.34616822 2.06746340 39.10752487
2.25029087 0.57237732 39.80134583
0.43942934 -0.36974913 41.08823776
2.39591599 1.42821467 39.21447754
0.58178902 -0.84988946 40.27061081
2.72553968 0.93201655 39.86051559
-0.29026449 1.70644283 40.32866287
0.27192986 -0.12098044 41.42868805
2.16854763 0.33122608 39.56027985
0.03233194 0.18824475 40.95943069
