0.00349105 0.23041712 -0.01611589
0.00331143 0.08129759 0.00076146
-0.01623193 0.19543421 -0.03060591
0.02845679 0.22876096 -0.01111446
-0.00777657 0.09570083 -0.00172625
0.02965447 0.23580223 -0.02741715
-0.00098842 0.16402011 -0.03195986
0.01685485 0.09257162 -0.00804247
-0.03719936 0.06055531 -0.02796354
-0.01969434 0.10861086 -0.03249998
0.01089880 0.19179773 -0.03421531
-0.04277340 0.06861558 -0.03058938
0.00822584 0.11234041 -0.03165580
-0.00872330 0.10821551 0.00599510
-0.00729464 0.21633375 0.00239740
-0.02777116 0.21648704 -0.01317737
-0.00794459 0.15262194 -0.03030876
-0.02816340 0.21022159 -0.01663912
0.03093295 0.16623014 -0.02411013
0.03363118 0.14661232 -0.01767408
0.00865034 0.24142197 -0.02672146
-0.03322103 0.14235075 -0.00732393
-0.03328837 0.12934986 -0.02715098
0.02578670 0.15572295 0.00604613
-0.03862560 0.05760252 -0.00985990
0.01133385 0.13748014 0.01544732
-0.00071852 0.08000284 -0.02122748
0.02052934 0.15081045 -0.02330286
-0.01252039 0.15862572 -0.02896590
-0.01428922 0.17662704 -0.00924167
-0.03528588 0.05479547 -0.03129737
-0.01122975 0.08659983 -0.03551634
0.01274220 0.24125141 -0.01947373
0.03574348 0.18069313 -0.00368651
0.01890350 0.06126469 -0.01042844
0.00030601 0.16954751 -0.03211752
0.02280707 0.19120005 -0.01200319
-0.03887190 0.08204821 0.00433243
-0.02241992 0.13316694 -0.02244811
-0.03568408 0.06928220 0.01667447
0.03053202 0.20905845 -0.00947406
-0.00330584 0.11529363 0.00290607
0.00098927 0.10723753 0.00427533
0.02183735 0.23667115 -0.02471975
-0.00613160 0.07693460 -0.01749289
-0.00062853 0.21220139 -0.01974489
0.00782958 0.07892880 -0.02493625
-0.01631610 0.23623449 -0.02815043
-0.00524854 0.10125603 -0.03090314
-0.00548808 0.18800481 -0.00228526
-0.00274060 0.08223808 -0.02796541
0.02695851 0.05582499 0.00620511
-0.00404835 0.24656704 -0.01249456
0.01902065 0.12487890 -0.03316882
0.02674195 0.07858285 -0.00882215
0.00163107 0.06107427 0.01964551
-0.00279527 0.09485310 0.00313275
-0.02553901 0.13425103 0.00472563
0.03278276 0.24245390 -0.01426978
0.02138245 0.13445632 0.00703921
-0.01399301 0.06204828 -0.02653976
-0.01723219 0.24513286 -0.01729108
-0.02969287 0.12160407 -0.01178109
0.02820249 0.05179822 0.01107379
0.01904411 0.05775084 0.00822258
0.00673346 0.07921721 -0.03619499
-0.01460118 0.05390614 -0.04167914
-0.02886272 0.16047426 -0.02508367
0.02952909 0.07648347 0.00110675
0.00363568 0.22501060 0.00350217
-0.02948269 0.09221166 -0.02498034
0.01905866 0.10610299 -0.00922881
-0.01727356 0.17873302 -0.00278799
-0.01000365 0.08722231 -0.02116777
-0.02494388 0.15043938 -0.02556322
0.03066432 0.06346061 -0.02026178
-0.01234818 0.08712733 -0.02417039
-0.01570583 0.19949283 -0.02964386
-0.00387937 0.09608208 -0.03813636
0.00082609 0.07718396 -0.01458281
0.02195535 0.05756380 -0.02455376
-0.01888460 0.12849036 -0.02884418
0.01077998 0.20381981 0.01213408
0.00394393 0.15862508 -0.03371804
0.00692554 0.06174102 0.01495765
0.02913793 0.21337780 -0.02951280
-0.02377799 0.07968771 0.02158087
0.00783295 0.11027676 0.00217893
-0.01869568 0.10996499 -0.02735517
0.01468219 0.16149671 0.01316524
0.02298117 0.06401066 -0.03448247
0.00154851 0.20574392 -0.02465363
-0.02661331 0.13456617 0.00214564
-0.04084852 0.05189443 0.01396080
-0.00129085 0.20393953 0.00950334
0.02723619 0.15878186 -0.02929955
-0.01245295 0.12642612 0.00436523
0.01552328 0.24311553 -0.01682985
-0.00702642 0.15541084 0.01800674
-0.02071546 0.12728065 0.00239829
-0.02457405 0.07855479 -0.03863502
0.02468259 0.10908443 -0.01361370
0.02468480 0.05589428 -0.01215112
0.02856790 0.21707538 -0.03300817
-0.02188899 0.05763117 -0.04051295
-0.03213295 0.15963131 -0.01914760
0.00341811 0.08093798 0.00264148
-0.00880511 0.18288897 -0.02333283
0.02067889 0.11430264 -0.02337399
-0.02003388 0.06520060 -0.02212982
-0.01475696 0.15500394 0.01769959
-0.00218429 0.21567325 -0.01334545
0.00873109 0.06216937 0.02886775
0.02247692 0.08254061 0.00831521
0.02727971 0.21045284 -0.00915633
-0.02718883 0.13871756 0.00195254
0.03164561 0.22999731 -0.01561848
-0.00799865 0.16865811 0.01307369
0.03132603 0.05917906 -0.01167919
-0.02730770 0.09988749 -0.00470017
-0.00094739 0.05080220 -0.04004361
0.01466505 0.10191201 -0.00415189
0.02492377 0.20508410 -0.03381056
-0.00290516 0.20516396 -0.02877514
0.00286153 0.23655233 -0.01016887
-0.02739844 0.09550785 -0.00593238
0.01431811 0.19160837 -0.00325168
-0.00682961 0.10071971 -0.02863831
0.02646528 0.16170876 -0.02433697
0.01780997 0.21541196 -0.02680377
-0.02489988 0.05164671 0.02030741
-0.00405640 0.19728954 0.00031482
-0.00859334 0.07983237 0.03120696
0.02275725 0.13607989 -0.02697335
-0.02368586 0.11797451 -0.02460336
-0.00615873 0.16439375 0.01968639
0.00467004 0.09166437 -0.01644846
-0.02762778 0.05925302 0.01171917
-0.02177878 0.06261034 0.00672829
0.01611622 0.21811903 -0.00190548
-0.00734020 0.21094801 -0.01826943
-0.02823010 0.08085036 -0.01989358
0.02133991 0.11644062 -0.01418892
-0.00438798 0.09686602 0.00851058
0.01650398 0.16438033 0.01511341
-0.01618347 0.07438518 0.03024822
0.02662298 0.07168739 0.01276631
0.01948380 0.12107335 -0.00138346
-0.01451177 0.11796622 -0.03505522
-0.03101502 0.05979981 -0.02322375
-0.02687234 0.09907709 -0.00382757
0.02871304 0.20147052 -0.00392690
0.02675987 0.08026288 -0.01201032
0.02212248 0.17145389 -0.02369724
-0.03381538 0.13464983 0.00919610
0.03451291 0.05462546 -0.00862033
-0.02257287 0.23983271 -0.02153242
0.00074649 0.11624038 0.00292528
0.03108900 0.20667237 -0.02719984
-0.02422965 0.13252249 -0.01522331
0.01595112 0.11627690 -0.02585636
0.02061031 0.08258197 0.00670252
-0.03154857 0.14045219 -0.01367965
-0.02425651 0.12340435 0.00423422
-0.02628672 0.14305414 -0.00369652
0.02094053 0.19548206 -0.03144272
-0.01749016 0.14581628 -0.03236716
-0.01536188 0.16557273 -0.01546266
0.00303349 0.08985820 -0.02419081
0.02407013 0.17773883 -0.00603580
0.02769477 0.10388690 -0.00984960
-0.02942555 0.09246705 -0.02814454
0.00634784 0.13417257 0.01430659
-0.00814426 0.16712877 0.01528073
-0.03715456 0.12046671 -0.01396285
-0.00362486 0.07909828 -0.00327643
-0.00169656 0.20853040 -0.02021854
-0.03296135 0.13832195 -0.01420359
-0.00734902 0.16354555 -0.03272229
0.01481117 0.24612921 -0.01419522
-0.02743247 0.05280947 0.01656540
0.01361714 0.24287707 -0.02435890
-0.02141478 0.05941486 -0.03084735
-0.01329535 0.24553108 -0.02855476
0.03264653 0.20302968 -0.02058136
-0.02153285 0.20136572 -0.01099399
0.02598279 0.24678662 -0.01439465
-0.01455722 0.16879240 -0.01939359
0.02951568 0.24491334 -0.01623122
-0.01919079 0.18316877 -0.02560873
-0.01411184 0.22030683 -0.01541107
-0.01228867 0.08125731 -0.03479844
-0.03253842 0.12242521 -0.00895646
0.03297625 0.15140274 -0.00634093
0.00377926 0.18190455 0.00669557
0.02203360 0.16780648 -0.02079530
0.00977602 0.07817394 -0.02204188
-0.02268788 0.08740409 0.01098486
-0.02578678 0.05848031 0.01499516
0.00092094 0.09009312 -0.00625275
-0.01335471 0.08194220 -0.01807800
0.02767382 0.15901046 -0.02761010
-0.01089173 0.20375594 0.00944602
-0.02971526 0.11708456 -0.00734620
0.01751108 0.11592341 -0.00321596
-0.00881853 0.11940143 -0.03310556
0.03482388 0.06727893 -0.01290245
0.03689301 0.14584950 -0.01332531
-0.00321224 0.22336935 0.00799887
-0.00268299 0.06016876 -0.03075986
-0.02036310 0.10962568 0.00116765
-0.01885229 0.10308145 -0.00090223
0.02144613 0.11552513 -0.00935750
0.02666520 0.06034218 -0.02834612
-0.01590904 0.08891071 -0.03224961
-0.00018257 0.10285299 -0.03714462
-0.02530493 0.15796341 0.00769550
0.01897414 0.14955483 -0.03173619
-0.00223566 0.05681625 -0.00736315
-0.00603283 0.05478182 0.02598508
0.01235869 0.05866440 0.01753464
0.02867189 0.17082146 -0.02814929
0.01004194 0.24626577 -0.02603188
-0.02577280 0.05400946 0.01222876
-0.01228088 0.21579924 -0.01662347
0.02042651 0.13195109 -0.00666602
0.01498576 0.13227892 -0.02882419
0.01370795 0.19645885 -0.00453770
0.02778225 0.14014710 -0.00365753
0.02352687 0.19189672 -0.02820954
0.03020499 0.17623883 -0.00525296
0.01314482 0.24580383 -0.02036491
0.02939036 0.21229540 -0.02584515
-0.01051931 0.08431040 -0.02139314
0.00760361 0.09341836 -0.02609179
-0.00417649 0.11925817 -0.03459016
-0.02994855 0.21567403 -0.01845729
0.02807244 0.22333235 -0.02668637
-0.02907175 0.05932999 -0.00703980
-0.00196741 0.05453975 -0.04285251
-0.03998698 0.07427584 -0.00442314
-0.02597395 0.12084614 0.00316847
-0.01327776 0.17557967 0.01041995
0.01911498 0.20521306 -0.03223521
-0.02056821 0.15296367 0.00714439
-0.00422428 0.15436465 0.02207083
-0.02542301 0.15460886 -0.00150952
0.02058987 0.16934229 0.00514025
-0.01422133 0.05912402 -0.02377260
0.01212621 0.09368725 -0.03378411
-0.03414172 0.05736516 -0.01054561
0.02594035 0.12277687 -0.01161585
-0.01889037 0.24230129 -0.01118005
-0.01818075 0.18124163 -0.01410914
-0.00353125 0.21339604 0.00522258
-0.00222290 0.17982742 -0.02916753
-0.00443208 0.19288664 0.00676946
-0.00431399 0.07662880 -0.00190791
0.00854186 0.09500393 -0.03524847
0.00003971 0.07910453 0.03033086
0.02570418 0.15943678 -0.02423872
-0.01459307 0.17663962 -0.01835803
-0.00959896 0.09351816 -0.00607667
0.01346428 0.08214597 0.01392729
0.01535974 0.22150487 -0.00500607
-0.02597397 0.06990825 -0.04097557
-0.03457210 0.13310386 -0.02580436
0.01358323 0.12614830 0.00547673
0.02733266 0.20943345 -0.01302551
0.00325093 0.07249311 0.03214622
-0.02401043 0.15790924 -0.03097108
0.01430409 0.11790421 -0.02973930
0.01626481 0.11010866 -0.00707802
0.00805657 0.15546660 -0.03263916
-0.02753664 0.12879734 -0.02344878
-0.01318894 0.06111648 0.02159073
0.01359772 0.08230469 0.01814002
0.00194599 0.15358391 -0.03600704
-0.03366581 0.08058461 -0.01492773
0.02855790 0.14377636 -0.00131424
0.00967927 0.11701985 0.00537490
-0.01415377 0.12602094 0.00838573
0.03474784 0.20938592 -0.00690798
-0.00560174 0.16192494 -0.02976813
-0.00085297 0.12277576 0.00436656
-0.02285345 0.14038615 0.00047380
-0.02668649 0.07451756 0.02364840
-0.03314494 0.05858508 0.01882250
-0.04025824 0.08903266 -0.01185912
0.03457726 0.18972416 -0.00798397
-0.03522729 0.12213320 -0.02305785
-0.00357276 0.17711431 -0.02588875
0.02104218 0.20838743 -0.01003617
-0.00619697 0.10654983 0.00157615
0.02763382 0.07597558 -0.01701999
-0.03675850 0.07960103 0.00367893
-0.01835930 0.04968874 -0.03315562
-0.00513037 0.07904951 -0.03281169
0.01882546 0.10936310 -0.00446588
-0.01058675 0.07516697 0.02978686
0.01229147 0.09109461 -0.01069588
0.00426470 0.21850452 -0.01825845
0.02278302 0.06281791 -0.03391554
0.03283263 0.23237464 -0.01808729
0.00086790 0.21719523 -0.01441413
-0.01802387 0.05257513 0.02311912
-0.02412879 0.18619108 -0.02373855
0.02780157 0.13275370 -0.01259688
0.01677223 0.21944392 -0.02291317
-0.02115712 0.06512381 -0.04336733
0.00382099 0.10604005 0.00506256
-0.00230819 0.07780376 -0.00826125
0.01118580 0.12223528 -0.02767724
0.01143608 0.06050368 -0.01306983
0.01595183 0.14594530 0.01439814
0.00612484 0.20608495 0.00941856
0.00079478 0.20819239 0.00972739
0.01109641 0.18317047 0.00330612
-0.02384873 0.05920458 0.02934519
-0.02036920 0.06047716 0.01665905
-0.02494772 0.10602375 -0.00180212
-0.00121243 0.18638536 0.00807702
-0.00885419 0.09289619 -0.01421025
0.03304856 0.06775979 0.00097572
0.01976565 0.15107784 -0.02775257
-0.03062071 0.09520742 -0.02060976
0.01753179 0.21752745 -0.02455718
-0.02813440 0.14828885 -0.00032641
-0.01300195 0.08117146 -0.01710205
-0.01256212 0.21694620 -0.01573741
-0.00614415 0.16885489 0.01082507
-0.00950183 0.14767070 0.01782144
-0.02073561 0.13528799 -0.02456001
0.01687034 0.08913185 -0.01221870
-0.01311476 0.19158615 -0.00352139
-0.04036835 0.07732111 -0.01643607
-0.02466992 0.06242593 0.00425592
0.02549829 0.18379289 -0.02461019
0.02472906 0.05656261 0.01447106
-0.03547195 0.08003112 -0.01884503
0.02677369 0.15633522 -0.00104467
-0.02239927 0.14076570 0.00262669
0.02049511 0.08170135 -0.00911730
-0.02820343 0.11491691 -0.02612288
0.02178794 0.20077622 -0.03117150
-0.02659142 0.05713122 0.01213712
0.00667138 0.15433073 -0.03411084
0.00734278 0.24105468 -0.01898090
-0.00076011 0.09583145 -0.00791284
0.00908224 0.09476016 -0.02383106
0.03041988 0.14683616 -0.01182815
-0.00962341 0.05627719 0.02648264
0.02988169 0.07222067 0.00788828
0.00234286 0.07408249 0.02460605
-0.00101405 0.05823708 -0.01707723
0.00118055 0.22127196 -0.01936726
-0.00901914 0.24128352 -0.02209088
0.00979637 0.06190553 -0.01941738
0.02492376 0.05292476 -0.02490249
0.01234926 0.09779820 -0.03328863
-0.02948801 0.09556033 -0.00330029
-0.00735928 0.07998714 -0.03443393
-0.03350975 0.15081930 -0.02159185
0.01869349 0.11193675 -0.00853877
0.02018632 0.09559084 -0.02403815
-0.03520073 0.12522024 -0.01177800
0.01282148 0.10337089 -0.00794671
-0.01664118 0.08593716 -0.02538275
0.02769059 0.12426227 -0.01998033
0.02956502 0.17661542 -0.01584532
-0.00130881 0.13908328 0.01674299
-0.00166996 0.09009810 -0.03703120
-0.03260534 0.12170893 -0.01084271
-0.02283759 0.14202762 0.00811149
0.01429403 0.07744425 -0.00303520
0.03276232 0.07461772 -0.00794394
-0.00008262 0.10799585 0.00732971
-0.00885139 0.25076446 -0.01015952
-0.01705462 0.17021692 -0.02109226
0.00475025 0.07846019 -0.01125507
0.01260895 0.20291945 0.00036115
0.00618759 0.11272605 0.00424504
-0.03626806 0.05588369 0.01389465
-0.02836582 0.05768928 -0.01990272
-0.02239901 0.12343827 0.00139408
-0.01016466 0.17768928 0.00448694
0.01231381 0.11652844 -0.02994739
0.01027497 0.24390699 -0.02575349
-0.02898466 0.20727985 -0.01808941
-0.00453836 0.09229818 -0.01027938
-0.02403677 0.15101893 -0.02800303
0.02166565 0.24147627 -0.02671594
-0.01775591 0.24336521 -0.02703488
0.00074588 0.23150361 -0.01741179
0.01226090 0.16786025 0.01582769
0.03258333 0.24080311 -0.01788025
-0.00575835 0.06038088 -0.03064041
0.02672148 0.18592262 -0.02688112
0.03095143 0.20943981 -0.00765641
-0.03218645 0.06335199 -0.03216786
-0.03105632 0.08926699 -0.02255463
-0.01723151 0.05466692 0.02757364
0.02440018 0.23947744 -0.02207521
-0.01343132 0.06151474 -0.02006840
0.01637613 0.09366526 -0.03201207
0.00832757 0.19882289 0.00436917
-0.01544593 0.13236672 0.00937650
0.00528821 0.17412257 -0.03044051
0.01852617 0.21220517 -0.00835083
0.01289310 0.15907237 0.01748318
-0.00138705 0.24202481 -0.01751163
-0.02852728 0.05632798 -0.03205977
0.01732448 0.07301461 -0.03835277
-0.02085757 0.08758447 -0.02554155
-0.02670629 0.08316970 -0.00699948
0.00928151 0.16578579 0.01875643
-0.02565955 0.09986566 -0.00505670
0.01324892 0.09281275 -0.01399787
0.00519482 0.09941022 -0.00521613
0.01923284 0.11132019 -0.02812783
-0.03472485 0.10395166 -0.01252455
-0.01430891 0.08527607 -0.00707859
0.01985655 0.14928968 0.01241520
-0.02154548 0.24113610 -0.03098580
0.02380592 0.12630560 0.00353223
-0.02717993 0.11540168 -0.02384615
-0.00743233 0.07608706 0.01870800
-0.01520956 0.24439260 -0.02246404
-0.03004425 0.12955180 -0.01303899
0.02981977 0.17958927 -0.02937424
0.01551280 0.21154198 -0.02479180
-0.00207777 0.07939751 -0.01191114
0.03338204 0.19974373 -0.02573779
0.01820979 0.21038505 -0.00746486
0.00755687 0.07333660 -0.04031260
-0.03088038 0.12692149 -0.02259181
-0.01312828 0.06214778 0.03001623
-0.02792130 0.07740163 0.02349198
-0.02436482 0.17610733 -0.01957769
-0.03259401 0.06000961 -0.00660039
-0.01445406 0.23015189 -0.02626817
0.00037564 0.13368385 -0.03541361
0.00173140 0.11678371 -0.03614510
0.00645276 0.14178538 -0.03487096
-0.01705473 0.24579029 -0.01882622
-0.02810454 0.06312424 0.02315855
0.02961571 0.18413483 -0.00416794
0.03144257 0.24089369 -0.02420341
0.02482518 0.15332340 0.00527660
-0.02428106 0.14441200 -0.02874990
-0.02139859 0.21091159 -0.01017305
-0.01542860 0.18691874 -0.00244063
0.02957660 0.12935641 -0.00448589
0.02569731 0.05118148 0.00613930
-0.01367501 0.07564071 -0.03646407
0.02630563 0.06456119 -0.02487128
0.03378990 0.05218733 0.00438220
-0.01512269 0.15387861 0.01040419
-0.00198577 0.14403176 -0.04085822
0.02384664 0.15806784 -0.02047284
0.03509437 0.17509910 -0.01160748
-0.02632762 0.15494268 0.00605547
0.01771898 0.17099915 0.00902081
0.01679258 0.16914317 0.00157342
0.01491922 0.11563536 -0.00167700
-0.04208055 0.07916009 -0.00548475
-0.02209716 0.18363848 -0.01250383
0.03128216 0.22206655 -0.01233750
-0.03226499 0.13739829 -0.01481802
-0.02511304 0.16630319 -0.02797774
-0.00743705 0.08685736 -0.03079041
0.03419911 0.16584231 -0.00323850
-0.03038581 0.17410670 -0.02124915
0.00105245 0.13745636 0.01653686
-0.00466935 0.16718899 0.02287210
0.03331107 0.21194257 -0.01317491
-0.00114956 0.13815482 -0.03317396
-0.00070587 0.15890667 -0.03313547
0.01257627 0.09874190 -0.02356746
0.02286450 0.15026866 0.01025948
-0.01345538 0.06196198 -0.02792178
-0.03863653 0.07096203 -0.02460087
-0.01952339 0.20821530 -0.01025837
-0.00111548 0.18551201 0.00110307
0.01564468 0.11865477 -0.00585760
0.01162724 0.17644617 -0.02840349
0.00886389 0.07120425 -0.03910784
-0.01277354 0.06734812 0.03039294
0.01072965 0.07964228 0.00761401
0.02602575 0.12124591 -0.02356852
0.01794134 0.21485117 -0.00664322
0.00961240 0.20540154 -0.02645631
0.01632722 0.05955816 -0.02172522
0.02826932 0.16826376 -0.02830477
0.00096240 0.06183615 -0.04452601
0.01775800 0.05882073 -0.00440521
-0.01901516 0.05855288 0.00084865
0.01960135 0.07011375 -0.03285224
-0.01227593 0.24269733 -0.01504445
0.01445960 0.10894647 -0.00074560
-0.03256654 0.14932604 -0.01665351
0.03000982 0.14690289 -0.02618687
0.01786138 0.19613191 -0.03035617
0.01704451 0.07275811 0.02632660
0.02389375 0.07823269 0.01995178
-0.02508451 0.05864666 -0.01680831
0.03441829 0.18711364 -0.01309406
0.01694754 0.12680113 -0.02911752
-0.02410827 0.07739109 -0.01600029
0.02920612 0.23862660 -0.02587481
-0.02555306 0.12976082 0.00307617
-0.01974022 0.06465679 0.02338952
0.00119618 0.12014595 -0.03316348
-0.00441906 0.24998145 -0.02183622
-0.03184202 0.12706366 -0.02233474
0.00320025 0.06551925 -0.04475947
0.02146312 0.12117530 -0.00557351
-0.00241954 0.18575329 -0.00382977
0.03454655 0.19546562 -0.01834532
-0.00698654 0.23712340 -0.02340391
0.00665224 0.15193349 0.02354357
-0.03601888 0.12852192 -0.01418485
-0.02907432 0.10848634 -0.00298967
0.00436172 0.24996239 -0.01554698
0.02294538 0.07224764 -0.02919359
-0.00189325 0.09255327 0.00360802
0.01253849 0.09113003 -0.00798984
0.00121534 0.24673624 -0.01826588
0.02311896 0.14134255 -0.02365351
0.02794593 0.07983857 -0.00988851
0.01152215 0.17528619 0.01415634
-0.02325304 0.16462572 -0.01624600
0.00846934 0.18821287 0.00520337
-0.02660404 0.15588593 -0.00580511
0.00173041 0.22543010 -0.01357413
-0.02762256 0.19856559 -0.01041293
0.02232165 0.10601322 -0.02595987
0.03373419 0.19327006 -0.02767234
-0.00189868 0.06159108 0.03215776
-0.02962249 0.23098847 -0.02408015
-0.02668752 0.12385878 0.00006509
0.00824087 0.07676127 0.02846084
0.01100204 0.09280884 -0.03254423
0.03110013 0.23450479 -0.02536259
0.02438473 0.11278445 -0.01901358
-0.01049589 0.08968905 -0.01932363
-0.03162732 0.08002989 -0.00828390
0.01736014 0.09361098 -0.02630915
-0.03343429 0.14393266 -0.02343455
0.02188079 0.06786248 -0.03582000
-0.02059573 0.18785207 -0.00306298
-0.03009891 0.07801135 -0.00854745
-0.00679989 0.21306321 -0.01490490
0.00474566 0.12678836 -0.03268414
-0.03177403 0.06255544 -0.00459581
0.01297068 0.19407684 0.00245635
-0.01818117 0.07846606 -0.01648541
-0.01490999 0.16391014 -0.02643419
-0.03109168 0.09053271 -0.02936042
-0.02443189 0.22247642 -0.01536913
-0.00660067 0.16554451 0.01926370
-0.01706206 0.07405163 -0.04308641
-0.00666390 0.05484206 -0.03797916
-0.01728917 0.21771860 -0.01427689
-0.02155055 0.09168446 -0.00518830
0.02425238 0.22516100 -0.02791242
0.03407469 0.17888886 -0.02809080
0.03058579 0.17437427 -0.00418410
-0.00835409 0.12414949 0.00846731
0.03505780 0.16365154 -0.00233471
-0.02294007 0.17745659 -0.02000101
0.00047932 0.23888591 -0.02806275
-0.00141132 0.13196823 0.01518168
-0.04274311 0.07552955 0.00146805
-0.00905157 0.09011675 -0.02810944
-0.03507004 0.08094417 -0.01627436
0.02506975 0.21276760 -0.03422892
0.00780409 0.08317994 -0.04169592
0.02020678 0.21547121 -0.01153694
-0.02203758 0.12725601 0.00138113
0.02925284 0.09923725 -0.02204092
0.03196111 0.15734950 -0.01127623
-0.01713217 0.21841627 -0.02543374
-0.02230631 0.06099893 -0.02978093
0.03130025 0.18319608 -0.01203186
-0.02121740 0.11154944 -0.02611289
-0.01018947 0.22055545 -0.02470482
-0.01575551 0.20661929 -0.03129540
0.00477124 0.05778045 0.02857149
-0.01514156 0.12967995 -0.03382678
0.00729629 0.16058399 -0.02938518
0.00426116 0.11508373 0.01138606
0.01605624 0.06312764 0.02663253
-0.01860017 0.15781105 -0.02528777
0.00314148 0.22017127 0.00814383
-0.02855822 0.09975924 -0.01198507
-0.02121248 0.20459503 -0.00577221
0.02386523 0.07217661 -0.02814690
-0.02191311 0.13993625 -0.02564662
-0.02650331 0.08177124 -0.00152015
0.01856141 0.09890088 -0.02941112
-0.01588410 0.05752163 0.03352926
0.00236443 0.08371501 -0.01822667
-0.04532761 0.07004040 0.00089428
-0.01800494 0.22349003 -0.02651305
0.01199758 0.05905562 -0.04615486
0.00257672 0.08081912 0.03173643
0.01563125 0.06040788 -0.03510557
-0.01002209 0.08655591 -0.01243742
-0.01892679 0.17710078 -0.01765261
0.00700806 0.24128434 -0.01321221
-0.03457455 0.14209451 -0.00291802
-0.01587944 0.17268878 0.00568184
-0.03676179 0.06689548 0.01983373
0.00331632 0.06343490 -0.01443918
-0.02849785 0.09076811 -0.02323282
-0.03674881 0.06408610 -0.02356878
0.01453469 0.19448178 -0.00402891
-0.02879555 0.23256364 -0.02590963
0.02134554 0.17277873 -0.02161148
-0.02086728 0.17870700 -0.02869975
-0.01274087 0.19795629 0.00119604
-0.03066712 0.08424149 0.00402153
-0.01061752 0.19791681 0.00575676
0.03037077 0.19349034 -0.01445247
-0.01516967 0.17574823 -0.02459476
0.02599288 0.05201111 -0.01636727
-0.01549645 0.07882016 0.03034368
0.03269106 0.21037826 -0.01526891
0.01672729 0.11509930 -0.02973867
0.02625182 0.13004702 -0.01194540
0.00025495 0.05813353 0.03203317
0.01522980 0.22300640 -0.00605806
0.00126565 0.12907684 -0.03741973
-0.01653954 0.12322964 0.00580587
-0.02265777 0.12746984 0.00512055
0.00216399 0.08822189 -0.02486284
0.00074290 0.18804821 0.00333991
-0.03317575 0.09000032 -0.00932651
0.02965127 0.16977300 -0.02325356
-0.00879173 0.15687294 0.02166434
0.00532444 0.14889599 0.01557191
0.00346531 0.13427763 -0.03719914
-0.03039753 0.16029479 -0.02617264
-0.03053547 0.05684648 0.01980082
0.02759565 0.24144813 -0.02498662
-0.02265916 0.14480267 -0.00008268
-0.04474659 0.08702868 -0.00998430
-0.04477640 0.06369271 -0.00083735
0.01176880 0.24174261 -0.02408123
-0.02561995 0.21543606 -0.03104022
-0.01000406 0.19343615 0.00489073
-0.03145951 0.09314957 -0.02026359
-0.01919655 0.05291368 -0.03364413
0.03245742 0.23003532 -0.01491130
-0.02215862 0.16205561 -0.01585753
-0.02314460 0.06854878 0.03070500
-0.02289097 0.06967849 0.02439958
-0.02377187 0.24527931 -0.01785515
0.03419992 0.06448943 0.00280086
0.01411768 0.15084910 0.01797228
-0.00839636 0.07860968 -0.02025413
0.03430587 0.06978680 -0.00588549
0.00060245 0.10529708 -0.03939691
-0.00310479 0.16856481 -0.02826153
-0.02025959 0.15542571 -0.02675190
-0.02768704 0.06745151 0.02884217
0.02076548 0.19234246 -0.02892935
0.02029291 0.23922139 -0.02524228
-0.02188306 0.19807510 -0.00853279
0.02001577 0.06698969 0.02314519
0.02080443 0.13347235 -0.00494022
-0.04228597 0.06451003 0.00837779
-0.03180570 0.08497083 0.00076956
0.01761154 0.19206601 -0.00201035
0.01933790 0.17164344 -0.00132935
0.02908629 0.05321629 0.01389061
0.00783405 0.08540107 -0.00828452
0.00394258 0.22457060 -0.00872359
-0.04796919 0.06586183 -0.00863234
-0.01504973 0.24343383 -0.01951161
-0.01187799 0.18020758 0.00422174
-0.00389844 0.08844060 -0.02801957
0.01040764 0.18700498 0.00312354
-0.02206301 0.05945535 0.02813143
0.01547724 0.21272430 0.00544625
-0.00220464 0.06382462 0.00436548
-0.02741661 0.21755496 -0.03086653
0.00249964 0.19000542 -0.03042856
-0.00259461 0.19919768 0.00933372
0.00668792 0.09758374 -0.03210741
-0.00994107 0.08617624 -0.03806155
0.03209917 0.14763787 -0.01907245
0.00858772 0.07818992 -0.00727101
0.01930780 0.07139565 0.02785976
0.02010731 0.06968722 0.02578556
0.00206914 0.08041234 -0.01310790
0.02306217 0.16814807 -0.02030821
-0.03373052 0.12672552 -0.00362633
-0.00334407 0.06202899 -0.01455312
0.01323557 0.18092358 0.00058339
-0.01486794 0.23666340 -0.02878516
0.02434463 0.06165589 0.01227658
-0.00389892 0.15853229 0.01817803
0.01979220 0.12005624 -0.00699858
-0.00966129 0.19894710 0.00502322
-0.00940827 0.24450117 -0.02079700
0.01902373 0.24635193 -0.01289480
-0.01208618 0.07903402 0.02643665
-0.02547367 0.10763139 -0.02355650
0.01698218 0.17510983 0.00740630
0.01648006 0.11538324 -0.00153220
-0.01213451 0.13187476 0.01124960
-0.01896456 0.17454849 -0.01128546
-0.03070676 0.06683317 0.02214549
-0.03165597 0.13060965 -0.00657120
0.02338492 0.22234046 -0.02530027
-0.01829220 0.09019568 -0.01570284
-0.04209341 0.07241196 0.00337834
0.02683534 0.23993352 -0.01738052
0.02006298 0.07856287 -0.02227034
0.03245681 0.20579873 -0.03172455
-0.03258141 0.13233106 -0.00774801
0.01389186 0.14551108 0.01511166
0.02978818 0.14519671 -0.01968601
-0.03265658 0.09952493 0.00179283
-0.00251637 0.22162202 0.00628980
-0.02800355 0.06023552 0.02253737
0.01946532 0.16161884 -0.02918285
0.02436242 0.23300681 -0.02382970
0.02929108 0.14392759 -0.01717150
-0.00376571 0.14517534 0.01713730
-0.02943429 0.05431592 -0.03003960
0.00091992 0.19908349 -0.03039167
-0.02281764 0.15450576 -0.00517488
0.00289183 0.22168222 -0.00465256
0.00772928 0.13805982 0.01525510
-0.03618840 0.07956184 -0.02500330
0.01740949 0.18467632 -0.02982431
0.01076499 0.06857605 -0.04946483
0.02187513 0.09935600 -0.01396055
-0.02788195 0.10355140 -0.00451787
0.02305012 0.06425761 -0.03660636
-0.03887159 0.10478877 -0.00550308
-0.02878878 0.05853608 0.00852660
-0.03130780 0.15068501 -0.00516387
0.00844699 0.18303585 -0.00057546
-0.02326806 0.06178888 -0.01869354
-0.02619046 0.13712084 -0.02428801
-0.01987037 0.14581212 0.00367583
-0.03183343 0.12041458 -0.00079299
0.01576038 0.13375922 0.00645896
0.02476660 0.13587745 -0.02683057
0.02560857 0.10164931 -0.01087902
0.02901452 0.21867782 -0.00670391
0.02561559 0.13434143 -0.02109914
0.02001127 0.12626359 0.00197365
0.00675925 0.10190844 -0.00157002
-0.00098983 0.09152482 0.00017359
-0.02403605 0.22277957 -0.03104002
-0.01463038 0.08425517 -0.03705677
-0.03611321 0.06598602 0.02228373
0.00647151 0.08893598 -0.02070671
-0.01309383 0.08799376 -0.01006631
-0.03203912 0.08538257 0.00914767
0.00108355 0.19998819 0.01467071
0.02580095 0.14031538 -0.00002477
-0.03188500 0.08903387 -0.01102079
-0.02258313 0.16445577 -0.01381723
-0.02306755 0.06175073 0.01591276
0.00737394 0.23436683 -0.01622109
0.00147973 0.14999747 -0.03579065
-0.02154808 0.05667879 -0.02975455
-0.00467072 0.17676558 -0.02824489
0.02559984 0.13592856 0.00097017
-0.00252924 0.07882905 0.02716594
0.01108388 0.15893885 -0.03327597
-0.03175037 0.17444310 -0.02303616
-0.02007936 0.24331501 -0.02265342
0.01384006 0.07328454 0.02756791
0.02529744 0.16251241 -0.03033678
-0.00955582 0.20959477 -0.00479689
-0.01867016 0.05699106 -0.02342447
-0.00236938 0.06275139 -0.02149928
-0.01121604 0.20834064 -0.01235391
0.01346237 0.08096100 -0.01951619
0.02689948 0.21354394 -0.03437182
-0.03367208 0.06427680 -0.03364569
-0.02880833 0.15348458 -0.01443563
-0.01417296 0.05938388 0.01805681
-0.03320133 0.09440908 -0.01313348
-0.00949080 0.13601653 0.01547736
0.02762826 0.05679952 -0.02020440
-0.01717407 0.07083447 0.03107454
0.01680464 0.23994774 -0.01879241
-0.02225359 0.07849830 -0.03751674
-0.01555129 0.12718302 -0.03146513
0.02792698 0.07428846 -0.01791105
-0.03387611 0.17705993 -0.01976133
0.01051476 0.20139340 -0.03304274
-0.01263814 0.20365101 -0.03082237
0.00927775 0.24700642 -0.01257877
0.02954159 0.19071239 -0.03274494
-0.03089335 0.16126999 -0.02514383
0.02101895 0.22491001 -0.01711283
0.00337337 0.16462757 -0.03506419
-0.01363107 0.08366171 -0.03284506
0.03282101 0.24006122 -0.02040865
-0.02689658 0.16100039 -0.01460898
-0.03100797 0.09045055 -0.01183134
0.03376074 0.19530404 -0.00885247
-0.03326907 0.09135751 -0.02073211
-0.02651057 0.12716855 -0.02206156
-0.01799114 0.12417607 0.01228885
-0.01214850 0.08389784 0.02124347
0.03290823 0.16345501 -0.02160167
-0.02633056 0.23518318 -0.01433605
-0.01956709 0.08898337 -0.00338918
-0.02290592 0.08192407 0.02585506
-0.01306376 0.10121776 -0.00028767
0.03311612 0.18421853 -0.01160053
-0.02329594 0.15797517 -0.01206863
-0.02549746 0.07756002 0.01193381
-0.00856255 0.06096454 -0.04661478
-0.01600590 0.06216273 0.00909742
-0.01542863 0.19473580 -0.03333397
0.00538111 0.19844121 -0.03305941
-0.01827728 0.07899258 0.02732898
0.00833412 0.09893043 -0.00909755
0.02582859 0.15729271 -0.01250952
-0.01600228 0.08764413 -0.02191251
-0.01359394 0.17985915 0.00170057
-0.00515373 0.15331328 0.02035848
-0.02015228 0.24578685 -0.02027721
-0.00406922 0.07002191 0.03281304
-0.03027813 0.14080660 -0.00678038
-0.01798982 0.06377997 0.02882412
-0.02684038 0.13927226 -0.00590913
0.02546317 0.12489205 -0.02962747
-0.02445933 0.12287167 -0.00283392
0.02824312 0.18552886 -0.03260522
0.01899109 0.06512579 -0.00109317
-0.03074603 0.20802025 -0.01807575
-0.00016049 0.16797899 0.02185275
0.02046840 0.08238088 -0.02553964
0.00146356 0.12569141 0.00365761
0.01308971 0.07379297 -0.03543909
-0.02363063 0.08995932 -0.01429502
0.01475211 0.15314773 -0.02823035
-0.00764384 0.21406469 -0.02573715
-0.01206424 0.09989516 -0.00526902
-0.03178294 0.14248644 -0.01225306
0.02407832 0.14717416 -0.02829471
-0.02611063 0.07751863 0.02083375
-0.00361976 0.12309889 0.01078067
0.03176221 0.06237343 0.01357263
0.00532361 0.13166635 0.00487805
0.01208014 0.22114083 0.00665604
0.03467098 0.19407502 -0.01609230
0.00477340 0.05432738 -0.03779771
0.00027929 0.06354588 0.01467333
-0.03591909 0.14110874 -0.00741269
0.01190145 0.10275725 -0.00725276
-0.00932280 0.21161705 -0.01626406
0.00778100 0.13747330 -0.03465895
0.02640938 0.14149562 -0.02269902
-0.01607834 0.24445897 -0.01933749
-0.00079421 0.07845686 -0.02844176
0.02683136 0.09586725 -0.02394067
-0.01741083 0.17544566 -0.00860562
0.02637005 0.06243876 0.01652926
0.01626944 0.09470659 -0.03152347
0.02316327 0.12660454 -0.01365394
-0.02371300 0.23623449 -0.01586428
-0.02143784 0.08959351 -0.00789665
0.02718622 0.23776540 -0.02714089
-0.02924792 0.23809750 -0.02588532
-0.01084715 0.17589913 0.00881399
-0.01147323 0.05883264 -0.00477344
-0.03364064 0.12967432 -0.00458142
0.02909291 0.18257868 -0.01617059
-0.03188073 0.08767104 0.00386683
-0.02359302 0.12284203 0.00056445
-0.00292655 0.07202118 0.03640411
0.03167539 0.17444171 -0.00658556
-0.01135266 0.08874097 -0.01911172
0.00510953 0.21846128 -0.01807053
0.01682091 0.07814956 0.01331623
0.01647773 0.12116972 -0.00365786
0.01368436 0.07805739 -0.02822892
-0.00648814 0.07252336 -0.04503637
0.02684240 0.16147926 -0.01526651
-0.00560489 0.15293024 -0.03903273
-0.01780795 0.24410993 -0.01553142
0.01170061 0.22569633 0.00080724
0.00007536 0.20169151 0.01073327
-0.02752504 0.06122654 0.01007123
-0.01452563 0.11886242 0.00714000
-0.01502390 0.10487606 -0.02894458
0.01176769 0.05791859 -0.00393736
0.03319637 0.15190892 -0.02477738
-0.04385557 0.06256970 -0.01543257
-0.02607481 0.21497816 -0.03138423
0.02154253 0.12697808 -0.00670881
-0.01295359 0.13477117 -0.03414228
0.01423704 0.20724879 -0.02485180
-0.02897535 0.12636465 -0.00486119
0.00788729 0.12315138 0.00840706
-0.03834601 0.07510764 -0.00245730
-0.02758366 0.06067662 0.02695644
-0.02606223 0.21385762 -0.02556865
-0.02549720 0.07419655 -0.03930069
0.01396822 0.19768253 0.00486423
-0.02072541 0.08688056 -0.01909845
0.01279565 0.06276756 -0.03962315
-0.01489516 0.19673532 -0.00312872
0.03048692 0.15778723 -0.02566688
0.02908710 0.05831512 0.00994396
0.03340597 0.07846272 -0.00317193
-0.00770878 0.07082168 0.03057093
-0.01423520 0.07200499 0.03114590
-0.03356566 0.15576847 -0.02058711
-0.04462576 0.06242889 -0.00467560
-0.01368077 0.07821192 -0.00232520
0.00737259 0.11684576 0.00398899
-0.02592233 0.12677804 -0.00244548
-0.01499162 0.12717962 0.00787998
0.00805726 0.19192287 0.00258948
-0.02959336 0.09737886 0.00122157
0.00846139 0.24622220 -0.01511361
-0.00753856 0.07979920 0.02510683
-0.03857739 0.08284658 0.00298516
0.00110153 0.10177018 0.00452093
-0.02061717 0.14405470 0.00327536
0.03065194 0.15238470 -0.00201260
-0.02915734 0.11166906 -0.02356379
-0.02336294 0.22937831 -0.03205201
0.01948269 0.05176255 0.01285784
-0.01621331 0.08762237 -0.02166587
-0.00252215 0.09914342 0.00683345
0.00725146 0.10381584 -0.03364798
-0.02734933 0.07794157 -0.00414564
-0.01894599 0.14349316 0.00666490
-0.02647353 0.12224470 -0.01550895
-0.01339335 0.08111166 -0.00838426
0.01607656 0.11325474 -0.03180739
-0.02686649 0.14950258 -0.00809702
0.00946056 0.09125364 -0.02758579
-0.02994407 0.09367204 -0.01547491
-0.00443009 0.06032968 -0.01188258
-0.02556708 0.12306373 -0.00292673
0.00196124 0.14350197 0.01872661
-0.03213160 0.05528537 -0.03652700
-0.01346193 0.22214240 -0.02916084
0.03161992 0.18830986 -0.01216874
0.00465309 0.09312591 -0.03407814
-0.03196382 0.07798292 -0.03123013
0.00052845 0.14076139 0.01874759
0.03338565 0.06512339 -0.01137214
-0.01158894 0.15206581 0.01636928
-0.01737367 0.11699855 0.00185498
0.00885535 0.06860138 -0.04130638
-0.02737999 0.12307627 -0.01324429
0.03011886 0.06310889 0.00447277
0.01306514 0.08075930 0.01178144
0.02513938 0.19582540 -0.00795154
-0.03239856 0.07297355 0.01635926
-0.00303922 0.16391565 -0.03307863
0.00009621 0.16111626 0.01985601
0.00830194 0.21446806 -0.02363766
-0.02567582 0.13781355 -0.00524782
0.01856824 0.16994289 0.00477412
-0.03847700 0.05939432 -0.00825897
-0.04173714 0.07768388 -0.00771644
0.01415093 0.19322577 -0.00016124
0.02328094 0.13982512 -0.02847031
0.02557620 0.05679632 -0.00057043
0.00413156 0.16338407 0.02000283
0.03119550 0.08391612 -0.00691696
0.03195099 0.24585351 -0.01836827
-0.01270834 0.09235624 -0.00102407
0.02991221 0.16144753 -0.02333894
-0.00950569 0.06000389 -0.02506093
0.01110379 0.08224557 -0.01544880
-0.01112179 0.17996362 0.01058935
-0.03888033 0.05745556 0.01153313
0.01306296 0.13885812 0.01160106
0.03615933 0.17526032 -0.00921991
-0.01901548 0.08540680 -0.03684104
0.00055251 0.07458574 -0.04225842
0.03008342 0.17721322 -0.01308176
0.03206930 0.17809063 -0.03228871
-0.04165875 0.05686701 0.01338989
-0.02035431 0.08972956 -0.00133015
-0.01944385 0.12644543 0.00032531
-0.02517330 0.09528739 -0.02823384
0.00129074 0.22079825 0.00185570
0.02770513 0.14183778 -0.00219069
-0.01326198 0.18382233 -0.00256426
-0.01980600 0.06286599 -0.03094000
0.02794193 0.23934153 -0.02991398
-0.02099478 0.15181281 0.00575493
-0.01842555 0.05800872 -0.03556276
-0.03238953 0.14977300 -0.01527540
-0.03162555 0.18628182 -0.01894878
0.02802752 0.14753705 -0.00129591
0.02719380 0.08106273 -0.00973912
0.01843021 0.05940363 -0.01622209
0.03079994 0.05041867 0.00348216
-0.00519500 0.09372689 -0.03172885
-0.02321896 0.09709738 -0.03140825
0.01791847 0.11964127 -0.00537166
-0.03286555 0.18718505 -0.01744757
-0.03085237 0.13409886 -0.01154031
0.02320617 0.14289449 -0.03002687
0.02347493 0.13554791 -0.00043345
0.01060156 0.09320281 -0.01244660
0.00578665 0.09545846 -0.01279082
0.02531447 0.17109150 -0.01243120
-0.02007703 0.22831845 -0.01911344
0.00807857 0.12067247 -0.03679151
0.00548893 0.07759823 0.00626561
-0.04885028 0.06537906 0.00194426
0.02573131 0.06824790 -0.02745518
-0.02345564 0.10416317 -0.02488763
-0.01845226 0.17423585 0.00212202
-0.00318456 0.10570967 -0.03631253
-0.01483883 0.17453063 -0.01688488
-0.01991343 0.19905229 -0.03090175
-0.01488544 0.12192167 0.01220614
0.01639070 0.21700510 -0.01714441
-0.03039364 0.08263296 -0.00842310
-0.01754114 0.20557070 -0.03207587
-0.02279557 0.06082616 -0.04037166
-0.02455886 0.06296267 -0.02083362
-0.01545029 0.11258060 0.00815604
-0.03832578 0.07033498 -0.01900051
0.01178856 0.10341321 -0.02925318
-0.02196720 0.08192423 0.01442876
-0.00542166 0.05672038 0.02866503
-0.00634922 0.23915482 -0.01098992
0.02874022 0.13845634 -0.01038055
0.03167570 0.17632456 -0.00086656
0.02870576 0.17603904 -0.01696231
0.02146755 0.23840252 -0.02041247
-0.02752357 0.06172269 0.01432539
0.01956131 0.14551765 0.00874963
-0.04315425 0.06424842 -0.02214044
-0.00944197 0.12262480 0.00547181
0.00189860 0.09387161 0.00573873
-0.03372006 0.09802711 -0.00189875
-0.01757617 0.10489566 -0.00170114
-0.02481645 0.09499288 -0.02935211
0.02619311 0.05760958 -0.02193976
-0.02995248 0.13244535 -0.01023207
0.00790224 0.14335045 0.01634874
0.02188205 0.13470396 0.00128328
0.03701251 0.06611283 -0.01612271
-0.01814937 0.10791758 0.00308909
0.03024919 0.21147981 -0.01402930
-0.03617166 0.14188200 -0.01576984
-0.04514366 0.06850535 -0.01342888
-0.01081807 0.06189982 -0.00042038
-0.00967322 0.08033830 -0.04774614
-0.03257058 0.05149792 0.01706260
0.01486438 0.07725006 -0.02950246
-0.00115307 0.09998204 -0.03587913
0.01264611 0.09214453 -0.03045382
-0.01810763 0.09827070 -0.00178036
0.02116360 0.05455641 -0.00790943
-0.00772642 0.21642438 -0.01258889
0.03064847 0.21798810 -0.00830590
0.02657575 0.15865284 -0.02666647
-0.00877523 0.07578702 -0.04599112
0.03499278 0.18522452 -0.01530039
-0.03215386 0.11020712 -0.01668241
0.00589560 0.08407345 -0.02515737
-0.03291088 0.09172404 -0.01111315
-0.01953448 0.08218861 0.01262644
0.02104028 0.24427742 -0.02118336
0.00804818 0.20765272 -0.02651992
-0.00154887 0.06089127 -0.02524576
0.01664773 0.21929894 -0.01634820
0.01349748 0.20537174 -0.02068184
-0.04506260 0.07133304 -0.01555532
-0.00533335 0.06235477 0.00709492
0.02787835 0.22002542 -0.01499970
0.01261506 0.09855659 -0.00353930
0.02383157 0.06705092 -0.03174360
0.00525929 0.09359979 -0.00836039
-0.00681120 0.24020277 -0.01587686
-0.02590914 0.12516055 -0.00461864
-0.00816277 0.09390501 0.00055713
0.02271879 0.07856914 -0.01004316
0.02238050 0.08119783 -0.02087637
-0.01670470 0.17921758 -0.01731129
-0.02345319 0.14839235 -0.02570931
0.00319546 0.11503930 0.00860121
-0.02064770 0.07808773 -0.04279945
0.00742503 0.10906602 0.00280174
-0.02724382 0.15961498 -0.00333631
-0.02516678 0.17157322 -0.02709368
0.03307065 0.06558317 0.01222268
-0.00994446 0.24394101 -0.01908034
-0.02173706 0.16422454 0.00952303
-0.00501086 0.07612951 0.02901625
-0.02494675 0.18365255 -0.02495862
-0.03879406 0.06346455 -0.03261375
-0.01265827 0.16841280 0.01201599
-0.02339813 0.12132591 -0.00154721
0.02474227 0.08293702 0.01017629
0.00591450 0.11829869 0.01315328
-0.00755458 0.12698115 0.00793987
0.01727548 0.22055435 -0.00352221
0.02505533 0.17919339 -0.03158910
0.02668334 0.10272519 -0.02123256
0.03189626 0.06503672 -0.01925819
0.00927289 0.05901191 0.02318655
-0.00420807 0.17041899 0.01083804
0.03182606 0.06586146 0.00497259
0.02907391 0.07114279 0.01071773
0.00985915 0.08054149 -0.03999960
0.01001779 0.08195768 -0.04276364
-0.02302529 0.06965837 -0.04167069
-0.00126734 0.06554168 -0.01312009
0.01001860 0.24115147 -0.02158741
-0.04140478 0.08016381 0.00833052
-0.02328293 0.05774993 -0.02088035
-0.02447600 0.17954773 -0.01787048
0.00313331 0.06229966 0.01580133
-0.03088383 0.13935497 -0.01118228
0.02363925 0.15669726 -0.02548641
-0.02833466 0.09723045 -0.00426066
-0.03710079 0.09499933 -0.01357483
0.02926392 0.22176413 -0.02337378
-0.01723127 0.06150738 0.01137974
-0.00903638 0.18055840 0.00330206
0.00052841 0.07885719 -0.00754331
-0.01672251 0.22387922 -0.02599532
-0.01494679 0.07722819 -0.02041883
0.03253379 0.23423985 -0.03142413
0.00752844 0.23599783 -0.00721253
0.02554839 0.21980475 -0.03223411
0.00944039 0.23816445 -0.01917176
0.01115228 0.09552383 -0.01200117
0.02485748 0.10902356 -0.01139781
0.01113262 0.10622240 0.00115906
-0.01105823 0.10091160 0.00485803
-0.02981632 0.12816274 -0.01439094
-0.00833873 0.19834265 0.01049176
0.01559750 0.06003916 -0.00385491
-0.00273321 0.12190302 0.00641705
-0.01919779 0.21940762 -0.01431067
0.01590882 0.12198892 0.00336197
-0.00028151 0.14783297 0.02062875
-0.03242631 0.08807863 -0.02178805
0.00469475 0.06347086 -0.03026384
-0.01037872 0.12468553 -0.03205042
-0.03729694 0.13848613 -0.01356887
0.01119394 0.11970374 -0.00135698
0.01972849 0.21841878 -0.01102809
-0.02831766 0.08051332 0.01710739
-0.01529068 0.08098567 0.03182779
-0.02051788 0.17468721 -0.01250451
-0.03070650 0.12004256 -0.02180170
-0.03567795 0.06876110 0.02620665
-0.01823688 0.15377462 -0.02901904
0.00167368 0.13315856 -0.03770451
0.01487252 0.10679647 -0.00711820
-0.02811637 0.08373673 0.00230115
0.03386588 0.08034882 -0.01099619
0.02867450 0.14040181 -0.01365308
0.02498561 0.13829523 -0.02968898
-0.00923354 0.05447292 -0.03426399
-0.01955167 0.10201674 -0.03222049
0.01013247 0.05632958 -0.03155449
0.01499753 0.10123143 -0.01884405
0.00116515 0.24015537 -0.02356171
-0.03428854 0.14283639 -0.01702601
-0.00738962 0.17644922 0.01123339
0.03258955 0.07629760 -0.01398127
-0.00537154 0.06481681 0.03231573
0.00770454 0.23067772 -0.01911310
-0.00421746 0.21750693 -0.01270176
-0.01676136 0.17774837 -0.00083795
-0.02363129 0.16586027 -0.01795465
-0.00432353 0.06360523 -0.01914624
-0.00450538 0.21017385 -0.02296299
0.00118580 0.15195642 0.02126143
-0.01255252 0.15942487 0.01980931
-0.03813587 0.08007418 -0.02158212
-0.02159607 0.06183142 0.01457521
-0.00773121 0.06948618 -0.03888199
-0.04093472 0.07141632 -0.00851180
0.02135723 0.14671093 -0.03201152
0.00592749 0.23684503 -0.01786627
-0.01144605 0.20207545 0.00126138
0.01586018 0.15826553 0.01874505
-0.00112325 0.07437685 -0.04580892
-0.03005103 0.12031171 -0.01864793
-0.02626557 0.15436535 -0.02814599
0.03037374 0.17678231 -0.00375586
0.01651788 0.16681546 0.01222037
-0.00756877 0.11900159 0.00783436
-0.01110905 0.05459505 -0.04572642
0.02096605 0.23975854 -0.01685242
0.01509574 0.09186588 -0.03338401
-0.02117999 0.08837343 -0.03146224
0.03113086 0.21156538 -0.02483407
-0.00015960 0.22092527 -0.00141831
0.02689244 0.24420118 -0.01583130
-0.00747307 0.20632119 -0.03313456
-0.00546985 0.15114228 0.02144517
-0.01132426 0.05835407 -0.00522502
-0.01383480 0.06237476 -0.01057419
0.00568916 0.05908530 0.00899228
-0.00786607 0.21106474 -0.00108883
0.03255848 0.06801306 -0.02902916
0.02085224 0.15374705 -0.02638047
-0.01631386 0.19405358 -0.03020573
0.00935800 0.05756669 0.02399281
-0.02640744 0.15746471 -0.01600249
0.03075068 0.22006485 -0.03255770
0.01841269 0.08679096 -0.00747203
-0.01748876 0.06025448 -0.04604486
-0.04808383 0.06672066 -0.00729906
-0.01631338 0.14877744 -0.03197713
-0.02405997 0.20252329 -0.01159863
-0.00753900 0.20684756 -0.00256864
0.00628335 0.08111713 -0.03384666
-0.01698745 0.13539991 -0.02652121
-0.02810259 0.12916376 -0.00970552
0.01476542 0.09148830 -0.03232162
-0.01533176 0.10620724 0.00299181
-0.00715043 0.19561690 -0.03211340
-0.00629462 0.09956264 0.00217645
-0.02866797 0.13951983 -0.00704433
0.00115900 0.09228459 0.00319625
0.02895780 0.21270983 -0.00919653
-0.01735650 0.22277299 -0.02309295
-0.00539707 0.08004066 0.02226790
0.03291440 0.17366277 -0.01369951
0.02982637 0.20094579 -0.01047520
-0.03280209 0.07457922 -0.02604728
-0.02834680 0.08712539 -0.00116498
-0.03054415 0.13720091 -0.00241504
0.02293932 0.15885276 -0.02538137
0.02116861 0.11909915 -0.02232628
-0.02132806 0.06314501 -0.01341758
-0.03314075 0.05630950 -0.01947637
-0.02266668 0.23689467 -0.02486062
0.02901299 0.13823752 0.00135187
-0.02331413 0.12444288 0.00271332
-0.02374151 0.12082270 -0.02113282
-0.02694249 0.20520130 -0.02536565
0.01136079 0.12906072 -0.03439527
0.02833037 0.05558135 -0.00443841
-0.03843062 0.07802556 -0.02862382
-0.03325971 0.10557135 -0.01473215
-0.01879792 0.24123046 -0.01968478
0.01756512 0.15181945 0.01039451
-0.01120345 0.12637165 -0.03643564
-0.02675966 0.08613945 -0.00608895
0.03024965 0.17014775 -0.02472069
0.01369045 0.18576542 -0.00230387
-0.02749659 0.07407940 -0.03778083
-0.02913688 0.09880589 -0.00296097
0.02536941 0.07524028 -0.03015997
0.00529946 0.24658662 -0.02748664
-0.01791185 0.18697615 0.00109428
-0.04233015 0.06869757 -0.02011930
0.03451020 0.19240335 -0.02514025
-0.01401564 0.16409166 -0.02761105
0.03150804 0.18552963 -0.00164812
0.02226548 0.08234910 0.00232165
-0.00448818 0.24203628 -0.02460769
0.00829724 0.22165447 -0.00145194
0.00763158 0.19788429 -0.02823540
-0.00992411 0.06264970 -0.00528043
-0.02434958 0.22766733 -0.02759031
0.01323250 0.10067765 -0.00017216
-0.00856022 0.06009044 0.03540018
0.00313410 0.10216669 -0.03028304
-0.00881863 0.07976389 0.01711234
-0.01223673 0.05152493 -0.03314179
-0.01769719 0.12864059 0.00082518
-0.01828823 0.23350185 -0.02127934
0.00749740 0.10623214 0.01137477
-0.00485037 0.14611599 -0.03156204
0.02862844 0.18226406 -0.00452009
0.02959879 0.24252136 -0.02742727
-0.01070882 0.08943298 -0.03284551
0.01056523 0.05771638 -0.04297402
0.02588368 0.15613008 0.00362260
-0.03184357 0.05936392 -0.02745006
0.02162671 0.12340288 -0.01057065
0.01078390 0.24736363 -0.01171961
-0.02986847 0.23261613 -0.02315025
0.02362549 0.06886426 0.01971379
-0.01087819 0.10770477 0.00667475
-0.03595665 0.07891092 0.00860950
-0.00120869 0.15640667 -0.03305634
-0.00859213 0.17007880 0.01549827
-0.01111679 0.16742623 -0.02740385
0.00428165 0.11318457 0.00359313
-0.02985546 0.15553494 -0.02026383
0.02840395 0.18483894 -0.00692482
0.00506866 0.12902096 -0.03466482
-0.02060839 0.22178695 -0.02096271
0.02093890 0.22201121 -0.02011540
-0.03106774 0.10100959 -0.02347874
-0.00990369 0.09793352 -0.03311843
0.02436345 0.15008590 -0.02327341
-0.01369666 0.13084516 0.00857695
0.01316956 0.11181557 -0.00135591
0.01994674 0.19120234 -0.00550261
-0.00850498 0.20951638 -0.02995669
0.03112029 0.19298741 -0.00503250
0.02857901 0.20200221 -0.03061138
-0.03443734 0.10887873 -0.00061513
-0.02862293 0.09895419 -0.02452012
-0.03681425 0.08024698 -0.00209370
-0.00401520 0.06229947 0.00136597
-0.01759241 0.08822368 -0.01972316
-0.01614126 0.13848470 0.01072325
0.01606154 0.24191064 -0.02869355
-0.00135089 0.08812004 -0.02717851
0.01661650 0.16332819 -0.02814882
-0.01727029 0.13420607 0.00467372
0.01491761 0.08385389 -0.00707637
-0.03509040 0.05231791 0.02116978
0.02469116 0.16089270 -0.01877414
-0.02191788 0.19160539 -0.01210631
-0.00475749 0.24093421 -0.02356950
-0.02428801 0.19986424 -0.01188431
0.00416268 0.11821875 0.00893640
-0.01132577 0.13204202 -0.03561408
-0.00557483 0.08612619 -0.03537434
0.03100370 0.18792905 -0.02485309
0.02436439 0.10912640 -0.01501386
-0.01459577 0.08444913 -0.03125212
-0.01192369 0.05728399 0.02097247
-0.02314798 0.24113637 -0.01401234
-0.00511769 0.24332508 -0.01080902
-0.03812039 0.06373104 -0.02375167
0.01337316 0.08559746 -0.00438490
0.02096336 0.11831366 -0.00102111
0.00320022 0.12286830 0.00525350
0.03307809 0.21527120 -0.00745959
-0.01131419 0.08960845 -0.03350585
0.00767661 0.09580614 -0.00541046
0.02980822 0.16899222 -0.03013021
0.02245684 0.05908535 -0.03422698
-0.00719484 0.21242593 -0.00824251
-0.03181253 0.08194882 0.00845304
-0.03749821 0.10761385 -0.00044737
0.01233040 0.06401170 0.02882864
-0.02455385 0.09241186 -0.02999179
0.00307091 0.08548678 -0.03024191
-0.03460658 0.05054329 0.00703344
-0.02451354 0.18380663 -0.01291510
0.03004816 0.14494520 -0.01936013
0.01043616 0.10705741 0.00436304
-0.01817014 0.10467197 0.00241061
0.02543871 0.08625748 0.00165091
-0.01746960 0.12312648 0.00314207
0.02879943 0.19497076 -0.01055363
0.00836059 0.05591021 0.01599778
0.01680849 0.18065068 0.00115050
-0.01246689 0.14050737 0.01048115
-0.00934373 0.18167105 0.00561194
0.02019706 0.15454617 0.00603217
-0.01394480 0.21949148 -0.01744416
-0.03962471 0.07003586 -0.02911307
0.01091157 0.17961060 0.00409155
0.03367998 0.20140105 -0.01076172
0.00702167 0.16533355 0.02026483
0.01367902 0.09366900 -0.03164705
-0.01712760 0.11588290 -0.02900970
-0.01061283 0.08979537 -0.01201598
-0.00954469 0.20783797 -0.00792537
-0.00166410 0.14999440 -0.03541294
0.01536520 0.17331499 -0.02592439
0.02600958 0.14380731 0.00062726
0.02807326 0.13977030 -0.00258048
0.03391333 0.18167873 -0.00357951
-0.00228662 0.08011353 0.01882187
-0.02485589 0.17896312 -0.02738780
-0.03009953 0.15040551 -0.00846768
-0.01245293 0.06027098 0.00357278
0.02835918 0.22163495 -0.01547917
0.00787283 0.09486988 -0.02383345
0.00655272 0.14412953 0.01874223
-0.00272051 0.15352586 0.01825046
0.00238644 0.09684283 -0.03037869
-0.01442491 0.08904761 -0.01730102
-0.03548339 0.07061119 0.01405957
0.01253987 0.17692822 0.00931048
0.00588279 0.24180663 -0.02254101
-0.01750399 0.11460036 -0.03332468
-0.03352269 0.16308573 -0.02155313
