0.78058183 -0.17348905 -0.13082847
-0.72827601 0.19321717 0.27046815
0.35130689 0.27012902 -0.73603284
-0.13626216 -0.83642393 0.28598541
-0.85873318 0.26006317 0.02607341
0.51150739 0.08810694 -0.77737188
-0.59372199 -0.35721108 -0.43598416
-0.41859242 -0.38215515 0.61209655
0.74536407 0.04995408 0.21498226
-0.51096165 0.01474280 0.84092844
-0.28106418 0.71332455 0.02909012
0.73155761 0.52253294 -0.12352592
-0.33542249 0.02744405 -0.84571588
-0.55008078 -0.33223292 -0.52545655
0.23152053 -0.72628599 -0.42517430
-0.02033903 0.07416300 -0.84520209
0.82156324 -0.35769847 -0.14393704
-0.38239715 -0.47657621 0.51444292
-0.34369886 0.72837687 -0.02335042
-0.18754558 0.12940796 -0.78788769
0.45139101 -0.37508708 0.53670371
0.57515407 -0.06924943 -0.72501552
-0.78548050 -0.53096527 0.06102610
-0.20687947 -0.06227727 -0.79682934
0.27708122 -0.40824312 0.72973871
0.64919019 0.14614151 0.45887911
0.30068573 0.72873694 0.07364784
0.51735938 -0.19440892 -0.63464391
-0.38708130 -0.69753134 0.12287627
-0.28602710 -0.72029543 -0.39521083
-0.59696925 0.07313231 0.70127511
-0.38667253 -0.32184842 0.67821443
0.63399506 0.07995199 -0.53817058
0.22713722 0.26835164 -0.75960577
-0.62359166 -0.47075382 0.30247915
0.13419195 0.57140332 -0.61091089
0.62117088 -0.23643020 -0.48704979
0.33517972 -0.72603863 0.05259481
0.32549679 0.64612049 -0.37994498
0.27151743 -0.38650337 -0.73577023
-0.40354714 0.22345522 -0.70386267
0.68498909 -0.50779742 -0.22794180
0.78485858 -0.28037530 0.28447074
-0.58665228 -0.05176760 0.71772540
-0.76712394 0.20910391 -0.25467983
-0.37046161 0.28112257 -0.74600065
0.62010813 -0.61163849 0.16741160
-0.47660622 0.37443247 0.54538059
0.60635602 -0.04048978 0.64231646
0.46101937 0.23837371 -0.61931038
-0.79154348 0.55347157 -0.04396389
-0.52267492 0.36796764 0.47179037
-0.76517820 0.00650414 0.22985537
-0.25820175 0.57715392 -0.47838622
0.36796364 -0.09797774 -0.82511914
0.53442574 0.53527951 0.32749957
-0.70605922 0.11894185 0.43543822
0.61855948 -0.38804606 0.41204113
0.82785273 -0.40901357 0.03326372
-0.33970454 0.60592443 0.50148094
-0.25355643 -0.30577195 -0.69971216
-0.12958969 -0.76638633 0.20148893
0.47849330 -0.38046339 -0.46930739
0.85731995 0.33149824 -0.01507319
0.14507800 -0.54867065 0.62486875
-0.50650954 0.63672358 0.23713897
0.06292893 -0.65088356 -0.59139144
-0.07867097 0.81359351 0.08988567
-0.36965334 -0.57038164 -0.39907426
-0.58171284 -0.23782903 0.55315685
-0.52578306 0.22593381 -0.60691106
-0.38862091 0.39716104 0.52724755
0.15583837 0.17776996 0.80589736
-0.47897711 -0.39555848 -0.44601673
-0.41052386 0.71774030 -0.12559904
0.38258934 0.36905938 0.62290287
-0.75273609 0.46858120 0.14561875
-0.25576669 0.03635174 0.83355570
0.47352722 0.67566204 0.15886155
0.18806382 0.10717323 0.82288849
0.03356843 0.60650128 0.64525902
0.48776087 0.23810861 -0.68038249
0.74097073 -0.43640608 0.21340188
-0.84939098 0.23887475 0.00436442
0.80295801 0.49601838 0.07473831
0.33859858 -0.16052692 0.78140640
-0.48717982 0.41590232 0.47663110
-0.16325426 0.73527193 0.47281316
0.75390863 -0.35830238 -0.27120975
0.35815945 -0.10190456 0.80429983
-0.50133586 0.15362832 0.72139764
0.17161597 0.35320857 -0.70268404
-0.66053355 -0.12245684 -0.53432250
-0.48804900 0.63634157 -0.23776592
-0.34251502 -0.34510779 -0.66726863
-0.83023882 -0.56820494 -0.01662147
0.25467461 0.47424456 0.65625930
-0.50009894 -0.62139767 0.05008711
-0.59458196 0.64542633 0.15383691
-0.32868510 -0.73785764 0.17366253
0.51750469 -0.66004848 0.29370114
0.69269860 0.15265630 -0.34800464
0.81610417 0.22419022 0.19753522
-0.13904324 0.78879440 -0.05117429
-0.12034651 -0.14703827 0.78543174
-0.20688541 -0.80321288 0.05620317
0.54661965 0.03097020 0.82039404
-0.07422245 -0.11389268 -0.77070677
0.35765436 -0.68338180 -0.32252413
0.40441909 0.68112743 -0.11285185
0.06078250 -0.80564237 -0.34866837
-0.33650985 0.34231901 -0.70066762
0.12465098 0.05294902 0.84741223
0.81119680 -0.34933338 -0.08139738
0.25417399 0.16878757 -0.76162231
-0.51610553 0.62289011 -0.22885600
0.49225259 -0.59353048 -0.24623652
0.05679696 0.27273053 -0.75879073
0.22209984 -0.49823764 0.69422400
0.39587128 0.52512282 -0.46435750
0.62914956 0.56977069 -0.02882059
0.80218101 -0.23140769 0.05484029
-0.03975849 0.85330331 -0.43872616
-0.73940980 -0.18236810 -0.28136969
-0.02735413 0.84779495 0.44771129
-0.28422543 0.44757363 -0.56459761
0.53601635 0.17256413 0.64528525
0.18304139 -0.80374819 0.26640707
-0.77824759 0.07028971 0.07467809
-0.42383277 0.57864565 0.40379974
-0.67894459 0.57708085 0.05491623
-0.40673462 0.33111003 0.63346970
-0.40222561 0.56284326 -0.45503500
0.52125251 -0.66137177 -0.21918359
0.06104458 -0.38534829 0.70713258
-0.67129517 -0.55014741 0.09542809
0.49430892 -0.49602655 0.42515704
0.35097545 0.70504045 -0.24683414
0.67026269 0.62217742 0.06115954
-0.27927428 -0.76398116 -0.29939187
-0.62840319 0.19136302 -0.56803858
-0.70915711 0.24324986 -0.33710498
-0.25206816 -0.47155842 0.63896346
0.07423291 0.84780627 0.07464986
0.70063376 0.24726035 0.45001745
0.32746658 0.46625534 0.65720820
0.59250414 0.29542494 -0.51798201
0.19410442 0.38558245 0.68930757
-0.17688730 0.19887917 -0.78992438
0.79369664 0.49597281 -0.09013090
0.61677289 -0.34782213 -0.41106609
-0.07233015 -0.85588342 -0.10113983
0.02456592 0.81732917 0.33452615
0.46863392 0.36279583 0.59511864
-0.41083777 -0.72518182 0.01031829
-0.78171313 -0.07395121 -0.15476303
0.56173635 0.58076429 -0.26125613
-0.60597193 -0.29461980 -0.47357765
0.40416825 -0.64361346 0.29216990
0.27904117 -0.75506979 0.08994500
-0.23554060 0.69996178 -0.46500802
0.59780586 -0.41935965 -0.34649494
-0.05335012 0.69236249 0.54808414
0.44559449 -0.35611585 -0.55412114
0.21346596 -0.29796481 -0.72974563
-0.06534423 -0.81673402 0.08956203
-0.70028925 -0.34442621 0.29886317
0.28208739 -0.03633987 0.79621196
0.64956355 -0.54960066 -0.18887317
-0.10394607 -0.45107943 -0.62818480
-0.32140422 -0.55461365 -0.49699345
-0.15211165 -0.77513301 0.54803133
0.15176345 0.81003737 -0.35046917
-0.82482564 0.29582042 0.03758791
0.66248715 0.14162235 -0.54692817
0.26581246 -0.07445968 0.87275815
0.53692532 -0.59791076 0.16237891
-0.26186308 -0.03437560 0.87284660
-0.46748078 0.62662303 -0.24249133
0.20203803 0.21362387 -0.77799273
-0.25268421 -0.73314828 -0.38315392
-0.35652983 -0.58775848 -0.35548282
-0.44952148 0.66849446 -0.29692969
-0.27532241 -0.06719089 -0.82534838
-0.10585089 -0.78841144 0.47645277
0.52094293 0.61875212 0.02878953
-0.85949647 -0.09779143 0.12099509
-0.82792521 -0.11556967 0.13697404
0.12290862 -0.78573751 -0.35071746
-0.05318850 -0.29308879 -0.74640012
0.36774912 -0.48987043 -0.56208205
0.81623614 0.36296174 0.11902484
0.66516161 0.02066670 0.46192637
-0.11299875 0.81588072 -0.38989687
0.71442318 0.23352133 -0.41347381
-0.75419199 0.59105843 -0.03529296
-0.71759140 -0.33247864 -0.27014485
0.22740138 -0.72061503 0.41543761
0.62749195 0.11884821 -0.60786438
-0.18471594 0.77809584 -0.06907158
0.59647977 -0.27996156 0.57317531
0.77454197 -0.43439895 0.18162626
-0.27098203 0.10233541 0.81775963
-0.59976053 0.16619149 0.61835504
-0.43925735 -0.64301294 -0.33240515
0.28458264 0.50138319 -0.62605643
0.02073456 -0.56540132 0.64540827
-0.05360572 -0.44075710 -0.66901541
0.76293576 0.26288792 -0.19876458
-0.26561815 -0.74346972 -0.16851445
0.54025662 0.46416292 0.39975655
0.42183492 0.41374692 0.54073298
0.43426931 -0.67559105 0.28186095
-0.33384588 -0.71019995 -0.00807052
0.30839661 0.74305159 -0.29891145
0.61408639 0.06344118 0.67056286
0.50025702 -0.23148069 0.63305187
0.73530650 0.55618531 -0.14643838
0.39173460 0.04674543 -0.84000599
0.60402501 0.56987685 -0.20941123
0.07242948 0.78291106 0.50204957
-0.28767198 -0.48163664 0.59245086
-0.25783280 0.66988218 -0.42169431
-0.32203317 -0.26673862 0.73853731
0.27607733 0.36299667 -0.69973242
0.29976621 -0.75335723 -0.30509722
-0.62596107 0.40666679 0.31544811
0.43913898 -0.29384735 -0.64736557
-0.65774512 0.19214532 -0.51001894
-0.30368006 -0.56090045 -0.51570463
0.68115449 0.21735413 0.41399735
0.40089428 -0.36244106 0.62764704
-0.08250692 0.26930493 0.72089899
0.27882490 -0.73642910 0.02420290
0.00240948 -0.84163564 -0.46069109
-0.49527660 -0.55338955 -0.32402891
-0.06398257 -0.07513022 0.79081643
0.58271682 0.20899701 -0.62753689
0.65503514 0.36198068 -0.34990510
-0.23745544 -0.72570145 0.32027423
0.57302642 -0.35142851 -0.44951704
0.39707133 -0.32130477 -0.65405476
-0.55529916 0.62155217 -0.05760090
-0.02466633 -0.01034086 0.84770823
0.44569862 0.50636959 -0.40155187
-0.41688871 -0.10104637 -0.82099354
0.68954122 -0.03112575 -0.32941550
0.38940841 -0.59552437 0.36753541
-0.05034465 0.62447798 -0.59103656
-0.35358322 -0.56487697 -0.44369692
-0.08919925 -0.67020446 -0.60327506
-0.48321146 0.52084690 -0.33762181
0.16005996 0.79501176 0.33640301
-0.82948875 -0.18889725 -0.01192400
0.63345158 -0.01458884 0.61425030
-0.18907849 -0.50484693 -0.64541388
-0.67607319 0.39605933 0.27636215
0.21759599 -0.33366704 0.73080730
-0.42427537 0.47202981 0.46935079
-0.64897525 -0.43422499 -0.32755199
-0.30101958 0.19338244 0.76967418
-0.29239297 0.75916392 -0.20515811
0.84389961 -0.32955396 -0.04414187
-0.74129260 -0.28999808 0.35709736
0.70469260 -0.21381661 0.36099532
-0.82167089 -0.14786059 0.01764203
0.06121034 0.82893085 -0.50163257
-0.38922846 -0.74622792 0.00040646
0.80594945 -0.40159690 0.08079090
0.24926949 0.18806900 -0.81493139
0.86316073 0.10068785 -0.05522887
0.25338560 -0.49404380 -0.66235542
-0.14901347 0.79132253 0.29613358
0.16977346 0.28162163 0.77105308
-0.06561585 0.09696124 0.79190791
0.65268123 0.28570232 -0.46236253
0.32462797 -0.46086761 -0.60470724
-0.09066189 -0.05243489 0.82023084
0.67133820 0.60075122 -0.06520569
-0.35565695 0.69775218 -0.09629124
0.18914884 0.25516599 0.77777469
-0.75961173 -0.03185704 0.21375714
0.66323304 -0.36044422 -0.39686027
-0.06831652 0.27592063 0.74583173
0.54300559 -0.34731153 -0.45582706
-0.60942924 -0.06146840 -0.59151006
-0.04876294 -0.22563732 0.75178659
0.27505517 0.09679160 -0.79641688
-0.05279891 -0.80095315 0.20896265
-0.46677658 0.29568809 -0.57356524
-0.25509322 -0.50521731 0.62662995
-0.49687687 0.66742271 -0.01611670
-0.07409845 0.81461692 -0.37715799
-0.00787910 0.62605381 0.61798179
0.11311550 -0.82288808 -0.32883993
0.35772589 0.26253158 0.75346398
-0.04684977 0.85108942 -0.46067652
0.71239054 -0.11318703 0.27733597
0.49722654 0.48163110 -0.38644728
0.11388883 0.50739253 0.64089537
0.28829542 -0.65613514 -0.42032900
0.17382947 -0.54344469 -0.62415540
-0.10496570 -0.78637636 -0.16357525
-0.03150147 0.83880991 -0.29492840
-0.19078074 0.78872293 0.07805882
-0.40860084 0.29666981 0.68801415
-0.27333358 -0.32542270 -0.71340168
-0.45304126 -0.66613460 0.30429453
0.18911645 0.78412318 -0.43319502
-0.65891171 0.01663850 0.48460528
-0.17608972 -0.77060872 -0.09196632
0.82694662 0.37891194 -0.08047313
-0.59750426 -0.63462293 -0.20100677
-0.48070681 0.10782220 0.77671206
0.53310990 0.34640908 0.48072621
0.45548522 0.46945971 -0.44545496
-0.62545526 0.04322719 -0.66736889
0.12100741 0.77388310 -0.38790742
0.72603118 -0.36609939 -0.26110855
-0.63912785 -0.07302179 0.67470419
0.60794282 -0.02923066 -0.57736731
0.31597695 -0.31176415 -0.75173211
0.73042345 -0.55101901 0.12104271
0.64648068 -0.41766071 -0.31820425
0.86376297 -0.06377976 -0.10705265
0.31769848 0.46894452 0.62291420
-0.22471412 -0.17149831 -0.78243494
-0.71488273 -0.34630767 -0.29784411
-0.80715168 0.27212733 0.16168047
-0.81102860 -0.23115234 0.09400860
-0.33359441 -0.37974426 -0.62712848
0.33136621 -0.71858126 0.15578891
0.08383847 0.77907574 0.51378262
0.38254374 -0.46824247 -0.54070950
0.57112801 -0.32070675 0.48962861
0.33275244 0.58816487 -0.38995904
-0.51290643 0.03117762 -0.86059093
0.07937194 0.14993320 0.80446029
-0.35500386 0.72919285 0.33330661
-0.02299012 -0.84864318 -0.06321985
0.54493999 0.56786889 0.22470158
-0.10957325 0.00977467 0.82942963
0.53427708 -0.14309834 -0.72909582
0.07960495 -0.48980930 -0.65783298
-0.74066067 0.29123223 0.38786498
-0.55734599 -0.12182178 0.72114742
0.12876351 0.04571693 0.84064054
-0.76614118 0.54723167 -0.06860299
0.67217636 0.25476295 0.25170594
0.58168864 0.23005411 0.52523303
-0.79128695 0.39252067 -0.06954324
0.56991911 0.59137744 -0.04499181
0.21327350 0.09929980 0.79002225
0.53797412 -0.61615115 0.11040705
-0.28455266 -0.76703066 0.23845087
0.27045456 0.28292093 -0.79212213
-0.59985197 -0.10440295 -0.73399651
0.79334009 0.27728102 -0.02947364
0.48457861 0.39293584 0.50541997
-0.12337076 0.81975234 -0.08217881
-0.37052181 -0.23139352 0.74349141
-0.83924019 -0.51742309 0.01983208
-0.18487503 0.20369482 0.78545475
0.75191617 0.33579156 0.21334080
0.14942414 -0.63085550 0.50396121
0.74448299 -0.46361446 0.26276201
-0.77187824 -0.08908301 -0.23512654
0.04269987 -0.84596187 -0.10000077
-0.14880329 -0.77239639 0.40079588
0.03109363 -0.61843336 0.61928070
-0.33248264 0.37750015 0.70453668
0.39805073 0.48022524 -0.50663042
-0.00431899 0.87290919 -0.01689331
-0.82281184 0.04968756 0.11709060
-0.65097368 -0.13291238 0.49324915
0.29399133 -0.37335339 0.72853160
0.23450023 -0.75642765 -0.00937149
-0.39743841 0.49733943 0.51272810
-0.27577242 -0.57215607 0.51541114
-0.55653453 -0.05371718 -0.75703895
-0.01161982 0.04726270 -0.82666755
-0.19634156 -0.50070924 -0.65399277
-0.46730191 0.27310783 0.60036445
-0.54269326 0.65243965 -0.03645286
0.33146915 -0.74708265 -0.01676588
-0.48403212 -0.02468691 0.81492627
-0.21417226 0.73229098 0.49019378
-0.05615446 -0.71319073 0.58355713
-0.05174516 -0.72272354 -0.60348928
-0.09045994 -0.73623824 0.56501007
-0.40839934 -0.68439549 -0.28844008
0.22709797 0.26910022 0.76817942
-0.14291359 0.66376686 0.55259490
0.49533036 0.32842946 0.57717490
-0.00136336 -0.16692382 -0.78236473
-0.81892705 -0.19996929 0.01896936
-0.55352736 0.64601839 -0.03710642
0.14533195 -0.18124358 -0.78892291
0.82137513 -0.07002262 -0.07103188
-0.05065591 -0.70802748 0.57535100
0.44534057 -0.70133501 0.13826205
0.26424319 0.73257697 0.27055189
-0.42074886 -0.70802408 0.15034144
-0.26094863 0.01127800 -0.82354069
-0.56494510 -0.14087042 -0.62674606
0.76275909 -0.00901313 -0.28117773
0.06165354 0.19571541 -0.78447080
0.86471736 0.11487538 -0.00045326
-0.79572463 -0.26973462 0.06675792
0.34337518 -0.01447698 0.81217456
-0.81121325 0.07453335 -0.10505805
-0.50727212 -0.37537944 0.48796079
-0.13685173 0.02585044 -0.84422016
-0.11976516 -0.44311428 -0.68565273
0.56338823 -0.47991782 0.35230342
-0.45468518 0.51462615 0.44664654
0.57312763 0.63966930 0.13789824
-0.52016675 -0.64998066 0.10917559
0.58982265 -0.24721569 -0.46494836
0.19353922 -0.70784587 -0.47907981
-0.16417558 0.45070025 -0.65206254
-0.45830986 -0.65492851 -0.10915955
0.63461435 0.10206084 0.56244838
-0.67209315 0.08011811 -0.53381801
-0.04785259 0.82851607 0.01136698
-0.20024168 -0.12035364 0.78333426
0.28543419 -0.09472307 -0.82181728
-0.80058479 -0.27906388 -0.15949489
0.32413989 -0.30198583 -0.71275258
0.66941202 0.23630217 -0.47676107
-0.25357357 0.30543670 -0.77485657
-0.23144020 -0.77802098 -0.11884035
-0.64610350 0.59813577 0.01702734
0.33316386 0.61877519 -0.41334769
0.54811430 -0.43941420 -0.35340726
-0.42505819 0.53401196 -0.39634392
-0.82107425 -0.27535474 -0.00618032
-0.07098841 -0.83708531 -0.26500714
0.50756562 0.66009116 0.21388751
-0.03389915 -0.82822615 -0.00810863
0.80707467 0.02687076 -0.17283623
0.27168274 -0.72577298 0.18564515
-0.13575067 0.81257981 -0.40035632
-0.55134952 -0.01563213 -0.73816776
-0.43091026 -0.37160444 0.54496634
-0.26795766 0.12855223 0.81431043
0.74505067 -0.16530448 0.24267861
-0.48805094 0.16325386 -0.72060347
-0.49205571 -0.15825489 -0.78366363
0.53695047 0.63647020 0.11825762
-0.20125459 0.70255226 0.44194105
0.72897172 -0.21343303 -0.23643267
-0.75187063 0.17386961 -0.31438598
0.08069864 -0.75736678 -0.47211197
0.19906034 -0.22257975 0.77294827
0.44858328 -0.60010779 0.32463965
0.51988363 -0.22663042 0.62540412
-0.76841843 0.34713563 0.16020389
0.36182117 -0.52259755 -0.54538989
-0.25906923 0.46091577 -0.58694780
0.68674064 -0.11153217 -0.53505242
-0.33081684 -0.32815078 0.63565207
0.82161057 -0.16550450 -0.02715090
0.60716450 -0.02703540 0.64972448
0.11233471 -0.35959405 -0.66731143
-0.22482960 0.75964832 -0.16745657
-0.23339006 -0.70294100 0.46687013
0.80150676 -0.34257674 -0.04990437
0.37221357 0.09438667 -0.79968274
0.23253810 -0.03727913 -0.83543253
-0.26343533 0.01555586 0.84691358
0.06700114 0.77581716 -0.49045259
0.17960767 0.78750592 0.34924453
-0.11307893 0.76075059 0.17989026
0.30367100 0.28434774 0.72116160
-0.51554704 0.23184848 0.63816905
0.62959456 -0.61828429 0.08605382
0.15232867 -0.79059678 -0.43397266
0.00691235 0.03277973 -0.84756505
-0.74856830 0.37240109 0.22534584
-0.20508495 -0.79189014 0.15362677
0.56518626 -0.12620872 -0.65947032
-0.69439375 0.55779624 -0.04354916
-0.80991876 -0.31181923 -0.03174727
-0.41065425 -0.48785600 -0.46665514
-0.28094956 -0.75617492 -0.01102914
0.25742251 -0.58577991 -0.50098753
0.81181550 0.15209639 -0.10541740
-0.19604149 0.78957951 0.00475181
-0.27117848 -0.70221585 -0.27674681
-0.74394190 -0.54236817 -0.05655415
0.18013053 -0.80921465 -0.05971018
0.80574942 0.21914406 0.08766551
-0.57862520 0.58831978 0.17945237
-0.67141366 0.50703996 -0.21415083
0.01016606 -0.85913181 -0.31860083
-0.11675985 0.11294278 -0.82325935
-0.01508941 0.03734717 -0.84388423
0.45045567 -0.58236933 -0.38510665
0.01410691 -0.40927777 0.66951060
-0.57826972 0.27961850 0.49328294
0.80844486 -0.17636071 -0.05955407
0.69317305 -0.26575089 0.42655060
0.02300580 0.02165437 0.85120308
-0.17695674 0.52763051 0.67854261
-0.71068227 -0.29107442 -0.38333359
0.13453355 -0.05454639 0.80360615
-0.59713256 0.62587631 -0.04978543
0.54230344 0.40502155 -0.42741698
-0.22775115 0.75798130 0.38266709
-0.16231690 0.19139254 -0.75193250
-0.24814865 -0.48219058 -0.66995203
0.50705338 -0.54103351 0.29852730
0.37990630 -0.27641734 0.65281630
0.63226628 0.32091102 0.41601762
0.76127636 -0.20551224 0.19051023
0.14928077 0.18449615 -0.74630761
0.25913990 0.73315549 0.27718255
0.67442501 0.03657582 0.39946586
0.08732213 0.80450994 -0.49629208
-0.85732865 -0.23516586 0.07798156
-0.61996174 -0.14218321 -0.56872272
-0.41801947 0.22894013 0.74688637
-0.26142696 0.77976733 0.27272466
0.20409094 0.26974982 0.75288975
-0.72916126 0.17949797 -0.30637741
-0.32330352 -0.65602422 -0.40555367
-0.14985192 0.80432063 -0.24849115
0.18669219 -0.76033789 0.51150763
0.72791219 -0.31365976 0.27034783
-0.10349890 -0.28024498 0.73055351
-0.24802130 0.77288073 0.22298563
0.57257307 0.15877254 0.66429687
0.06575695 0.84654832 -0.17243595
-0.33838966 -0.11898738 -0.83304417
0.50798726 -0.20610705 0.72580099
-0.80958509 0.15070289 0.09127012
0.85146010 -0.22734490 -0.02566726
0.71198893 0.47520041 -0.20729545
0.03764612 -0.86889231 -0.13814689
0.16628398 0.79968166 0.33978283
0.32924339 -0.46502191 0.63125610
0.85078013 0.14951931 0.00250502
0.42235827 0.40398303 -0.56090689
-0.84069788 -0.05105679 -0.00333273
-0.46703246 -0.34289661 -0.51385748
-0.79210067 0.36657742 0.13817191
0.12981862 -0.82119071 0.42971447
0.31088251 0.13182271 -0.80334437
-0.15305565 0.78656900 0.04640220
-0.12889652 0.81597918 0.35780621
0.52394223 -0.17991513 -0.68831813
-0.72577178 0.55480707 -0.06035683
0.23161091 0.75272661 -0.22498275
-0.13743092 -0.78361934 0.43008229
-0.33006352 -0.27853554 0.72009695
-0.79345036 -0.28089345 -0.04154993
0.03196228 0.10256550 -0.78425133
-0.55080521 0.36347720 -0.46498373
-0.03752632 -0.77271932 0.54510617
-0.26478082 -0.42086658 0.63949716
-0.19123574 -0.11830491 0.78496957
-0.73396349 0.03450810 0.25685903
0.14902385 -0.37391466 -0.66427398
0.66714180 -0.45004147 0.26610473
-0.32981664 -0.35244954 0.69272828
-0.31235763 -0.10271237 0.85493982
0.54725814 0.30185372 -0.55708921
0.56034589 0.23573555 0.55852211
0.35304478 0.70936227 -0.31345597
-0.11224856 -0.53644431 0.62143826
0.16848251 -0.80090135 0.32728365
0.86058331 -0.03279636 0.07096513
0.25736585 -0.10709137 -0.78670788
0.19526270 -0.59497815 -0.56899393
0.16182446 -0.73339838 0.43764070
-0.07291976 0.19344546 0.76713121
-0.39008701 -0.16017576 -0.80225122
-0.27096254 -0.75452101 -0.08166579
-0.11869491 -0.79673702 -0.00382803
-0.11788447 0.67321569 0.57606411
-0.34546557 0.56246179 -0.49736702
-0.73738372 0.12798657 0.33053645
-0.70192099 0.10639983 0.36050496
0.65908980 0.13435918 0.47295114
0.27850646 -0.11667141 -0.82115233
0.35028368 0.71795863 0.20409319
-0.36406472 -0.29159874 -0.76418817
-0.68626881 -0.53490412 -0.11545385
-0.27788991 -0.70629108 0.18169898
0.49308130 0.50818354 -0.32810280
0.45145851 -0.14262612 -0.79896176
0.70529246 -0.12959865 -0.36437368
0.59535480 -0.12800573 0.59009278
0.37612653 0.55634898 -0.43892869
-0.08301414 0.45301348 -0.68824053
0.20322090 0.52032882 -0.66249442
-0.13222693 -0.10728287 -0.80778658
-0.01778290 -0.88139808 0.46912777
-0.09494197 0.74400383 0.54247022
0.68175054 0.55328166 -0.15481119
-0.65392768 0.29069418 -0.38563970
-0.74980557 -0.31609142 -0.11472257
0.27314970 0.49194354 -0.56317425
-0.71174705 0.13682514 -0.39875585
-0.01706318 0.82809174 -0.00447231
-0.74727964 0.09840364 0.21713509
0.22902510 0.80017340 0.11512213
0.40087506 0.62951088 -0.31360874
0.72498822 0.14156738 0.33493760
0.41288090 0.27567160 -0.63093305
-0.05855594 0.82579404 -0.21759948
0.09177724 -0.27457094 0.75335765
-0.05745248 0.43678486 0.65233970
0.02990673 -0.67049646 -0.60139656
-0.21883294 -0.69497877 -0.44481331
-0.01684880 0.85874104 -0.34333602
0.43468779 0.27394402 0.59652233
-0.53788090 0.24442966 0.62989092
-0.52589655 -0.51151389 -0.33622456
-0.31296077 0.12716933 -0.80703104
0.52964616 -0.68714899 -0.08455952
0.17473391 0.43884468 0.68418860
-0.02385868 -0.87217933 -0.03681492
0.73821485 -0.54002935 0.11689385
0.30439010 -0.30789009 0.76144814
-0.08307292 -0.56667638 -0.63889194
0.24853957 0.33222333 -0.70781124
-0.68212295 -0.55192715 0.15002580
0.29043078 -0.54421973 -0.53771186
-0.71929848 0.19021267 -0.32479766
0.56313980 -0.26588657 -0.59055507
0.08405757 -0.28209120 0.75008142
-0.28779244 0.75300175 0.19803661
0.39296988 -0.70496184 -0.18392557
0.06119713 -0.66038960 0.60168266
0.86248147 0.05671011 0.05061175
-0.23381236 -0.50218421 0.66234505
-0.27898216 0.68040568 -0.44866896
-0.16870932 -0.17828371 -0.80129611
-0.39636055 0.71607161 -0.03361602
-0.04814062 0.86046267 0.07349506
0.13749044 0.00053254 -0.81120503
-0.15552403 0.33503729 0.75948286
-0.25431880 0.68692052 -0.39397070
0.21770272 -0.80153507 0.19155203
-0.83462298 -0.10643985 -0.10624084
-0.50525928 0.42815429 -0.45378181
-0.24126586 -0.07092720 -0.85979843
0.70057368 0.24384318 -0.41593024
-0.34372360 0.46498853 -0.54230702
-0.46812785 0.69586939 0.14671414
-0.29949895 -0.75142968 -0.23609473
-0.29523346 0.67730272 -0.24834202
-0.82498920 0.54432219 0.04386003
0.67127168 0.45547691 -0.23544586
-0.80003655 -0.28348511 0.19968873
-0.31594959 -0.65198320 -0.42004478
0.23719591 -0.49938142 -0.61157799
0.02469424 -0.74275476 -0.54255462
0.78592396 -0.48986810 0.08694270
0.38419315 0.54685557 0.45277908
0.46008697 0.26335427 0.75092566
-0.11507124 -0.59403175 0.63128436
0.04030618 -0.39935219 0.69372809
0.51368761 -0.67636847 0.22792353
-0.26490691 0.16384834 0.77495885
0.58912432 0.26866296 0.53942871
-0.59290791 0.02402129 0.66619110
-0.04081026 -0.82450253 0.20141929
-0.44679415 0.43066597 0.52035034
-0.00729082 0.85201228 -0.50318229
0.43444777 -0.28524876 0.69126153
0.29463124 -0.71666044 0.22372049
0.10330216 -0.78680128 0.08745786
-0.42429525 -0.21540810 0.73508000
0.67390895 -0.00701271 0.45543921
0.67181492 -0.58889329 0.03632805
0.64774251 -0.60223514 -0.07370842
-0.29026750 -0.24274476 0.79611123
0.22323400 -0.58628595 0.53495753
0.74165452 0.03290587 -0.19792543
0.06710066 -0.59861946 -0.59661996
-0.36111680 0.40487304 0.61076140
0.51807749 0.62967330 0.05241366
0.79992342 0.05610756 0.14935924
-0.17110121 0.79407430 0.23488317
0.67573285 0.11245133 0.51688766
0.68611515 -0.15467736 0.51153243
-0.82527792 -0.32378107 0.04691619
0.63518918 -0.08983526 0.67631125
-0.76726305 -0.24762529 -0.06973910
-0.72684181 0.20027204 0.32014760
-0.05788990 0.08910749 0.84080148
-0.42023963 -0.55714482 -0.46139696
0.06382295 0.57419693 -0.62022245
-0.26706120 -0.57066691 -0.49995714
-0.08148133 -0.81999630 -0.40655857
0.79524612 0.15393652 -0.01349711
-0.18307559 -0.48192346 0.70550132
-0.61577237 0.50450581 0.30662575
0.17153709 0.40410328 0.67889082
-0.78722441 -0.03832451 0.11494779
0.75451279 -0.44664460 -0.17995499
0.51375568 0.58388293 0.32771286
0.52663887 -0.04593858 0.83220482
-0.38771757 -0.62644285 0.33692852
0.02694475 0.09785854 -0.81722629
-0.65685880 0.47193831 0.23485009
0.19648696 -0.77705663 0.17620330
-0.09278326 0.80658960 -0.13554934
0.29902846 0.21125318 -0.74910104
-0.39203355 0.14108019 0.79949093
-0.78280199 -0.33183345 -0.07905445
0.72270262 -0.11767767 -0.20556329
0.22686432 -0.73122799 -0.38598064
-0.68604398 0.23106223 0.40669140
0.22005317 0.26051813 -0.74393594
0.76802588 0.57792360 0.06165588
-0.16829818 0.29349574 -0.75832939
0.19465449 -0.58267719 0.56233430
-0.56017911 -0.50647789 -0.32472649
-0.01855888 -0.17939481 0.77454782
-0.37184212 -0.45100561 -0.52153862
-0.56177914 -0.62696981 -0.11640298
0.75676155 0.01966725 0.25157949
0.66071856 0.60909998 0.00501632
0.16809244 0.29775217 0.72136545
0.46518263 -0.67298090 -0.23784190
0.74998355 0.12030426 -0.23071542
0.75486195 0.32324475 -0.25045887
0.43922278 -0.58873165 0.32252398
-0.28934211 -0.28043929 0.78656673
-0.59408164 -0.10365653 0.61288238
-0.33872917 0.55612248 -0.47105294
0.12188953 -0.06143623 0.84839284
-0.17576636 0.77425283 0.14609954
-0.51344228 -0.45024651 -0.38446292
-0.27091527 -0.49972078 -0.58443844
0.77272522 -0.52422279 -0.04325762
0.43114406 0.24464910 -0.72254860
-0.45358646 -0.06296717 -0.81493223
0.24891292 0.76800323 0.00412791
-0.47537398 -0.23926547 0.63457584
0.82831562 -0.29544789 0.12925620
0.38038415 0.26949829 -0.66387546
0.52797484 -0.17266390 0.64490736
-0.86151183 -0.54425108 0.02664865
-0.41150326 0.70230693 0.03618358
0.16374363 0.19931556 -0.79764724
-0.70344138 -0.28692272 -0.35426283
-0.10522379 0.02990646 -0.81939626
0.67029619 -0.28489351 -0.44758657
0.50586712 0.49505112 -0.33310112
-0.18278787 -0.72479117 0.46180621
-0.61987984 0.44167611 -0.35810769
0.20370847 0.23972933 -0.75660396
0.26051360 0.70362008 -0.41534182
-0.40234149 -0.61239308 -0.36086112
0.38655213 -0.45648575 0.50941789
0.83707631 0.51151931 0.04588880
0.01928417 0.43978828 -0.72471118
0.44380033 -0.16682528 0.73007417
0.78799558 0.36297733 -0.16832528
-0.61557853 0.53924680 -0.15477960
-0.52498817 0.59696025 0.27011517
0.74469340 0.33403525 0.36494330
-0.38394144 -0.59585309 -0.47432119
0.02697611 -0.64588720 0.65614450
-0.60400248 0.12338428 0.61409271
-0.78639209 0.29929841 -0.18478863
-0.62608588 0.36644721 0.37354222
-0.12992460 -0.52184010 -0.66181803
0.77945638 -0.15774532 0.11623902
-0.55074978 -0.64057243 0.00182379
-0.23311161 0.54983407 0.60284674
-0.28926188 0.57667202 0.53738427
-0.56006813 -0.47468230 -0.36199996
0.81187499 0.28235185 -0.06717316
0.76067042 0.26484159 0.23336481
0.02822066 -0.50577283 -0.68309677
-0.50521588 -0.53069860 0.41604963
-0.61401486 0.02094370 -0.62814212
-0.32404447 0.07636953 -0.78411746
0.63986707 -0.06986682 -0.61435008
-0.12716717 -0.76616770 0.52913129
-0.01282994 0.85140121 0.32861754
-0.23470414 -0.51500940 0.60516298
-0.35691682 -0.11267149 -0.81572628
0.83135736 0.20788531 -0.16378362
-0.55107284 -0.49606624 -0.32185468
-0.56143260 -0.43748528 -0.31674412
-0.11802822 -0.85925901 0.21934731
0.29470193 0.14898199 0.80570459
0.31297380 -0.31602103 0.69745779
0.17065467 -0.80363315 0.19556034
-0.09195092 0.09821776 0.78029740
-0.62100840 -0.60910690 0.16568562
0.77522135 0.19272493 0.16781032
-0.55285072 -0.00007876 -0.76105523
0.44418624 -0.35005876 0.59448862
-0.07095408 0.76930255 -0.54402304
-0.40945217 0.45818776 0.48157048
-0.37050545 -0.18668856 -0.74999368
0.45283258 -0.71730089 -0.14631002
-0.04416712 0.70862299 0.60537112
-0.78570712 0.37834090 0.18740785
0.01034442 -0.77796745 0.56144881
-0.00746342 -0.35302213 -0.70958972
0.26780877 0.76339996 0.09787395
0.44402468 -0.67281651 -0.21616091
-0.55403805 -0.53799158 -0.30112988
0.81529152 -0.23909535 0.04029705
-0.10395558 0.82598424 -0.23601715
0.69082880 0.54568720 0.16005874
0.38294256 -0.72545862 -0.24846488
-0.49329442 0.33837426 0.52929330
0.16903956 -0.68510330 0.54828322
0.13461183 0.79587007 0.47167447
-0.81822479 -0.27947426 0.04481869
0.02283332 0.81860620 -0.41165236
-0.27891234 0.01909946 -0.83302140
-0.40312010 -0.68279791 -0.25250581
0.85435927 -0.04605843 0.00729896
-0.21074452 0.75886655 0.25477010
-0.62751544 -0.52999061 0.22977759
0.44454330 -0.03317938 -0.85904276
-0.13979468 0.76274335 0.45748064
-0.30817294 0.00052525 -0.81292260
0.62116492 0.16040386 -0.61113918
0.10171913 -0.20270185 0.73997605
-0.12249552 0.78183544 -0.13376810
0.67292845 -0.13233498 0.43154278
-0.48132566 0.06276760 -0.78931594
0.07189143 0.17026812 -0.78018999
0.05043970 -0.16485211 0.77471793
0.45792383 0.58568263 0.37755466
0.64303124 0.61053669 0.14460221
0.59427285 0.04319035 0.64260185
0.35224932 0.12392785 -0.80358291
0.79405308 -0.32607445 0.17682736
0.19505747 -0.78260869 -0.34208435
-0.56718719 -0.19117062 0.56179547
-0.15449126 -0.78692764 0.28595513
-0.23471633 0.74913359 0.02497433
-0.22468115 -0.76926446 0.03451446
-0.63999641 -0.43470719 -0.28568602
-0.75249171 0.06451774 -0.21355098
-0.84459078 0.15061961 -0.02253723
0.70726693 -0.21076241 -0.33780658
-0.24770547 0.76662177 -0.21759643
0.26401228 0.67487681 0.37119216
-0.68957007 -0.44637397 -0.23065794
-0.02913033 -0.80600303 -0.37035558
0.20154525 -0.39960781 -0.72800195
0.30809122 0.40813023 -0.69317305
0.58888316 -0.09720256 0.66769326
0.05598856 0.85171753 -0.04713799
0.21537934 0.75607759 -0.46015725
0.35292682 0.42690727 0.68213844
-0.26490891 0.49291715 0.59094739
0.25300062 0.42435813 -0.61958015
0.01265107 0.24437517 -0.76620436
0.32697311 -0.48296353 -0.58871067
-0.57242262 0.01116012 -0.82305729
-0.33421922 -0.08102359 0.85840273
0.50691378 0.63729745 -0.06703771
0.12048630 0.81859845 -0.19306120
-0.31426042 0.27297470 -0.77587461
-0.74554873 -0.42178541 0.16365220
-0.70899844 0.30177778 -0.28873208
0.77459776 -0.40425476 0.15200646
-0.65601695 -0.56378412 0.17634110
0.38081774 -0.09592995 0.80607915
-0.50344169 0.03352445 -0.87190223
-0.72880614 0.07307135 0.28152958
0.56004107 0.63957494 0.21017748
0.39450502 0.68010449 0.33160153
-0.21435009 0.25208679 0.74726248
0.30610570 -0.70611680 0.14754933
0.37538567 -0.19064842 -0.77891576
-0.72538269 -0.33892861 -0.25191954
-0.23637438 0.75893801 0.41020989
0.05219098 0.10066798 -0.82463336
-0.73388398 0.23693365 -0.30432153
0.87058175 -0.23028924 0.03036880
-0.68682373 -0.11511207 0.45237839
0.41690952 -0.05183838 -0.79683757
-0.64249742 -0.15651654 0.62557423
-0.23746845 0.65560472 -0.44909105
-0.69069707 -0.01289202 0.39292535
-0.00399212 -0.41049224 -0.67076290
0.40585673 -0.66941357 0.22520751
0.13357595 0.01547221 -0.85985529
-0.16163830 0.59471762 0.57865036
0.83266985 -0.27524492 -0.11235245
-0.05274876 -0.81634015 0.51012254
0.31544363 -0.00565550 0.80510116
-0.70422530 -0.58298343 -0.03788167
0.25215766 -0.72009552 0.08658252
-0.74694681 0.13531502 -0.36656103
0.86989439 0.25866136 -0.00462339
0.79746532 0.29580027 0.16846044
0.69673491 0.38635981 -0.27558458
0.07287163 -0.80772948 -0.14067204
0.02644447 -0.85520518 0.13320066
-0.22220813 0.47756210 -0.64631486
0.24775136 -0.76439226 0.32220361
0.07677381 -0.30865425 -0.73571813
0.01403343 0.07038610 -0.82692099
-0.63027620 0.62830669 -0.14187011
0.16774099 -0.15577036 0.77554083
0.08442815 -0.79053485 -0.50879526
0.26117730 0.47369969 0.67256832
0.10076525 0.79948211 0.36604363
-0.40781084 0.50772220 0.42781240
-0.51899683 -0.60647172 0.05841692
-0.42103857 -0.30187786 0.66518140
-0.72132540 -0.15025155 -0.27217519
0.16363670 -0.46434966 -0.65507972
0.40079942 -0.69431353 0.16452576
0.08387227 -0.03749702 -0.82735014
0.20616804 -0.11745083 -0.79198110
-0.16042456 -0.32459858 -0.73176241
-0.20269674 -0.14294332 -0.80736041
0.43655780 -0.55794823 -0.43600070
0.74248636 0.00035577 0.30254725
-0.03764341 -0.78871572 -0.55884433
0.53381276 -0.05139974 0.77549040
0.67591238 -0.28368261 0.48235494
0.61647952 -0.11779259 0.68920624
-0.79590321 -0.19243973 -0.11586796
-0.13971353 -0.26159236 -0.75608718
-0.26129255 -0.13462695 0.77712524
-0.63498151 0.09778754 0.59846032
-0.86950767 -0.15342569 -0.04934415
-0.27620074 0.70194000 -0.41814432
-0.16405904 0.74994057 -0.48022375
-0.11690623 0.78264886 -0.26445428
0.69370544 -0.48743436 -0.21874507
0.44637638 0.26377410 -0.63068056
-0.06196528 -0.86193860 0.19634649
0.21537687 -0.00031984 0.85742438
0.62579572 -0.23669644 0.51866996
0.23347344 -0.77888793 -0.38128653
0.48563945 -0.63806731 -0.23619913
0.12079258 -0.65189415 -0.56456661
0.46681872 0.68247384 0.06352903
0.21939276 0.68976927 -0.44887507
0.42903617 -0.41391167 -0.49769232
-0.11143667 0.79480988 -0.06653161
0.45315570 0.19851986 -0.73406589
-0.43740365 -0.42807320 0.50826991
-0.04413458 -0.65419292 0.60251129
-0.62752080 0.37097964 0.34516212
-0.13722846 -0.44083169 -0.67755163
0.05399513 -0.76906621 -0.56360114
-0.77985704 -0.28859711 0.03063408
0.49082080 0.34035474 0.53769684
-0.17569125 0.69626415 0.48822471
-0.28823149 -0.20674202 -0.73520041
-0.54799533 -0.68029803 -0.10425865
0.37063390 -0.57062960 0.42233387
-0.72808242 -0.04761729 -0.35258731
-0.57609606 0.62666351 0.07797273
-0.13449819 0.79952848 -0.39390489
-0.11848824 -0.82096273 0.23671803
0.64299834 -0.19359596 -0.52375412
-0.41686797 0.73382759 0.09154813
0.58883691 -0.31536862 -0.50852704
-0.06748080 -0.60826433 -0.63001192
0.15734144 0.79461145 -0.40583080
0.55999875 0.13275458 -0.67942309
-0.82194471 0.28606254 -0.06935202
0.64292419 0.31488520 -0.47019446
0.75426006 0.03631238 -0.33335251
0.27640480 -0.58108640 -0.51029456
0.01555158 0.36285424 0.69229388
-0.23840268 0.53598911 0.53654361
0.23337872 0.78780848 -0.26118612
0.15365981 0.31157905 -0.74159276
0.26598319 -0.05977161 0.79724729
-0.79782045 -0.20760150 -0.21220981
-0.04768523 0.60632271 0.63029170
0.79343915 0.20994677 0.18819466
-0.85989416 -0.22381975 0.04005715
0.80755901 -0.43900967 -0.10533857
0.71225679 0.43130946 -0.25294766
-0.11988469 0.56761259 0.59804928
0.55033207 0.23348786 0.59269917
-0.43409050 -0.27197418 0.67102599
-0.30060756 0.01654043 -0.82627630
-0.09035144 -0.80828804 0.44047189
-0.02138658 -0.32540888 0.72548246
-0.23406714 0.04662483 0.79524744
0.27462009 0.58981502 0.47531283
-0.86832166 0.19052045 -0.04012655
0.84676921 0.39827865 -0.00803383
0.70917797 0.09198718 -0.33677197
-0.39260158 -0.61893922 0.34952307
-0.56881833 0.45834032 -0.39079231
0.20530121 -0.06693182 -0.84541965
-0.81247997 -0.16080530 0.10891494
-0.64537787 -0.51044142 -0.29351342
-0.04812997 0.83045280 0.10136692
-0.24821872 -0.72010815 0.34803161
0.82889938 0.08621018 0.03035665
-0.46880838 0.52814335 0.42991549
-0.15824564 0.74949932 -0.20796381
0.28875339 -0.59062284 -0.57511687
-0.51375544 0.31439513 -0.57130635
-0.05403505 -0.16207393 -0.77927649
-0.64557874 0.14439747 0.51813257
0.63192916 -0.28655183 -0.49026540
0.19516119 -0.18623680 0.76683807
-0.07234800 0.64554816 -0.57141280
0.56745672 0.63088018 -0.02207077
-0.79131329 0.17224479 -0.23133935
0.13363820 0.23981483 -0.78341174
-0.65843201 -0.13539535 -0.50566673
-0.17197242 -0.80502027 0.16040635
-0.17100967 0.65364975 -0.58872759
0.75118220 -0.00098095 -0.23594643
0.44178340 -0.42300740 -0.42483494
0.42810699 0.31788206 0.59244502
0.05652186 0.83093435 -0.27895707
0.32913455 -0.72203302 0.04692918
0.31615511 -0.61619997 0.39397743
0.44132012 0.27349508 -0.66924226
0.77440834 -0.58967328 0.01606081
0.86709130 -0.41706911 0.02945167
0.78612566 -0.29140410 -0.28779829
0.83986390 0.23978128 -0.02489065
0.75226402 -0.23783226 0.33947459
-0.67227077 -0.49499759 0.17522043
0.00086223 -0.27276066 -0.74005604
0.12684530 0.20435673 0.76240170
-0.61556578 -0.15036920 -0.62374091
-0.35786596 0.19573848 -0.74197984
-0.14934815 -0.57757598 -0.64230299
0.35867921 -0.58182991 0.38862813
0.48056254 -0.19872351 -0.67326450
0.75992370 0.30325982 -0.22551565
-0.23200899 -0.73306268 -0.21904370
-0.62746751 -0.41878557 -0.30348280
0.67007148 -0.25471956 0.33257413
-0.76361191 0.03944310 0.24450041
0.72593939 -0.37692738 -0.26477706
-0.24407922 0.77815831 0.11417626
-0.20601264 0.75378489 -0.11865355
0.07685539 -0.79885775 0.03714139
-0.07642343 0.50050485 0.67210841
-0.25319991 0.49384880 0.64396906
-0.48109525 -0.39930522 0.45385757
0.55506730 0.47002140 -0.39497435
-0.06044152 -0.82306415 -0.06023620
0.37598220 -0.25790709 -0.70926869
0.74717522 -0.58609825 -0.06808700
-0.46724474 0.45435873 -0.47630423
0.76383018 -0.55826628 0.01824434
-0.31122771 0.27234697 -0.73479569
0.17595662 0.79572207 -0.07641336
0.68402731 0.51609558 0.20380318
-0.65654552 0.20067698 0.47601092
-0.01939798 -0.66161901 -0.58966851
-0.79646480 -0.37383205 -0.21844003
-0.72255158 -0.10893019 -0.39451969
-0.06974481 0.82528365 0.00928729
-0.63010120 0.18749011 0.58537900
0.60027218 -0.05352615 -0.69002473
-0.72916520 -0.19847324 0.34362444
0.34806210 -0.57278496 0.41891423
-0.60395575 -0.45181942 -0.31429631
0.02782517 -0.70748192 -0.58374703
-0.12560523 0.42190784 -0.69528937
-0.53729999 0.26422110 0.59531212
0.07754839 -0.43526545 -0.70202887
0.48284489 -0.26458779 -0.63568985
-0.82854640 -0.45671618 0.03520478
0.46530336 0.07408826 0.84458447
-0.58549309 -0.13317218 0.60456955
-0.75885570 -0.11838903 0.28378141
0.67253304 0.51347190 -0.17500354
0.25519493 -0.32851806 -0.74533772
0.13315845 -0.10601619 -0.80930531
-0.21894996 -0.27781144 0.76173985
-0.62792695 0.14645447 0.67369759
0.45852154 -0.35153863 0.58225882
0.29578361 0.42707819 0.60426819
-0.37436295 0.67947698 0.33297029
-0.60725462 -0.17294958 -0.61515450
0.83242440 0.25367597 -0.11342336
-0.25132316 -0.30187503 0.74667525
0.38430592 0.26563147 0.70974326
-0.53309977 -0.36559215 0.46975246
0.23902754 -0.08027318 -0.83450270
0.04779812 0.82300657 -0.28176624
-0.36680940 -0.45066047 -0.52827847
-0.31948107 -0.70480388 0.03169794
0.53094685 0.66152370 0.03591071
0.04505093 -0.86921126 -0.30012807
0.02086081 -0.35443589 -0.72177052
-0.07605384 -0.43123716 0.64259255
-0.04814302 -0.52977908 -0.64724481
0.30395973 -0.02504930 -0.85085249
0.20896089 0.32363153 -0.73203588
-0.16145305 0.26092938 0.73291647
-0.63337803 0.05883281 0.56116617
0.41825262 0.11286659 0.75459218
-0.29769844 0.74533403 0.14446032
0.46213385 0.70052737 -0.24224965
0.44036815 -0.24378768 -0.74176753
0.67726886 -0.27865329 0.48132241
-0.11027265 0.54874510 0.62509203
0.13301373 -0.77693909 -0.15770416
-0.49228802 -0.34040514 -0.59960973
-0.46955493 -0.42334881 0.50664127
-0.67949343 -0.22598960 -0.43107241
0.71005404 0.45035228 0.26981261
-0.79204321 -0.17784931 -0.15777493
0.49599493 0.14201896 0.73469448
-0.79472637 0.21202384 -0.21898413
0.63023317 0.56498414 -0.16157603
-0.21835367 -0.13888159 -0.80502367
0.80890441 0.07529459 -0.08360385
0.36704245 0.68077630 -0.18052454
0.68376398 0.28159973 0.35517031
0.29296279 0.75130892 -0.21548979
-0.55687070 0.34635055 0.42773503
-0.60735726 -0.62208378 -0.06476410
-0.23975112 -0.81176782 -0.10966849
0.43732917 0.27732956 0.61661875
0.79807436 -0.29141891 -0.13128912
-0.00226614 0.75461799 -0.55244517
-0.61038160 -0.40243757 -0.38507435
0.45491409 0.08525506 0.81610441
-0.16416843 0.50561017 -0.67955840
0.30427933 -0.70609611 0.22758134
-0.48475924 -0.25662401 0.62944150
-0.46633235 0.61524314 -0.30323842
-0.71711540 -0.17464794 0.38241768
0.55849528 -0.47883800 0.28531545
0.74199295 -0.40534022 -0.15003972
0.03637117 -0.84277999 -0.56348193
0.46548337 -0.07829305 -0.79510748
0.63653839 -0.27981055 -0.45377141
-0.64518881 -0.09009934 0.49304405
0.56076670 0.56009406 0.22793873
-0.52308869 -0.17859241 -0.65573514
-0.72101879 0.36520737 -0.25272438
-0.33598363 -0.58222115 -0.49782678
-0.62543404 0.20007716 0.57977974
0.44178763 -0.01838475 -0.85382807
-0.17595585 -0.21598108 -0.76408005
-0.77284348 0.24707097 -0.25428629
-0.12156854 -0.83476597 0.41874439
-0.02380324 0.27942842 -0.76020491
0.12726100 0.68134648 0.57829714
0.65346134 -0.53313184 0.20461811
0.46874005 -0.65380156 -0.07991742
-0.25095221 -0.32533237 -0.73690164
-0.49317741 0.66491854 -0.06249906
-0.77226889 -0.14250775 -0.25824249
0.34144196 0.35497257 -0.68640828
0.61875713 0.00135301 0.58015180
-0.79189801 0.36024877 -0.15241621
0.45761707 0.68539256 -0.09520068
-0.17007676 0.80101532 0.29675528
-0.35365412 0.53209829 0.49320519
0.57209718 0.23922125 0.52606010
-0.82653141 -0.15853214 -0.16520754
0.31974041 -0.64658916 0.38663676
0.74292207 0.04018643 0.15312119
-0.24441037 -0.13166295 0.78906107
0.44040349 -0.20641944 -0.76684713
0.79816818 -0.22930108 0.08957861
-0.62799072 0.28642011 -0.47288504
-0.80499136 -0.51556885 0.07202664
0.06795971 0.64134610 0.59443927
-0.06717414 -0.45546630 0.68248808
-0.67820907 -0.00462155 0.39999118
0.32977718 -0.54342484 -0.50112402
-0.60139811 0.19679175 0.60269701
0.76138937 -0.22181901 -0.17372184
-0.80700743 -0.30258408 -0.08692306
0.77031958 0.53598338 -0.12446399
-0.08227388 -0.80649745 -0.31078133
-0.52641869 0.26195043 0.57428205
0.01242639 -0.85967022 -0.24647392
0.48252532 -0.64106905 -0.06206980
0.21199876 0.72045755 -0.46373245
-0.10979774 0.37346679 -0.74132323
-0.06908680 -0.82832813 0.07439233
-0.85436738 0.36923021 0.05156174
-0.74366307 0.31138256 0.27611664
-0.58339691 0.63887382 -0.02927240
-0.10609168 -0.81570238 0.04935036
0.84268188 -0.43029296 -0.08505746
0.76454937 0.35131791 -0.27352992
0.55598652 -0.08216731 -0.70568883
-0.17261152 0.71598679 -0.50930822
-0.00588789 0.81877893 0.14942417
0.08288148 0.80601048 0.00809654
0.24868979 0.13592957 -0.80211699
0.58116484 -0.53358781 0.29017183
0.00513332 0.09665550 -0.78607035
0.17321596 -0.33719087 0.70171714
0.16799738 -0.79516280 -0.38919082
0.43193710 0.04866302 0.83405983
0.43690333 0.37942773 0.54157257
0.65218592 0.60602927 0.09438994
-0.57750809 0.49906781 0.27439162
-0.32562900 0.70224667 0.09554938
0.68384898 -0.59348482 -0.06353530
-0.85350037 0.06878210 -0.05516811
0.72500181 -0.13298437 -0.26861700
0.21493050 0.71047211 0.44176430
-0.26956818 0.74885273 -0.17925775
0.28929207 -0.57019192 -0.54980266
0.16995431 -0.77240109 0.10166750
-0.52270746 -0.40700853 -0.46321902
-0.09677561 0.77392644 0.53421402
0.21994610 0.73625714 -0.24497586
0.52959919 -0.60384464 0.20344689
0.06911697 -0.64154470 0.59281802
0.02256727 0.89565313 -0.36426231
-0.00126073 0.66680723 0.57873714
0.81888521 0.02974016 -0.11964209
-0.22659467 -0.78278279 0.21255946
0.40067250 0.02498179 -0.85310805
-0.06562122 -0.19394897 0.79052365
0.10775290 -0.81791538 0.36130309
-0.23729122 0.77487588 -0.23695226
-0.22111180 -0.27602702 0.74290216
-0.11171164 0.82484239 0.31521040
-0.79955101 -0.15637630 0.06848443
0.19692674 0.45702571 0.65624297
-0.55916953 0.57630503 -0.20697744
0.03304782 -0.76264375 0.55398905
-0.28283942 0.30469310 -0.75969887
-0.59876430 0.07407719 -0.73918378
-0.54343832 0.09258115 -0.81989753
0.43544137 0.65393168 0.23585348
-0.46690693 0.44872460 0.41037723
-0.65413475 -0.11433885 -0.45668149
-0.08644205 -0.81954825 0.08015483
0.67946720 0.18193199 0.38184330
0.75800359 0.04623073 -0.26095331
0.61423755 -0.61107069 0.14014998
0.36723629 -0.66364133 0.33029187
-0.18431972 -0.77135319 -0.50383055
-0.17609692 -0.33145899 -0.71400738
-0.31677443 -0.75434148 -0.19160455
-0.63577092 0.13333942 -0.66689193
0.07848854 0.61721778 -0.62400651
-0.46911547 -0.53259242 0.40946615
-0.44281727 0.60818070 -0.30759504
0.42296690 0.57765448 0.37599352
-0.63967013 -0.16722949 -0.57171452
0.64074039 -0.47959292 -0.28445071
-0.65669084 -0.55140495 0.14075579
-0.38218313 -0.11201815 0.84694934
0.25095579 0.42465213 0.67758322
0.12453869 0.41149145 -0.70738852
0.13905109 0.80719036 0.12818229
-0.61052048 -0.60444576 -0.10053687
-0.01616785 -0.83083767 -0.37768212
-0.80478597 0.05575550 -0.09843130
0.29839236 -0.75648034 -0.25958067
0.11884157 0.77482796 0.59810865
0.79493046 0.12503183 -0.09948724
0.74999464 0.04069541 -0.24878393
0.35448933 0.03878859 -0.82268524
-0.59705472 -0.33085012 0.44978771
0.01212985 0.18212572 0.73070538
0.61565328 -0.05721302 0.52559471
0.55895531 0.15126382 -0.62762749
0.65219641 0.48802584 -0.22147067
0.64903772 -0.62683439 -0.06344792
-0.17261712 -0.03018994 0.84848404
-0.73232925 -0.21246445 -0.24993704
0.61749220 0.57571042 0.14558098
0.64027941 0.51632589 -0.24748772
0.42390054 0.07361316 -0.80827045
-0.72478223 0.24707979 -0.34492719
-0.67805910 -0.08374865 -0.46803209
0.82761645 0.20969938 0.12325346
0.06173648 0.64729345 0.61669981
-0.70485377 -0.09381546 -0.41045690
0.65496027 0.20924863 0.46491057
0.36806819 -0.73769581 0.17521262
-0.21181917 -0.03489704 0.85037959
-0.11037232 -0.76872987 -0.13822417
-0.46189621 -0.61543351 0.28676009
-0.83826470 -0.08288259 -0.13288075
-0.17729492 0.79765397 0.26206636
0.62725520 0.60907435 0.11508443
-0.39834487 0.70709467 0.05351700
0.77803910 0.54835546 -0.12275751
-0.63734293 -0.59876353 0.15430713
0.77704513 -0.28700274 0.13531841
-0.10968215 -0.43103045 -0.65310717
0.61319637 -0.54696107 0.25819930
-0.44468442 -0.22880094 -0.71082902
0.66879237 -0.43035945 0.24272369
-0.58828688 -0.55374402 0.28985944
0.05749555 -0.85403770 -0.51871490
0.25620177 0.76303458 -0.07972938
-0.25466526 0.02393907 0.84021425
-0.40603682 0.27756160 -0.71979678
-0.32625005 0.71306974 -0.32612619
-0.00264261 0.79263234 0.52865696
0.40725839 -0.17604609 0.79608858
0.77779174 0.56446153 -0.04359316
-0.31309119 0.73376209 0.24354886
0.43816686 0.12291474 0.75426161
-0.09342750 0.49001452 0.65942132
0.00139082 0.59832096 0.61910069
-0.10748898 -0.85250127 0.36717534
0.02974381 -0.84965873 0.03908911
-0.39171720 0.67971575 0.30849335
-0.28553334 -0.61924911 0.42020807
-0.22132207 -0.75028008 0.41282979
0.28292730 0.52845538 0.57201564
0.35252726 0.64473093 0.37824211
-0.61747360 -0.26599738 -0.51151896
-0.42972538 -0.17857435 -0.68481386
-0.63347518 -0.03219048 0.43993911
-0.41471320 0.37275994 0.58096254
-0.10787102 -0.79350764 -0.30228329
-0.45613655 -0.67463571 -0.20029370
0.11758102 -0.67716783 0.55656576
-0.42621154 -0.42623693 0.52216578
-0.29050282 0.61478323 -0.46696216
0.77534640 0.38662943 -0.12400087
-0.63029659 0.47341368 0.25689209
-0.03726178 0.71029222 0.55584812
0.32813883 -0.69654155 0.17159346
0.00628772 -0.84621543 0.35769725
-0.31185359 0.72721231 -0.37455603
-0.81405294 0.26401255 0.13652430
0.51305759 -0.44004631 -0.45666066
0.49656394 -0.52176315 -0.35234055
-0.75325561 -0.37519571 0.23282295
0.55718946 0.37567151 0.42081615
0.73447478 0.00694801 -0.29612860
0.44294140 -0.38818991 0.47427151
0.50825560 -0.24740867 -0.65001500
0.00367530 0.26546559 0.76352715
-0.66133857 0.36094427 0.32954255
-0.30522862 -0.10158052 -0.82402754
-0.04666007 -0.19677326 0.77926028
0.22788487 -0.64687949 -0.56142962
-0.40982533 -0.46760911 0.48890650
0.06397802 0.79196155 -0.52600861
-0.03971312 0.21331929 0.76849008
0.28842971 0.70477998 -0.44214046
-0.17004998 -0.14187233 -0.81240571
0.67202115 0.48395658 0.18095811
0.17466471 0.28534350 -0.75541294
-0.07117875 0.14246641 -0.80884767
0.82224250 -0.01335588 -0.01922939
-0.75663066 0.21526875 0.17023589
-0.37409109 0.11118042 -0.83576608
-0.70012224 -0.34895954 -0.36772791
0.78212559 0.37640706 0.18588339
-0.05949197 0.06972134 0.82068348
0.71352327 0.14169788 -0.29643238
-0.38344076 0.72499084 -0.03148125
0.21676163 -0.67452782 -0.45878890
-0.56866312 -0.53856391 0.23907338
-0.55203176 0.28457355 -0.55004370
0.49325225 0.06254322 -0.79361081
-0.28441411 0.38025111 0.65546095
-0.13794830 -0.76089984 -0.36822310
-0.03094672 -0.32440385 -0.74725676
-0.32288945 0.68601465 0.34111544
-0.80084538 -0.43912438 0.08589926
-0.53253663 -0.00801673 0.80084074
-0.60165966 -0.64446408 0.04663071
0.06115813 -0.32399654 -0.71780324
0.73874402 0.37293380 -0.31928158
0.03009240 -0.80632365 0.50209212
0.64545166 -0.49673557 -0.24382298
-0.67945969 0.43137103 0.20133989
0.25074145 0.17781453 0.77394962
0.41810858 0.56530982 0.42388430
-0.87244678 -0.30924812 0.01600565
-0.23176430 0.73282808 -0.01782954
-0.41887155 0.23142044 0.68293691
