18.42831612 7.98589325 15.81188202
9.12909126 -11.71669865 1.39953423
39.18676758 0.10960960 26.68770599
36.08838654 -27.43350983 41.14397049
16.13373566 -32.91448975 34.15053177
0.64902878 -30.78022003 1.47389030
24.48904419 -15.90730953 9.10014153
34.21599579 -25.85299683 19.52808952
-2.04259872 -12.85375309 -2.31390762
27.70084763 -12.56782818 11.70193005
21.62593079 -6.33680916 15.54505062
6.96895123 -18.71204567 -4.58602142
31.58029556 -30.19675446 45.97177505
29.03667450 -36.90137482 16.42874336
18.27462578 -33.88539886 1.00524521
21.81283951 -41.93043518 26.72108650
27.59826469 -10.90082932 16.96043396
10.19257736 -13.31582737 21.11416817
26.35816193 -10.11509514 34.05527878
15.96898079 -6.78679276 21.47014999
-4.89448547 -28.56682968 -1.42217255
38.76118469 -29.02999496 23.78262520
5.03777313 -14.61528111 -0.21105957
-3.34883499 -25.13472557 0.22887230
1.92922974 -30.79590225 15.30354023
3.77572060 -21.88311005 3.61644936
30.70431519 -35.19578934 14.88728333
21.25535774 -26.37953949 3.46025658
33.97390747 10.76613235 35.78395844
12.45497322 -39.60557556 12.42159557
-3.27764893 -35.68511581 7.38794231
16.08281517 -38.20173645 30.47110748
20.08087349 -27.90872192 2.75066376
9.19316101 -35.93035889 25.15511513
6.11014938 -13.36275291 7.07672310
25.64814377 -27.69586945 41.20024109
10.09010220 -37.57195282 25.13166809
15.75994492 -22.61478996 0.36615562
32.42483521 3.67182541 39.61445618
15.38318062 -8.84779358 23.13637543
3.67476654 -22.63265228 2.32583046
14.97787476 -31.30870056 28.83495140
11.78373432 -31.65047836 23.76827431
20.26829529 1.81916428 28.65827179
10.42069912 -34.67577362 -5.39200211
29.78981400 -35.68032837 40.52396393
10.97878075 -40.69508362 24.94873238
45.84972382 -29.64329910 44.24349976
8.04761696 -27.96719170 -1.41683578
15.01890182 -40.38478851 28.67615891
6.08241367 -37.70484161 17.07335854
27.81935883 -2.59456062 34.34388351
25.81067085 -30.01478958 43.86888504
12.09889507 -24.85766411 -3.91935921
44.53873062 1.02001953 39.40550613
30.61558151 -43.52110291 20.59723091
33.23440552 -1.34644794 35.69114304
18.93825150 -40.31729126 33.25432205
-4.47118568 -24.43198395 -2.38595772
-4.40293503 -21.70685959 -2.78359604
38.59750366 -2.44470406 37.98745728
34.09338760 -15.02275658 27.25440788
33.72354126 -13.02323246 40.29733276
31.70841980 -20.02591133 40.37031937
22.82174301 -38.22296143 39.38741302
4.92881584 -30.24121475 16.55336380
19.61219025 -35.65470886 2.32044792
13.32950306 -40.24554443 -0.03292084
26.95950317 10.64007378 22.75344276
38.58047104 -25.31877899 27.56608582
34.56998444 -28.68715286 19.22009659
19.92743683 -3.78470516 23.86320496
40.94569397 -29.15182877 43.20442200
35.59842682 -35.34172058 29.99122238
13.96087265 -25.85594940 17.21282578
41.04266739 -33.36626053 30.12314224
37.75077820 -31.74015236 21.89429665
29.69581223 -36.09159088 34.29832458
19.43829155 -39.57555771 14.99613190
39.17991638 -32.66950989 25.28394318
28.35758400 -9.23250294 15.76012611
-1.41693497 -22.42122269 -9.81545448
16.51714325 -35.92146301 0.82305908
19.89511490 -41.34223175 37.02392197
26.34770393 13.03963852 23.72963905
23.59629059 -32.14892578 43.22498322
28.14556503 4.26207161 15.85358334
13.67576790 -39.02635574 -3.61544609
4.34009171 -37.83830643 14.16730118
37.95772934 -1.27297020 36.15575027
-0.68595695 -29.14959717 10.37629509
23.81617546 -12.18947983 10.48118401
1.08331680 -28.90207291 -4.07770157
3.54880714 -23.65620804 -8.79990578
19.86927414 -25.96832275 38.62740707
13.27602673 -41.02156067 17.08065033
15.35313892 -34.18980408 32.81474686
19.04741287 0.04880905 19.91482353
21.82610512 -27.57255554 12.36654949
1.58800888 -31.08310699 13.80544281
40.15970230 -23.77907944 27.90404320
28.88362885 -22.39779663 14.06852722
35.37686157 -4.12585926 26.03895760
10.89188099 -40.15940475 -2.26429176
27.84976578 0.83141136 15.59258842
0.24810791 -22.12107277 -9.89200020
37.26757050 3.01282883 25.51307678
9.31994629 -35.43496323 -3.22270012
39.11032867 8.27431870 42.56772614
16.32571030 -8.69289398 22.97023010
26.40778923 -23.41287422 39.39594269
38.53044891 -25.90296173 22.67062950
24.77367020 -38.95936584 39.88459778
40.55401230 8.34543800 35.23601532
28.29210854 -26.43437576 14.97324276
17.85201836 -39.59230804 9.34424496
44.18335342 6.85158157 38.83860397
34.65408707 -7.30105209 29.85234833
19.75071335 -7.51104641 30.97567368
34.82302856 -19.04162216 45.41828918
36.23948669 -29.80607605 22.02517509
28.70583153 3.42377472 36.11429596
19.38326836 -41.87062836 23.28563309
17.49493027 -40.13559723 14.62604618
22.77206612 -25.26681137 9.64818764
38.10926056 7.66663742 37.87068176
9.53489971 -41.04753494 5.47603607
9.92556572 -8.99668980 10.26909256
35.19604111 -37.71612549 18.60155678
41.39772415 2.78190231 31.81346893
36.73699951 -37.08477020 20.08204842
2.85336876 -15.05325603 7.70390511
22.06506729 4.14557076 28.67007637
28.47740173 -0.81832314 17.78501892
17.32615471 -38.37965393 5.27715588
24.92355919 -33.35524750 15.76450539
35.06785583 10.02071381 37.07876587
13.28724670 -8.07772636 15.23022461
5.26670456 -34.89074326 19.29029846
13.70226288 -10.49680710 23.59119034
18.48386574 -39.47174835 0.39299965
21.59596634 4.15342903 16.22968102
7.52541065 -24.00087166 -6.20590591
-0.39900208 -24.27483559 -8.20819473
13.33465004 -23.71527672 26.92877960
22.55706787 -6.16204453 17.32942581
31.86836243 -40.88029480 16.54421616
22.63727188 -9.01219749 11.53618240
13.63472366 -27.77201462 21.82771873
32.11760330 -11.09471703 23.99049759
-1.87281609 -14.52662373 -0.76137733
17.07756424 -28.57480240 13.77186012
7.99785995 -25.75946045 -6.28517723
15.55115509 -11.55917358 3.55289459
3.87042046 -20.43555832 -8.03129196
5.92784309 -19.08969879 -1.97465134
13.66298962 -33.21585846 -2.46825600
-1.13465881 -16.37810898 -2.97416878
42.34819794 -32.65298080 23.36099052
14.74761105 -27.78480911 18.64209366
30.94699097 -37.90895844 19.68251801
34.79434204 -32.62075806 19.97871017
16.52083588 -39.72563553 11.74160767
33.65924454 -39.13588715 25.26852036
1.00519943 -27.54667664 -1.13446236
6.94911003 -11.44111633 13.99185371
29.12299156 -34.00830078 34.04861450
21.21437263 -7.20486355 14.24559593
-3.07734680 -16.81339264 -4.26221085
3.11049652 -18.75573730 6.20118618
-1.05602264 -28.39035797 -0.60947990
45.57408142 4.40279388 41.24830627
36.75196075 -9.13800621 33.79486847
49.73419952 -32.01078796 49.54287720
23.91822433 -35.63316345 21.24898529
35.15567017 -26.54929733 43.02193451
45.44352722 -27.80578423 44.58224869
33.04587555 -2.88965511 23.41383171
5.38829231 -25.13702774 18.14641380
35.04205322 -23.66270065 44.30473328
40.88567352 -35.22009659 46.98823547
4.83145332 -19.23731232 17.15693855
19.66297340 -10.77944756 7.58878326
39.53176880 6.88598251 31.31001854
37.02032852 -38.79879761 23.51162338
39.31246948 -24.77998543 31.29071617
35.30737305 -4.37253475 26.33448982
9.60758781 -41.87815857 0.63512039
39.31148529 -3.12929058 33.27676010
36.40909195 -29.09640884 37.41914749
31.94220352 -34.40447235 15.66205025
38.32606506 -19.84157181 30.82789040
23.66969109 7.10751724 15.21723366
2.12167549 -10.78133583 -1.84633446
4.08609009 -18.04616928 3.86420822
19.32618141 -20.63238525 33.42633057
30.59702301 -32.03287506 47.50724792
30.62094116 5.64573097 37.72025299
31.18212128 -24.76261902 15.08191872
23.19370651 -18.62589645 40.53587341
26.00232697 -34.82735825 11.19554234
11.30638790 -14.89323044 -0.98286629
41.29303360 8.13116646 33.37393188
25.97295380 -31.77139854 25.37559319
0.18978119 -25.89951324 8.75223541
3.47536659 -27.61315536 19.20057678
3.34438896 -26.38356400 15.38486862
23.07962036 -20.73622894 36.18115616
-2.27018929 -15.63290119 -2.42479897
4.16806602 -38.66303635 4.55066872
26.24517632 0.47772884 32.02164459
-6.68196869 -24.88978958 -4.89943886
23.76697922 6.48398209 14.25282288
22.41151428 -18.03404236 36.76607513
22.30988312 -37.69061661 16.77045441
18.80042076 -41.38635635 28.49411201
7.83609200 -41.70838165 6.50969887
36.13002777 -30.15876389 36.05853271
8.88827038 -10.81100655 6.98898315
35.91370773 -30.11277390 39.90981293
5.80474091 -27.90628242 16.98115730
8.20257759 -38.76677322 17.94395065
33.46209717 -17.26699638 43.67042542
23.89078712 -33.77225113 43.26123810
33.39475632 -26.38216591 17.75472832
30.95421982 -32.98856354 36.87339020
40.56499863 -16.30206299 34.63556671
10.57536793 -40.38892365 5.76334476
39.44467163 5.33246040 41.22839355
33.73046112 -41.39261246 16.66768074
14.32328033 -27.32953644 19.05371094
14.94790077 -24.49111557 -2.92396164
5.61440468 -39.25713730 4.83068657
27.37258339 -36.09650803 38.24411774
4.57467270 -21.33380127 -3.27857971
32.42507553 -34.99000549 31.70821762
29.14866257 -28.60522079 15.75792503
2.18503571 -40.16805649 5.69616890
0.87994766 -25.15281677 0.96769524
2.77145195 -40.45272827 4.81027985
45.32118225 -31.85913849 52.44760895
43.82903290 0.50786686 36.25194168
11.39431477 -23.15922165 -1.53557014
14.03431797 -40.05716705 -2.79631805
37.03998947 -3.25041199 34.63134384
18.30640984 -37.52237701 3.14877129
3.69825745 -42.36616516 7.58085060
-3.41852379 -15.13175869 -4.42118263
47.83771515 -34.16146851 52.94531250
40.52248383 -25.94550323 42.99684143
-1.79782104 -33.10902786 -0.45429993
34.57282257 -34.94719696 18.37819862
11.22239494 -39.46353912 10.40967464
20.88599396 -22.81520081 35.96373749
3.86244011 -28.35662842 -2.02350998
14.20482445 -7.48493958 17.70307922
28.93808746 9.44101334 34.01243973
44.49800110 -23.74157333 41.56952667
31.93858528 -19.10331726 18.54453087
29.73916626 -7.92554760 18.06700516
39.14287186 -0.16252899 42.95713806
2.91934776 -16.61009216 10.05451202
-2.76400948 -22.67887115 -9.76953125
46.17304230 -29.38044739 45.35208130
36.70134735 -36.40960693 24.19452667
38.83963776 -25.98744774 24.05027580
31.29269791 9.16307449 19.28304100
39.64582825 -22.26931381 44.85034561
16.00104332 -21.82401276 29.11728287
39.34794617 -24.75752258 29.15468216
18.48205185 -1.03849792 20.72814178
15.00148392 -21.34741020 26.24121475
25.52530861 -33.03405380 14.69621277
20.04902458 -21.80878067 36.36977386
45.48875427 -25.59014511 44.59578323
1.44027138 -33.77594757 14.00852585
35.28997040 -26.39271545 42.15109253
38.03527832 -30.31489182 38.28221130
-2.16654587 -20.24983406 0.20927048
27.56129265 2.40873337 32.04912567
21.62820816 -11.33258438 9.04382896
8.59136772 -37.77391052 3.20755959
20.01652908 -13.53476620 32.47491455
10.78946400 -6.36696529 8.52018929
42.20621109 -28.47420502 32.56055069
5.62121105 -33.16848755 17.68410301
42.34897232 -31.76492310 32.40790558
30.14328384 -17.40030670 40.73382568
27.99160957 -11.42178726 14.10053444
6.86629200 -12.30783939 17.95098877
17.97854805 -37.19416809 0.17267036
0.82343292 -13.03963470 -7.46388435
27.22510910 0.31913185 17.12981415
27.30068398 -16.45090103 14.10389519
40.28516388 -16.21988487 33.26704407
19.64737892 5.08573341 15.63229752
24.14897919 -37.59466553 23.13560677
32.94375610 -29.84952164 45.58573914
12.13970661 -31.39282608 0.01667404
-0.31581688 -34.20798492 3.54623985
18.25013351 4.17114067 19.56847382
34.33248138 6.64577293 39.26876068
39.43807220 -23.20587730 41.36898041
16.52190208 7.69837952 15.51069450
3.72821426 -27.57180977 -11.01215935
33.15529251 -3.28277111 23.47287369
10.34112835 -41.94493866 21.33056450
28.54136276 -9.56941414 35.58842087
36.22737885 -0.45138264 38.12610626
37.02704620 -16.75828171 43.33744812
-1.62903976 -38.85445786 3.75986671
49.91862869 -34.16326141 47.49251556
7.98480511 -39.14923096 18.60630798
35.53926849 -15.46341705 26.16965294
15.93462086 -34.86199188 35.34221268
29.03599167 -33.24644852 36.96524048
18.04541206 7.62670135 17.02125549
20.49618530 -33.39220810 38.44429779
39.10136414 -15.35290051 31.51760292
40.14778137 -33.34906006 32.15244675
2.14325142 -40.36679077 6.02488804
32.04266739 -16.59079742 42.58335876
15.38919735 -6.36803341 15.71966171
40.11624908 -23.13750839 28.06486511
29.30801773 8.22394753 30.80073166
45.03521729 -36.53781128 44.86504364
44.25876617 -32.78656006 45.82179260
20.74315834 -40.25131989 15.32202911
2.91149521 -14.08777523 -2.13098907
22.53257751 -37.72426605 26.86446381
4.63245201 -23.48778343 -2.12112999
-2.51364326 -26.36140442 0.45367241
32.30394745 -9.21155643 35.65381241
16.24422455 -31.16160583 -2.03623962
40.93404770 10.65081787 38.21389389
40.59200287 2.47270584 28.96111488
32.03834915 -32.43556976 31.86905670
3.80417061 -30.24351883 14.90135193
23.22217751 -31.12028503 24.41456032
41.22398758 -32.07040024 42.75069427
23.78523254 -27.89604378 18.37417030
26.47825623 -32.96310043 18.38707542
31.39912796 -30.12421036 40.04869843
-0.66965485 -29.40001297 -4.16791344
17.80537796 -1.64062023 18.71480942
32.17453003 5.27412033 38.28601837
16.26929474 -32.68122101 13.42145157
21.14775848 -38.16051483 7.12031269
18.43883133 3.09813309 20.76671791
27.68284607 -2.85104561 17.05557442
20.95470619 -40.95401001 19.07286453
36.52880096 -11.30268955 37.70821381
11.64860535 -32.08602905 14.36763763
-1.18205833 -34.50276184 13.09673595
34.94658661 -26.14324951 42.55593109
27.91335678 5.36528587 14.40958595
27.12894249 -10.54635048 36.69056702
20.76177406 -23.17455292 34.27114487
-0.83545685 -31.78991508 8.44211388
26.66084671 3.24538994 32.44028854
39.67742538 10.23333359 31.25986862
34.19213867 -24.73908234 43.95486450
4.46645355 -41.45453644 5.55516338
24.13275337 -32.23550034 43.64219666
46.81061554 -36.65503693 46.30997849
5.89055920 -23.46652985 -5.00003815
30.47544098 -38.43842316 24.75756645
11.30480957 -30.81529999 15.68628883
8.18640423 -10.09474850 11.06607056
20.29326248 -26.68190765 17.40064812
32.77095413 12.92797852 25.35175323
10.72628212 -40.92994690 -1.80448723
41.07672119 -23.39023781 35.84293747
26.43860435 -14.09039021 10.49147511
9.11475086 -25.22675323 19.85950089
22.72215080 -23.11398125 7.54384041
2.25572586 -19.05008316 11.69982529
27.09981728 -2.89857388 32.93055344
33.11035156 -16.58048820 18.70676231
26.28330612 -34.37924957 46.31684875
20.52080536 -3.47995281 23.52006721
-1.87026787 -20.12807846 -8.27979279
31.70201683 -32.91887665 18.00709152
0.50702286 -34.05204010 14.04676056
20.09659767 -40.67618942 7.24656296
17.56795311 -29.46181107 36.98881531
17.68152046 -11.72411633 6.35249043
24.02422333 -40.21073914 12.67144108
26.81456184 -5.61348724 30.71798134
38.08841324 8.59012794 37.70707703
23.77577591 -39.31514740 8.89231777
49.66918182 -38.79169464 47.59722137
19.63434982 -21.28334808 35.39493179
14.59948444 -27.81129265 -0.80437279
28.60456467 -0.89615440 17.47514725
21.82983208 -23.88705063 6.14280415
13.11821175 -34.29660034 15.07468510
-5.48347473 -22.51509285 -0.95195198
0.61566925 -39.49977112 10.48142242
2.75311852 -27.01269531 16.22952271
24.21079063 -2.21527481 17.60234833
27.14852142 -19.09693336 40.19475555
8.67524719 -32.95397949 -2.13240433
33.29581451 -32.03506470 30.92423058
14.18916225 -41.27275085 3.70148468
39.85476685 -2.22272587 39.29909134
15.04075241 -28.55605316 18.21229172
20.70437050 -36.96106339 38.88062286
20.06728745 -41.77846527 23.92339325
6.48224640 -25.77961731 -7.24530983
37.45404053 2.01773643 42.23576355
-5.20294762 -17.93050575 -2.81579590
26.50882721 -9.14245987 17.19741631
8.74260998 -11.23668861 14.47042274
44.85939789 -39.42073822 45.88658142
24.12166595 0.42774868 16.00536728
17.38256454 -27.10307312 20.99756813
6.78227139 -38.50778961 16.13405609
16.86408997 -35.72592926 -1.55122375
14.25085545 -33.26322174 -1.99184227
33.17834091 0.38311768 19.77332306
29.07994652 8.35507202 33.45136642
28.76008034 -34.03088760 47.34107971
20.97533798 -31.34473610 40.38540268
24.83703995 2.34776115 29.98184013
29.65510368 6.71902275 32.59411621
28.06447411 -24.97844315 13.78203392
28.68132973 -30.04425049 16.95948792
1.30665588 -31.57590866 12.00893021
19.76995850 -17.83733368 1.11597061
-3.19412994 -21.80718231 -8.93744278
15.73210907 -28.14674377 25.64927292
11.14532852 -17.40428352 -1.04111290
30.12698746 -5.52356339 20.01859856
26.11889648 9.49616623 28.63962555
20.36031342 -27.84922409 11.50415325
31.39959145 -41.77120209 19.19834900
17.78717232 -31.20862198 21.28421783
38.33586502 -30.61797905 36.70079803
45.23625183 -33.37140656 50.66041946
2.44075394 -41.92065430 11.09264469
14.48530674 -35.33457947 28.51288605
41.99581909 -26.96475601 44.21488953
38.57786560 -34.09893799 28.82644653
27.27375412 -8.12698746 33.37108231
1.31800652 -21.39360619 6.87465382
40.70966339 -1.15650177 39.78969193
1.45055771 -26.66137695 2.54923630
33.72563171 -18.02581787 21.38918877
13.73984432 -25.27763367 -1.85279083
36.71863556 -31.19112396 20.39148712
23.87286568 -33.79399109 42.16706085
36.03428650 -40.77126312 23.94374847
17.55831718 -28.41222382 31.58657074
23.92090988 9.21529579 26.46548080
9.58341026 -38.63769531 -1.76326370
35.77552032 -1.32980347 37.01369858
21.91146851 -25.48697662 11.41552830
17.90187073 -30.45131683 22.38152504
14.97838020 -34.18485641 -1.59830475
33.80680847 12.33232117 28.30052185
19.41013718 5.13609505 25.93579674
39.35930252 -36.54342651 29.30608749
36.93416977 -17.42027664 24.85983849
32.86273956 -22.47413635 17.49045753
7.85644245 -32.48545837 -1.19910812
25.65861893 -16.00535202 9.06486416
12.03975582 -37.88256454 22.93806648
18.33895493 -4.43257809 22.44173241
4.20732307 -32.12361908 16.10795021
15.90462208 -28.71394348 21.14953613
24.51984406 -1.90553951 30.32880783
32.33005142 -23.31272888 15.66164398
15.79427338 -17.50903320 2.06958008
36.68994904 10.35500717 36.99530792
18.56060410 -7.23655415 12.18989086
30.96097755 7.91112900 35.06132126
21.42050171 -38.99214935 24.05492401
18.88875580 -16.45220566 32.63954163
7.76678848 -28.55897522 -3.80796814
22.01925087 -34.73318481 16.22060585
10.59000683 -13.47115898 20.95287514
3.84062767 -19.13017464 13.90262222
3.47221375 -38.45794678 3.39889336
30.64972115 -17.70195007 16.99318695
31.08843994 2.17763519 20.13096046
24.51165009 -37.02450943 32.24255753
-3.64891243 -20.81292343 -6.10231781
13.29166222 -32.71246338 -0.86471367
33.75049591 -3.00487137 35.18806458
37.24339294 -39.55300903 24.49132919
21.17811584 -18.13610077 34.33282471
27.86985397 -26.50480461 43.01767731
15.08270073 -39.59129333 2.29646492
24.21806335 -19.87461472 6.87391567
36.64882278 -33.15285492 34.54869843
22.18370056 -41.90671158 30.03801346
40.96525955 -31.67760849 24.25424385
2.67107391 -19.35254669 3.94878387
33.29257202 -11.96923351 22.93889236
-0.80865097 -37.99099350 9.24706173
21.43902969 -14.22501183 35.75070572
7.61516857 -29.81621933 -0.90321732
49.34126282 -32.57825851 50.17279816
37.73557281 -0.40714073 38.49862671
32.53332901 -6.85112667 23.12604332
42.32564163 -31.11841965 32.94037628
7.70308399 -11.55913448 1.39632416
33.58383179 -2.06121445 34.44639206
35.38380051 -35.08886719 30.18866730
0.46699715 -37.61061478 2.95942307
13.69178009 -5.54083824 9.35546684
25.25485039 10.67842674 22.17991257
6.02419758 -40.18843079 5.52093220
18.48293114 -23.47180557 0.65990448
1.04914093 -35.05892563 -1.25355911
42.07058716 -32.94510269 47.78215408
24.09458160 4.69069862 14.54568291
14.53923130 -41.85025024 20.72906685
-2.91021156 -25.64882660 0.27915573
6.84929657 -34.56448364 -0.09117317
10.93308353 -35.96700287 24.51637459
29.98184586 -20.33880997 10.74858379
11.08227539 -24.21141815 20.27734375
18.47957611 -39.64275360 4.26786995
20.62347031 -2.82943439 23.76020622
23.77144051 -25.82077408 13.47268867
39.82795334 -13.91450596 41.18624878
35.64886856 6.79892349 42.16798401
3.19003487 -21.11960983 0.45767975
18.65939713 -17.23120308 4.71916008
18.46028519 -36.66719818 2.97321129
9.26520157 -37.47562408 -1.82216072
45.12835312 2.77346802 37.44890594
35.21643829 -1.97759533 40.28702164
26.02882385 5.52853584 19.76331329
10.66536808 -32.06729126 19.57918549
3.34413147 -32.03702927 16.07814598
3.34597206 -32.31748199 3.55640984
19.88768959 -28.69966698 19.09584045
16.12815666 -10.09144688 4.63787651
0.49302864 -27.65872765 -7.34075546
20.32668877 -11.72383308 8.47184849
28.00011444 -12.10553169 37.11965179
15.14397240 -36.60546112 16.23839951
20.26862717 -24.06121063 1.94360161
26.24964905 -15.39432526 8.97219086
22.92966461 8.71115875 17.41359138
21.80592346 -1.73617458 23.05200768
20.02246475 -5.27999496 24.21450233
27.60310936 -2.02957726 34.41854095
8.99011898 -42.07280731 18.21392441
28.12365723 -41.94673157 18.92755508
30.58093262 -0.78499413 21.57929420
27.52862549 -15.00840473 34.37380981
19.51830482 -16.91324043 33.78137589
4.64726639 -20.97470856 -7.99646950
20.95196533 -16.62981224 5.62477779
28.50434303 6.73550606 32.98883820
25.45205307 -37.32579041 44.86290359
27.49275589 -37.69393158 25.82138062
20.20761108 -4.91181374 15.40910912
6.29305267 -12.04476357 12.12792778
21.71760178 7.67211342 18.27150726
26.83383179 -5.27836132 34.47525787
28.97363663 -37.70619965 26.15823936
19.64683533 2.75883865 22.82421112
36.57302094 -12.05978870 28.53181648
25.04899025 -24.03125763 7.06261158
2.00009727 -24.33732605 -9.70237160
23.13975525 -4.19100189 17.69740486
37.95867920 -3.35514355 27.03421021
14.92395973 -28.89960480 20.30555916
32.69442368 -10.53829765 25.40272331
22.05649376 -35.58101654 40.59300232
11.20104027 -9.34182358 8.73460007
33.14979553 -17.85679245 41.63415527
2.09461975 -18.51870346 -0.13319397
25.62010956 10.77067375 22.22830582
10.97853851 -25.95605659 20.97484207
8.58237171 -30.46928406 22.10354424
37.23651123 -29.39392853 40.80912781
45.46144867 -33.46421051 51.37685013
21.63248253 -13.68057919 6.77018070
14.72708511 -28.64173889 -0.88134384
46.25069427 -27.52305984 45.91999817
28.59475136 9.54204369 32.92528152
48.15522385 -34.55964661 44.53030014
32.45680618 -8.97263908 21.21608162
17.53581810 -14.72265625 1.92850494
16.12190247 -10.98700809 24.74941635
35.38932800 0.37342930 40.94199371
27.03650856 -11.31760120 12.64320374
38.38135910 -27.52702332 23.92415810
0.89081001 -22.80981255 8.17706871
11.59477806 -41.04603577 12.27117062
36.89809799 -11.76964760 30.73802567
26.76567841 -36.98772430 38.38743210
38.44651031 -28.61981583 40.09479904
16.70590210 -33.23910522 2.82315826
19.58828545 -27.98373604 11.03376484
33.31056976 -22.59645081 19.33460045
28.28184891 -33.15336609 35.27568436
34.39508057 6.98316193 22.46109772
20.51351547 5.00566101 22.98019028
19.99883842 -24.39706802 4.00274086
44.26677704 -28.43392563 45.98054504
19.55780220 -16.78277779 3.99470139
14.02301216 -39.79538727 11.95928574
44.14387131 -22.06101608 41.74491882
14.53603458 -7.61947536 13.21894455
26.67550468 -34.47029877 29.11827469
-5.62268639 -25.31897736 -3.57635498
5.02725983 -16.92166901 15.36981583
25.99288750 -10.47427082 14.17818069
18.08222771 -38.58370209 10.04828167
2.00808716 -29.72361565 15.48459721
42.57853699 -21.51595879 40.82347488
26.78527451 -33.62505722 17.04039955
23.34617996 -33.77540588 41.57029343
34.67893219 -39.93198013 26.41870880
40.72257614 -0.79216862 34.52051544
18.22423935 -39.45015717 21.26816177
25.65051460 -12.02506828 37.37481689
46.28488159 -25.72282028 44.93380737
12.97532749 -23.13315392 22.07025146
17.44994736 -33.08939362 32.43161011
6.29548454 -14.39610672 -6.25965309
33.93566895 -32.62280273 15.79578114
38.23941803 -1.93202782 34.09865189
22.01385498 -22.06861877 37.17935181
21.38462639 -29.46057892 11.76999283
7.28265572 -22.64195442 18.66793633
8.01495266 -37.23401642 19.36229706
15.25928211 -32.61194611 23.66418839
30.97539902 -37.28511429 30.11202621
39.53924942 -31.56381607 37.37096405
21.88393402 10.40926552 17.60606384
18.70315742 -2.29803658 24.11431122
5.27745438 -42.49420166 7.08073711
18.34266663 -4.09448814 18.35771370
41.63022614 -36.07692719 24.31988144
5.19573784 -16.59560013 14.23192406
39.74135590 -18.56451225 24.64020157
34.51627350 -12.67924500 39.16927338
30.43952179 -24.77539062 14.26961899
11.22321606 -8.47452259 17.31272888
4.34826851 -31.28331947 -4.32006264
39.41982651 -19.98192215 41.85727692
2.22404480 -37.84588623 3.59050751
48.35381699 -38.45425415 47.65549469
31.07597733 2.25961685 19.09548950
32.15512085 -35.92285919 18.35215187
33.67179871 -8.80183029 37.04913712
26.69545746 -5.71672440 31.62575531
4.45632744 -39.06383514 4.35878372
41.46881485 -30.25820923 29.60997391
42.64657593 5.51601791 31.03488541
14.75105667 -29.57736206 11.44139862
20.73465919 -33.41928101 8.14712334
0.71047020 -17.80760384 -9.64599991
24.85522079 -29.97351265 43.83074188
33.93912888 -7.51081324 34.17768097
3.07659912 -25.53009033 15.05902100
-2.44742203 -17.68635178 -8.55839157
28.90328979 -41.22702408 22.57551193
16.25977325 -28.13676071 18.50152397
12.39063835 -6.72371578 11.51496220
30.09494781 -40.05773163 19.26745796
29.58815765 -13.62795353 38.35623169
4.66501808 -35.47396088 -0.59840202
-0.42554855 -29.22010231 2.21297646
21.94782639 -22.56254959 4.02061653
-4.08172035 -16.68034935 -5.18525505
21.81351471 -40.78735352 22.30875206
31.19768906 12.88628197 28.42224503
13.27511311 -39.50816727 25.01402283
41.04286194 -30.82543182 24.21268082
7.39571285 -23.31443787 20.12789536
41.35734558 -19.25808907 42.28896713
13.10147762 -35.07518005 27.98295593
12.39804077 -20.83929634 -2.28766251
6.15042973 -26.06831360 21.47208977
22.94868851 -33.90797806 27.37218094
19.20529175 -38.81167221 30.92691994
39.40500641 -28.51269341 40.38636398
16.83304214 -22.27895355 30.87343216
0.80346680 -40.11606979 7.73787498
13.18492985 -9.92625523 5.71362782
46.75930786 -36.68043518 45.01416779
9.14469337 -38.09278107 0.70883560
16.53803062 -38.41826630 21.92854118
42.48825073 0.84789467 36.47011185
25.44696236 -26.19962120 16.19443893
14.87056255 -25.95571518 -0.67935562
3.06132889 -16.01214600 2.20043564
6.58286285 -18.73368645 -2.91739845
27.34452820 -35.97204590 46.65368271
27.73331833 -32.25072098 38.74731827
37.81524658 -38.27802658 22.80500221
28.35654640 5.06392288 32.61176682
16.13200378 -12.22575855 25.96583557
24.11441994 -37.12283325 43.76264954
22.59703827 -31.80108452 5.49092102
10.16050529 -23.37545013 -3.07092857
29.84282494 -39.21520233 20.57030296
-1.97189331 -40.29973221 7.65082932
27.45454788 -21.38073349 12.03233242
24.74948883 1.84590149 31.20439529
3.04496002 -17.05808640 -7.60749435
33.59480667 -38.32347870 28.22256088
39.21591187 -18.28500366 42.23741150
26.53746414 8.53725243 31.92409706
27.83951759 -31.30049896 46.28141785
14.38636017 -10.13034439 25.86408424
3.51662636 -15.98431492 -2.34818459
34.31688690 3.75241470 41.22154999
33.31339264 -6.39047337 33.89609909
15.36286354 -35.99457169 16.87112427
28.14402962 -24.23487091 14.94708538
23.72550201 -33.90196228 22.71706963
36.68216324 -16.25051880 25.16567230
-2.94896126 -17.51405334 -3.87350845
13.49274921 -40.05292892 29.98848343
17.05452156 -12.41332340 29.63995743
22.86162186 -4.77843952 29.23857498
32.28718185 -42.94858170 15.66067791
18.33887672 -27.74842453 -0.00356865
19.99781609 -23.19960403 3.82386589
17.72443199 -4.93264294 19.61152077
32.31787872 7.72217941 35.97495270
17.97709846 -42.15554810 32.10530472
5.78261566 -39.54644012 4.92391205
22.77077675 -36.13157654 17.67217827
-2.04668808 -35.19399261 5.74983978
21.75668335 -42.53549194 33.03954315
6.56133842 -15.69287014 1.64260674
3.10022545 -26.39495850 -10.25453949
36.42123413 -29.72415352 19.99377441
-4.27533150 -20.31743431 -1.97423744
0.42661476 -32.52539825 3.98552895
29.62961388 -29.91426849 17.04076385
29.79370880 6.98075676 17.62281036
34.87651443 -27.16021729 43.72516632
1.58546638 -35.41900253 13.95028496
3.47892761 -14.30330086 7.93513203
31.43400955 -15.17971134 41.28596497
25.59781265 -21.29618835 8.07604980
18.03078079 -33.75856781 13.45845985
20.78011322 -8.45542145 14.10387611
30.63942909 -5.15093708 20.42681313
12.38396740 -17.66807365 24.28203392
29.51595688 -39.00071335 13.76738930
15.25116348 -40.30436707 29.69410706
37.51401901 -32.69661331 39.23601532
13.73022270 -11.83014393 23.00804138
16.66819191 -25.88136864 24.93372154
12.55773449 -12.31150723 3.84947014
4.66744232 -32.87297821 17.64393234
18.78488541 -1.54726315 23.72069359
20.83326721 8.07157135 14.63315392
43.06105042 6.97287178 38.45408630
22.05965233 -33.15258789 41.00803375
19.09206963 -0.12157154 17.30597496
21.86007118 9.65888023 21.45083618
38.42977905 -5.18152142 30.56877708
9.05360031 -41.69881058 12.00402451
16.83219528 -33.09013748 38.17878723
34.48925400 -25.21140671 43.08780670
28.47202873 -34.15650177 15.00838184
6.56985378 -16.08071709 0.04297066
38.57948303 -30.28702164 42.14485931
20.05040169 -23.27034760 38.90427017
25.96187973 -12.88046932 12.61703587
19.88442421 -24.86761856 31.70178986
29.84672165 -39.41448975 25.26356316
26.13042831 -21.03451157 40.37878036
40.07661438 -37.82764435 25.96328926
38.00765991 11.40285492 37.17280960
21.65073395 -22.72252274 37.39807892
28.38871002 -38.56966782 28.16528702
25.97992897 10.88536835 29.40744400
-6.48597527 -24.52315712 -5.03983879
29.81015587 -41.26815796 23.97225189
14.40694618 -41.64072800 20.50540733
29.42093468 -27.29961014 44.33247757
45.33071136 -28.78676033 40.01343155
43.22115707 -0.79149628 37.41407013
15.75443649 -40.99857712 14.70910263
2.45458794 -16.40497589 -7.07982445
26.90017700 -19.35501099 9.10424328
36.60806274 -28.30048370 40.41816711
33.47911072 -29.44284439 38.62140656
22.07705879 9.59099007 16.77343369
-0.07186508 -32.80323029 10.91704655
23.38769531 -6.18411922 29.91825867
2.96446800 -15.74624062 3.38069916
30.26271248 -15.69583225 39.19139862
43.75498199 -38.21765900 53.25935364
16.64579391 -10.63821602 24.65447235
6.43000507 -12.38362694 -0.10558319
29.91755295 -20.27483940 14.13142586
20.83608818 -3.82558346 24.71202850
36.05223846 -3.75557232 32.32823563
34.44383240 7.82788467 23.18483543
-2.74218750 -16.23727036 -5.62536430
2.58698654 -18.52277756 10.50517845
0.19132042 -35.52899170 12.86729908
12.18916512 -27.95195007 -1.56945419
19.96842957 -21.76906776 33.56358337
5.23664093 -18.57141304 -7.82546997
36.23607635 -37.73258972 21.02633667
9.60583496 -29.79396820 20.43729401
18.94474602 -16.86313820 28.54593658
14.49638557 -8.00210857 26.28101730
7.51628685 -23.95696640 -8.50829124
21.99290657 8.73683357 17.63241386
20.15180969 -17.83297539 4.77898598
6.49932575 -16.34312057 -7.60435104
30.65101624 -33.72760773 41.58681488
22.41102028 -25.01481819 39.24647903
12.16118145 -39.75720978 25.91849518
3.41095161 -20.44104385 -11.00224876
27.54605103 -18.07670784 40.40283203
-3.89723206 -35.09053802 8.34313679
31.10464859 2.90904236 34.92560959
49.78481674 -36.75242615 47.47229767
27.63352966 -28.54771042 45.41567612
21.94671249 -13.00761032 33.63219452
31.79154587 -32.46014786 42.70231628
41.96969986 -25.75131226 34.07319641
19.84599495 -31.77293396 8.93104172
27.47276497 -29.00102806 18.84483719
1.66775513 -18.42354774 9.12507057
44.01927185 -31.86985016 48.97956467
25.46564484 -34.25206757 12.67471123
17.22368622 -13.82330894 4.43159485
-1.09241104 -18.69074631 -9.39073753
18.34723663 -36.64915466 16.71531105
47.02864456 -28.80821037 43.92015839
18.89017105 1.82723999 16.03436089
42.91176605 -32.34020233 47.50531769
-0.66431808 -28.69858170 -2.22021866
9.52300644 -24.49454880 17.07414246
1.38869667 -41.85993195 7.68611050
14.60430622 -35.91757965 29.04242325
-2.05618858 -15.10906219 -7.64124298
33.10875702 10.10496712 33.09664917
31.03540039 7.37000847 37.70186234
26.04567337 -24.09128380 36.98854065
23.61442757 8.41412735 21.87045288
16.07850266 -27.00098228 27.29837608
0.34421349 -31.42179680 -6.20031166
1.87118912 -28.99510384 -3.29682732
41.15127945 -19.41556931 40.48846054
18.62911987 -14.06868076 30.75885391
31.28812218 -42.22097778 19.28622246
39.50772858 -26.82153320 30.15723419
35.12963104 -33.14803314 17.20510864
46.27890778 -26.13662529 38.84126282
36.74388885 -4.26005554 28.92584610
10.03507519 -33.98162079 18.34577560
18.64637566 -41.96894073 27.25240517
25.34052277 -0.99730778 32.38744354
35.63387299 -1.77102661 37.58593369
23.38795471 -36.46675110 3.78808975
41.89805603 3.03636742 30.60684204
21.48636246 -28.65067482 10.49915981
25.67476082 -12.58055782 33.99535751
4.66703224 -15.79924107 4.15745544
17.41568756 -40.58739471 10.50739288
18.57786369 -17.71220016 2.42541885
-1.67719460 -27.22163582 -4.37344933
30.62031555 -35.95018387 34.97768402
22.63327980 -2.13288021 26.26073265
42.27339554 -21.20761871 34.22679138
43.68708420 4.11997604 31.76361275
39.61548615 -29.85945511 41.36882019
0.93903542 -38.41724014 1.17487144
20.94398117 -18.37708855 36.70471191
-1.74425888 -41.53596115 9.78418922
18.16102028 -12.99380875 33.65197754
43.29445648 -29.77459526 48.06739044
41.45191956 3.49928474 41.67104340
1.46488380 -9.51566315 -5.91063690
8.48986912 -16.22521019 -0.15267563
32.72721863 -30.31361580 39.99635315
40.47728729 -18.60103035 28.02553749
29.90917969 -34.22573090 41.38321686
21.77381897 -8.91027546 12.20867920
-2.43571854 -21.16220474 -1.74010086
31.07143784 -16.25798225 41.96763229
13.94280148 -42.66623688 27.46393394
30.72675323 9.67049217 20.12394142
6.42621040 -30.22891998 19.38826180
1.98984909 -19.10233307 -0.02467346
17.50890350 -26.70033646 1.15055084
39.90362167 -17.24351692 41.83657074
37.15335083 -16.68234253 26.97989845
23.51068306 -26.83286667 12.43788338
15.06242752 -33.65206909 13.38927937
26.90257454 11.27497101 29.48917580
24.65154839 12.36620712 27.98785400
0.94284821 -27.99622726 -1.05714798
18.84604836 -33.48651886 1.58384132
36.64368439 -0.48571873 41.07365417
44.65755463 -26.94234085 39.42131042
23.34262848 -6.24676323 31.36706161
11.06444550 -19.19887161 -0.64996338
37.71592712 -10.30279636 37.05750275
15.43882561 -34.61271667 28.47732925
28.51847458 -33.86706161 35.28382492
33.88074875 -6.47999001 23.37838936
4.26274490 -14.34792233 6.97619820
18.35967255 -30.48216629 1.12392616
30.27563858 -18.39935112 42.10839081
22.22535133 -17.57117653 38.17187500
0.17961502 -34.43172455 -0.98634911
22.78306961 -20.33694458 5.95759106
11.62933731 -35.28959656 -3.11327362
18.12911415 -21.06970406 31.70638657
17.90203667 -41.52065277 22.85577583
0.77844048 -38.92238617 9.78495979
36.48808670 -40.07543182 25.17103577
6.94110966 -15.15291977 17.25648499
12.93643093 -28.67051697 -0.93714905
15.72921181 -36.86114502 29.64618683
20.81368637 7.57661057 19.33914566
35.90239716 10.21255684 26.94174385
28.32802010 -33.85713577 36.43257141
18.38670731 -34.22806549 16.31767464
22.88079071 -21.05401802 37.83186722
7.50055313 -12.28256321 0.95505142
13.58734703 -21.54062843 27.30128670
4.28723335 -32.60135651 17.35148811
39.11431885 -25.74309540 30.35781097
24.93942642 -20.13310623 38.25662994
12.23283100 -43.40830994 22.82828140
23.81111336 -39.83746338 18.30829239
31.51010513 -29.30741119 41.89859009
38.40277863 -30.21542931 27.37219048
31.84575081 -37.19012451 28.32503700
5.62121677 -20.78342438 -1.55753517
44.17222595 -36.80088806 52.09787750
0.22190666 -36.93629837 1.80870628
36.69318390 7.74101639 41.26015472
12.81576824 -30.29795074 25.23311424
20.30573273 -18.42621803 35.06351471
26.41484261 -9.83946800 33.11153412
24.08939362 -38.87886810 38.31267548
26.24385071 -16.42537498 9.86258411
37.16539764 5.49316978 41.02140045
15.14693642 -15.64696407 26.71281052
-2.58530998 -19.21587753 -7.15482140
23.97283363 -36.85040283 6.82778263
23.50386047 3.52518463 28.24877548
25.52568817 -39.79186249 43.52891922
-3.88192177 -17.24326706 -6.95964432
14.98986816 -35.25050354 17.25272751
39.32035065 -20.92432022 26.25398445
33.77642822 -23.71128845 19.23065186
3.51644135 -28.94240570 -2.71043396
36.10826874 -2.54699707 36.03040695
29.60836792 -25.81483841 14.66053772
30.07887459 -43.85815430 21.16920090
-2.01516151 -33.49189377 4.98458862
17.27162552 -39.65018845 11.01352596
0.98298073 -24.13571739 -0.04577255
36.39529800 -16.13039017 42.67247009
15.19525623 -17.70685959 -0.03793907
3.10000229 -18.65744972 11.76684952
30.71001816 -6.72155666 22.42244339
30.51430893 -22.54697418 43.27985382
18.27275276 -30.02070618 21.00618172
46.39210892 -39.66384125 51.50621033
26.29146004 -21.69500542 11.99666405
48.46847534 -35.45866394 48.91180420
8.15863514 -22.68852806 18.54133415
27.67950821 -8.20908451 34.84235382
5.27108574 -15.29914951 -1.80151367
4.66362572 -22.77321625 -7.73712540
28.52499771 -40.89020538 21.27205849
15.06071186 -5.54934025 9.34820461
38.36349487 -20.06777573 29.57249832
28.82557297 -34.91325378 45.04016113
26.26696014 -34.37052917 33.53489304
23.00210190 -18.94896698 39.00952148
27.77030182 -35.41975784 45.28027344
38.27300262 6.26279259 42.35357666
19.94702339 -23.16756439 34.30416870
34.08605194 -12.52080822 41.04355240
17.93839073 -5.14789104 22.96830750
25.85920715 -27.19283295 15.39718056
6.74980927 -18.39235878 -1.99244690
36.50007629 6.12578773 25.63216972
0.34322739 -16.18295479 -6.26119804
5.43169403 -35.86347198 15.94715500
31.22597885 -5.04299545 19.65528488
41.43847656 -33.16637421 45.51214600
28.97879791 -26.63195992 16.14479446
44.41189194 -28.42383385 47.87216949
16.69433022 -40.62361526 21.86083412
34.43538284 -9.69725418 26.77194595
26.93653488 -39.08730698 12.55237579
41.51317596 9.37870026 40.80547333
1.05918503 -22.35567093 -1.72436905
33.74549103 -18.18077469 43.49006653
39.08037949 -22.47331238 27.43643761
1.07066536 -24.32191467 13.48989868
34.88455200 -1.98495293 27.32920265
48.89836121 -33.19372559 47.02001190
-0.19455338 -37.74075317 1.11530495
35.31800461 -10.85905266 36.97019196
15.42981625 -34.21191406 -3.32557106
21.56911278 -35.85095596 14.78018856
31.33490372 -41.00937271 15.71728134
10.59434223 -41.57118225 8.83984947
22.91653061 -31.08887863 23.78305244
5.94860554 -36.47368622 2.97160912
22.10849762 -29.38091087 8.14786434
3.78384590 -16.06767273 5.86376953
6.21653175 -32.09338379 17.78986359
20.14982224 -23.78312492 35.86261749
17.22435951 -16.21883965 31.96006393
-2.96371460 -25.39992905 -6.83114052
41.59182739 -34.43888092 32.09164047
18.56254768 -28.44423103 13.04467392
21.63005829 6.12789726 26.38113976
12.89743996 -32.80847168 26.88382912
23.00835991 -31.20203018 6.05654240
30.60001373 -43.71309662 17.01436806
14.05750561 -10.26742744 8.95923805
4.74043083 -15.90767097 2.83779526
1.83269691 -20.50858688 8.49857140
13.09360981 -33.67559052 16.61865616
30.53947258 2.68110275 37.42303848
11.17844391 -10.90921402 15.59864426
22.82638168 -5.31500626 17.77187729
29.52535248 1.58941460 17.65601349
16.11419487 -38.29311371 3.94098091
31.68962479 -40.75476456 17.62061310
2.89671326 -39.46276093 15.94128418
29.40996552 9.89090157 18.96134949
28.52156830 -36.35057068 12.52947140
11.33263874 -32.48712158 25.05920792
24.96385574 -31.79443932 22.32845116
35.89535904 -13.78573990 21.00793076
22.31658745 -41.29928589 16.71929932
18.51911354 -7.77723837 24.91103172
18.90470505 -35.02861023 35.04569244
48.89368820 -35.98280716 51.23157883
37.96268463 9.78195000 32.56077576
7.48906517 -26.64472580 -7.08222961
15.39969635 -42.59379578 24.40854836
23.79666901 -25.60262680 12.83692932
6.89704990 -19.62186623 -1.72695732
41.44660187 -17.30517197 38.09692764
9.80762005 -40.26058960 23.55052567
25.19286346 -35.66912842 8.93494892
16.07456017 -34.54256058 19.46352577
19.13648224 5.43495369 18.62288094
0.79719734 -31.20601463 -2.36807060
22.42574310 -28.67515945 37.06629181
16.94976997 -26.56192780 28.20387268
16.38713074 -21.32987976 29.54120636
20.34085274 -36.66003418 2.96488762
31.38252258 4.59910202 20.67866707
18.85396767 -29.34340668 31.95674896
22.65122795 -34.77960968 24.06042862
-1.65231705 -36.36025238 2.32736206
19.40387917 -40.00021362 20.91756821
40.20921326 -28.11597443 40.30890656
17.74702263 -36.00032806 -0.52866936
35.32202148 -39.44734955 24.51226997
38.56848907 -20.98928070 28.57625961
6.66899586 -37.14199829 19.51388359
15.98378372 -27.52407837 18.16778374
23.18265343 9.12943840 20.86134148
17.28852272 -29.17668533 11.37582493
33.64212418 -11.86961746 38.11187363
34.81559372 -22.41830444 18.84189606
9.76150227 -35.21755219 23.77020836
19.51876450 -41.98313141 30.56244659
8.10741711 -13.82323742 4.54765701
36.31475830 -41.96197891 20.75876236
23.98606873 -14.56999493 36.64165497
6.27808666 -23.31263542 -10.07070732
8.42339897 -33.41864777 2.19966125
24.14760780 -32.23548126 43.80633926
17.45875359 -7.53159952 23.11656952
17.10659409 -27.61976624 30.54497528
20.70995712 2.95855713 25.45868492
13.58288574 -38.29909897 0.49025726
32.27504730 3.50131607 39.70551300
23.92750740 -26.57127762 10.10210609
15.91771030 -4.63854504 12.59378052
33.71415710 -14.64130592 19.52127647
32.42247772 9.43171120 23.52698326
24.57626915 -23.96457291 39.49623871
16.38402557 -36.31847763 32.28971100
18.85305977 -38.73552322 3.14809036
4.61722183 -20.33037949 -1.67776299
21.51624489 -29.76202393 23.56508255
22.04913521 -38.07521439 39.30907440
4.44427681 -23.92380524 19.56345558
33.39490891 6.09415436 24.20134163
39.06236649 -32.91756439 22.76447487
4.06735992 -19.39886665 14.07787132
6.53823757 -39.64606857 18.39395142
23.66524696 -1.59665394 28.98923111
6.21126747 -20.27186584 17.85553741
-6.08828735 -25.59653854 -5.19242287
39.61637878 -12.91423607 33.44750595
-0.46772766 -15.63912582 -1.84215164
48.96392822 -36.83836365 44.48249054
6.06900215 -41.31671906 6.30628204
19.62445068 1.43822479 15.70879936
24.80480385 -37.32947159 22.74240685
39.22198486 -31.59266472 20.96264267
49.13495636 -34.74114227 51.47379303
19.93839455 -6.73357010 26.72410583
12.07303524 -18.48083305 -1.02486992
33.58371735 -0.82094955 36.23500824
21.21074677 -26.21437454 39.39317322
37.23290634 -19.87764359 31.63417816
36.97608185 -12.42824650 28.41689491
17.64390945 -23.54804802 1.81353760
45.61697769 -30.70602798 43.78694153
1.77806473 -24.37246704 -1.47028160
40.96365356 8.35354805 34.62317657
21.69198990 8.35499001 28.62901115
20.02051353 -39.84642792 34.95820999
16.41109467 -39.46127319 28.16542053
-2.74650192 -23.34182358 1.63361359
16.31948471 -26.60033798 27.17299652
-1.58293152 -31.94691467 4.04411888
34.95363235 -22.59515190 44.72106934
17.12581253 -40.35734558 32.20751190
20.39622498 -40.63553619 23.44152451
38.22444916 -10.95798492 33.15218353
44.40910339 -39.86110687 51.83289719
36.06375885 -14.95583916 27.40242386
40.51215744 -22.41266632 44.43743896
38.79653931 -34.30524445 20.71121979
10.62821674 -41.67987823 -3.16864586
46.93115997 -35.95567322 46.38959122
30.86183548 -17.04645157 40.63477325
20.41978264 -13.52950382 33.68214798
24.81565666 -11.41070747 36.57981873
11.70000744 -12.43281651 4.19413376
40.07250977 -20.93369484 43.53736115
22.40818405 -38.97701263 8.47349072
29.30012703 -33.99327087 45.19897461
-4.76410866 -24.15755844 -3.76218033
36.90864563 -1.28674030 40.03259277
35.87004852 -34.20074844 31.19515800
21.48846245 -38.59986496 24.19639587
21.41311264 -39.77523422 29.46291733
4.96071053 -15.06731319 8.91131496
11.67708492 -21.67842102 21.47969437
11.87786674 -39.96841049 24.79417610
39.12032318 0.12449741 40.34902191
34.71946716 -3.29668713 24.85323906
40.16073227 6.18085480 41.77440643
20.66745186 -22.75125504 37.60549927
24.15205193 -18.27753830 7.49964809
39.21237183 7.24482155 30.84067535
32.20363235 1.34168816 37.36808777
42.29085922 5.38311386 36.03819275
41.55385208 -14.51459885 38.41601944
25.74768066 -30.81093979 19.78813934
24.24057770 -25.72186852 39.54771042
46.71392822 -29.43013191 39.57802963
-0.11796761 -24.13574219 4.34040260
18.97545242 2.42536163 18.54173470
21.01768112 -33.89932251 12.22475624
31.23627090 -12.72289944 16.94437408
24.46758270 7.41122246 14.13685226
27.90325546 -29.11919022 44.66058350
20.75126839 -14.58568668 33.03250122
30.44685936 -26.99635887 44.28544617
18.67254066 -3.42033005 14.24209023
42.43685150 2.32165527 28.93303299
19.02495193 -8.20007229 25.98712921
3.08241081 -16.12876511 -1.73156166
22.93368530 6.38926888 27.70625687
3.39657211 -15.12774849 -3.14210510
31.42207718 9.31215668 33.63077545
11.47317791 -20.47566795 26.52932739
31.30002975 -33.38206482 16.35731316
20.34435272 -34.66727448 12.46202278
42.16059494 9.75138283 39.68743896
6.18609905 -18.74369049 -2.41235352
16.27845764 -7.42263746 19.50920486
15.05763626 -37.46153641 -4.31054878
5.09403610 -20.13201523 2.29886055
27.97157097 3.18924141 34.25798416
31.38592911 -13.61437321 17.10950851
19.97739601 1.85443687 19.31905365
38.97084045 -21.92959213 25.41281891
31.98461533 -33.28652191 31.93279457
21.71376419 -39.36455154 10.16090488
37.60656357 -13.13195038 23.62500000
41.96493530 -27.56797218 45.25962830
42.28782272 -25.12966156 37.30382538
39.63867950 -28.35414886 22.34850883
37.31134796 6.41770554 40.26128387
17.69338799 -21.48123169 2.02695847
5.89446449 -14.78835487 4.39076805
25.45506859 -23.90045929 13.00081539
25.94598770 -27.99764252 43.29903793
3.90090370 -11.13562489 0.93253899
7.50349903 -23.79959869 -7.78793335
-3.78222656 -34.82788086 5.07032967
45.61495972 -31.17523575 39.79431152
20.24138641 -35.81352615 2.75160980
32.87344742 -23.97698402 17.84172249
27.18943405 -35.30532837 36.70658875
-0.42430305 -23.49509430 1.81784248
2.75923920 -38.14271545 3.58234215
32.07164001 -8.61506081 24.40322304
20.33485413 9.92273140 15.87854576
41.23261642 -29.88437271 29.67539597
48.55731964 -36.63878250 49.79887390
36.75130844 -2.99266815 27.09544182
42.31608582 5.07035637 34.50720215
2.01984596 -22.92941856 8.56951714
0.14912224 -28.48918152 7.21330357
48.74488068 -36.66391754 50.70550156
41.62270355 -19.73315620 36.78765106
21.39155960 -9.06786156 10.31992245
15.38707352 -23.69952393 1.13850784
33.55628586 -4.20491028 21.30602074
10.48826218 -38.29598236 -3.72729492
34.17817688 -19.74402237 44.43646240
51.21387482 -34.18050385 46.36412811
27.37429428 3.40393639 32.63015747
38.96957779 -24.54628372 29.01667023
32.28079987 11.94641304 28.22735596
26.82654953 -30.64723396 18.54610062
23.80261421 -5.53022385 31.32027435
42.31744766 -0.55707073 38.98426819
28.28267097 -18.83160400 40.61171722
34.97071838 7.86213303 38.98088074
25.24383926 13.15416336 25.62176704
34.09645844 -30.73512650 19.11051559
11.80856705 -32.94857407 25.73411560
32.52209091 -27.16522217 43.09624481
12.76858521 -25.90505219 23.56387329
42.41414642 -25.29959488 33.01558685
29.78606224 -17.64325905 18.45044327
16.67232895 -41.00334167 -0.57739449
5.39094734 -14.98034573 13.67604256
34.84733200 8.40672874 30.44097519
14.05285072 -27.44014740 23.26221466
36.17594910 -11.55866528 37.52458191
7.04355907 -27.50679779 -4.02121925
41.94134521 8.31035805 40.99632263
3.67354965 -34.70047760 0.76307106
24.10482407 -39.70767975 31.82557106
1.48550034 -16.05613327 -1.47676468
26.26370049 1.53073311 14.74355125
31.76560211 -6.04486656 22.39850807
44.56443787 4.60263252 38.83573914
39.06617737 -24.55803490 22.89693260
26.29109192 -36.89373779 36.44731140
15.40874100 -19.34616661 1.54055214
36.25891495 -37.48287964 21.15709114
39.05153656 -16.57097626 28.91534805
-1.65082932 -19.23761749 -0.89049721
39.90879822 -15.09649086 40.25441360
1.90240860 -11.73301411 -0.31908989
15.34590149 -36.28419495 -1.84322929
41.29129028 -30.63560104 25.62856865
23.58297920 -40.30832672 33.11331940
21.68048859 -33.25359344 11.80078220
3.76074409 -27.23484612 0.59990120
29.49615669 10.17673683 33.02330780
5.67840862 -38.36060715 12.64789963
38.90338898 11.49845314 39.21987915
31.02770996 -30.09509659 39.70115662
19.42060852 -3.81614876 23.09869385
11.32360458 -14.83959198 3.21124077
37.97676086 -15.00401020 40.79014587
36.18285370 -17.06619263 21.27358627
45.28606415 -31.02294540 43.80324554
-0.18595314 -25.10972214 6.30040932
20.32475853 -5.40956974 25.06056595
33.02904892 -28.79656982 17.32009888
41.40205765 -28.21166801 26.50800705
31.18840599 11.99901009 23.73092461
-4.06079865 -17.90672493 -7.59740067
28.19374657 -31.36167908 45.28813553
17.04245758 -37.35382462 -1.54233932
28.47749329 -5.20773506 36.82513428
29.58592606 9.50485039 32.79155731
35.00637054 -16.87742424 21.47918510
24.98887444 3.43276405 15.40123367
39.84688568 -25.28901482 42.07291412
-7.26571465 -23.52998734 -4.96627808
35.47094727 -30.09378624 18.79531097
1.82052040 -27.43431091 0.80250931
8.83111000 -37.53880310 -0.20579910
37.49315262 -18.57863617 23.11331940
12.35787010 -10.54440403 3.08723068
35.77845764 -39.70793533 25.99223328
0.81598663 -26.52797699 -9.88897514
-4.89797211 -23.85140991 -0.21553040
14.02967072 -28.16619873 27.54794312
1.65019608 -31.00194550 14.35104942
34.94875336 -3.91610146 27.74568748
17.03602982 -25.75125504 27.23976517
41.69203186 2.86613846 31.63612175
5.94882488 -13.92203331 14.34888458
39.65189362 -27.09131241 26.03294754
4.96977615 -17.11958122 -9.71042824
14.37439728 -7.49037600 8.85541916
38.64144135 -1.01415920 32.89146805
45.81842804 -26.13840485 45.16949463
