-13.607818 -120.24663 49.567883
-13.39911 -120.03968 49.53744
-13.138192 -119.8321 49.46761
-12.982974 -119.653015 49.460632
-12.815602 -119.47856 49.44152
-12.998277 -119.35013 49.660625
-13.684926 -119.25493 50.24324
-13.564866 -119.07336 50.26465
-15.443427 -121.886086 49.910297
-15.9976015 -121.87569 50.33671
-14.082658 -120.69058 49.62194
-13.924607 -120.47747 49.634575
-13.634496 -120.24064 49.56188
-13.340367 -120.01595 49.478596
-13.140752 -119.821724 49.448006
-13.020085 -119.64859 49.46415
-12.86057 -119.47481 49.451256
-12.874478 -119.32658 49.553913
-13.587537 -119.235886 50.150635
-13.5328 -119.061165 50.21776
-15.379764 -121.84404 49.848545
-15.938283 -121.83581 50.274246
-14.716527 -121.22512 49.73344
-14.058801 -120.66956 49.58312
-14.026467 -120.48943 49.670616
-13.556413 -120.20973 49.490326
-13.337201 -120.003136 49.453537
-13.175588 -119.81651 49.44772
-13.019805 -119.63748 49.441586
-12.855117 -119.46355 49.425587
-12.808362 -119.30908 49.48631
-12.76341 -119.15551 49.547848
-12.796533 -119.00702 49.665035
-15.314809 -121.803 49.788376
-14.986632 -121.48939 49.73735
-14.682542 -121.19898 49.689934
-14.325456 -120.90691 49.603878
-14.055844 -120.65534 49.55817
-13.762841 -120.410095 49.49102
-13.510766 -120.187355 49.440548
-13.358296 -119.99608 49.445107
-13.19473 -119.80913 49.438686
-12.972215 -119.61973 49.38966
-12.84722 -119.45268 49.39977
-12.81037 -119.29978 49.46709
-12.915978 -119.15885 49.633633
-12.81004 -118.998764 49.65372
-15.329877 -121.7905 49.7683
-16.147274 -121.87062 50.326653
-14.645833 -121.17116 49.6436
-14.347295 -120.89831 49.590748
-13.753217 -120.5585 49.359577
-13.714629 -120.38466 49.438686
-13.544631 -120.182335 49.43771
-13.398553 -119.992096 49.447033
-13.174474 -119.79395 49.403236
-12.9550295 -119.60616 49.356472
-12.844869 -119.441925 49.3764
-12.824525 -119.29113 49.45481
-13.686183 -119.2109 50.14555
-12.820937 -118.98973 49.63914
-15.341317 -121.778946 49.74983
-14.908826 -121.430984 49.6456
-14.627482 -121.151375 49.6108
-14.243924 -120.8547 49.510967
-13.767386 -120.55045 49.347034
-13.740563 -120.379486 49.433163
-13.578702 -120.17889 49.437767
-13.381982 -119.97816 49.41667
-13.154313 -119.78036 49.370865
-12.951333 -119.59612 49.334915
-12.837756 -119.43192 49.352695
-12.8455515 -119.28446 49.449883
-12.839801 -119.13399 49.538937
-12.71292 -118.975464 49.543377
-15.341001 -121.76088 49.721893
-14.882333 -121.40525 49.605064
-14.595435 -121.12538 49.56756
-14.233289 -120.83678 49.48015
-13.87448 -120.56569 49.384335
-13.790002 -120.37836 49.438282
-13.572141 -120.16472 49.410484
-13.336465 -119.95703 49.365906
-13.155538 -119.76915 49.349304
-12.968957 -119.58797 49.3244
-12.841868 -119.422066 49.33377
-12.841458 -119.2739 49.425274
-12.786447 -119.11996 49.480232
-12.785649 -118.96986 49.572674
-15.70905 -121.87567 49.880894
-14.887916 -121.39052 49.581524
-14.532588 -121.08992 49.508102
-14.188556 -120.809044 49.430714
-13.942842 -120.570206 49.399113
-13.817508 -120.371735 49.43044
-13.551948 -120.14761 49.37523
-13.324391 -119.942696 49.33589
-13.161717 -119.758835 49.330906
-12.95477 -119.57504 49.293545
-12.860898 -119.4141 49.32464
-12.815721 -119.26121 49.386314
-12.783904 -119.10999 49.456726
-13.096049 -118.97616 49.767616
-15.138398 -121.65367 49.566193
-14.758101 -121.331474 49.489464
-14.284812 -120.99804 49.352158
-14.205697 -120.80032 49.417053
-13.976586 -120.56619 49.39558
-13.795064 -120.35381 49.3952
-13.546088 -120.13456 49.350098
-13.335099 -119.93363 49.321236
-13.160405 -119.74797 49.309284
-12.974965 -119.56795 49.28604
-12.860892 -119.4044 49.304432
-12.81405 -119.25165 49.36496
-12.793817 -119.10161 49.44314
-13.20329 -118.97209 49.82061
-15.108424 -121.62566 49.52432
-14.647361 -121.278336 49.40651
-14.302833 -120.988625 49.337124
-14.255967 -120.80017 49.419853
-13.982198 -120.55382 49.374695
-13.766419 -120.33369 49.35515
-13.569673 -120.127144 49.34094
-13.331258 -119.921005 49.296413
-13.176549 -119.73938 49.297127
-13.007571 -119.56194 49.284958
-12.869828 -119.395164 49.28873
-12.819604 -119.24218 49.347126
-12.839068 -119.09516 49.45211
-12.777379 -118.94155 49.50264
-15.077083 -121.79145 49.36439
-15.012511 -121.575554 49.451546
-14.567752 -121.237015 49.34187
-14.50269 -121.03616 49.419353
-14.252614 -120.785515 49.39494
-13.975034 -120.538994 49.348248
-13.765763 -120.32121 49.33278
-13.558557 -120.11302 49.312862
-13.341847 -119.91194 49.281742
-13.20716 -119.73392 49.29519
-13.042893 -119.55693 49.286785
-12.913201 -119.39072 49.296528
-12.829438 -119.23377 49.333485
-12.832387 -119.085526 49.427246
-12.769071 -118.93233 49.47657
-15.178191 -121.81207 49.386726
-14.975171 -121.54546 49.40678
-14.632268 -121.242516 49.349606
-14.526074 -121.02799 49.40646
-14.224309 -120.76295 49.355167
-13.968518 -120.523544 49.320793
-13.775989 -120.31053 49.31519
-13.568452 -120.10267 49.29571
-13.371753 -119.90579 49.27717
-13.245244 -119.7289 49.2963
-13.075557 -119.550766 49.285435
-12.942212 -119.3838 49.293575
-12.841546 -119.22493 49.319996
-12.829579 -119.075584 49.403748
-12.769551 -118.92294 49.4553
-15.252984 -121.82361 49.397617
-15.017205 -121.544464 49.402996
-14.454545 -121.16953 49.236
-14.502366 -121.006424 49.370564
-14.201879 -120.743095 49.32032
-13.98165 -120.5141 49.305725
-13.766637 -120.29608 49.288036
-13.606532 -120.09906 49.29628
-13.400968 -119.90019 49.273464
-13.280986 -119.72412 49.29719
-13.107575 -119.54512 49.284897
-12.975617 -119.377975 49.294636
-12.841271 -119.21557 49.299774
-12.8310175 -119.06658 49.384514
-12.802342 -118.91557 49.457466
-15.280837 -121.81636 49.384197
-15.06528 -121.544395 49.400345
-14.482846 -121.163345 49.225647
-14.472434 -120.982155 49.33011
-14.217786 -120.73318 49.304546
-13.971513 -120.497826 49.276463
-13.804076 -120.29178 49.28577
-13.643666 -120.09437 49.294697
-13.44621 -119.89676 49.277676
-13.312364 -119.71782 49.2939
-13.14029 -119.5388 49.28328
-13.009713 -119.3715 49.294636
-12.849931 -119.20641 49.28408
-12.834693 -119.05714 49.365486
-12.797757 -118.905975 49.432796
-15.093614 -121.92347 49.152046
-15.340386 -121.82189 49.387295
-15.048993 -121.52296 49.367863
-14.542989 -121.16837 49.232647
-14.456971 -120.96336 49.29891
-14.189937 -120.71201 49.267143
-14.010247 -120.49492 49.275337
-13.845948 -120.28923 49.287262
-13.68011 -120.090225 49.293987
-13.482293 -119.892265 49.277706
-13.34817 -119.71288 49.29452
-13.177436 -119.5337 49.28561
-13.044864 -119.365715 49.296494
-12.883046 -119.200066 49.285484
-12.842662 -119.04859 49.350674
-12.789121 -118.896835 49.406845
-15.155343 -121.93016 49.154346
-15.349351 -121.80754 49.364746
-15.014485 -121.494316 49.325127
-14.705592 -121.20518 49.2887
-14.435273 -120.941864 49.26315
-14.224608 -120.70732 49.261314
-14.060082 -120.49385 49.278545
-13.885175 -120.28514 49.28563
-13.722444 -120.08642 49.29502
-13.522525 -119.88769 49.278584
-13.3778925 -119.70616 49.289955
-13.211904 -119.52745 49.28476
-13.07565 -119.35869 49.2941
-12.913476 -119.19278 49.283684
-12.8579 -119.039894 49.339314
-12.790977 -118.887566 49.386726
-15.314328 -121.778244 49.323418
-15.011655 -121.47777 49.29949
-14.697129 -121.18774 49.260933
-14.464339 -120.93649 49.254917
-14.274035 -120.70748 49.26455
-14.10579 -120.49248 49.280785
-13.927136 -120.2824 49.286793
-13.752103 -120.0807 49.290142
-13.55355 -119.882095 49.27535
-13.372853 -119.694626 49.26603
-13.244031 -119.5215 49.283703
-13.109174 -119.35256 49.294636
-12.939919 -119.1857 49.280544
-12.854072 -119.03061 49.316814
-12.795455 -118.879 49.36975
-15.289443 -121.75283 49.287052
-15.019078 -121.464775 49.278828
-14.728257 -121.18295 49.25272
-14.502038 -120.93362 49.250942
-14.318349 -120.70612 49.264904
-14.146382 -120.48971 49.280087
-13.965703 -120.278786 49.285908
-13.793792 -120.07736 49.291904
-13.558904 -119.871826 49.257202
-13.379666 -119.68498 49.2492
-13.276183 -119.51548 49.28252
-13.141038 -119.346176 49.293995
-12.97648 -119.17943 49.283714
-12.860211 -119.02196 49.300877
-12.798211 -118.87038 49.35167
-15.311856 -121.74358 49.270992
-15.022073 -121.449265 49.25449
-14.772302 -121.18119 49.24912
-14.537091 -120.92892 49.24394
-14.361754 -120.70349 49.263065
-14.189492 -120.48659 49.279045
-14.008489 -120.275185 49.285675
-13.832807 -120.07257 49.290527
-13.554595 -119.85911 49.232147
-13.397359 -119.67631 49.237396
-13.312432 -119.50922 49.282288
-13.176972 -119.33948 49.294357
-13.013722 -119.17248 49.285805
-12.893775 -119.014305 49.301353
-12.809861 -118.86148 49.338196
-15.279773 -121.715805 49.231644
-15.070882 -121.45027 49.253376
-14.820777 -121.181694 49.249043
-14.59562 -120.931915 49.250042
-14.400971 -120.70053 49.260406
-14.226708 -120.48278 49.2762
-14.0333185 -120.26832 49.277004
-13.869416 -120.06801 49.289093
-13.55465 -119.84796 49.211082
-13.412637 -119.66795 49.225525
-13.342931 -119.50282 49.279827
-13.215678 -119.33366 49.29762
-13.021634 -119.16369 49.270645
-12.923375 -119.00696 49.300457
-12.819184 -118.85308 49.3245
-15.352254 -121.72452 49.238335
-15.122312 -121.45098 49.25165
-14.864907 -121.17971 49.24507
-14.637677 -120.92903 49.246147
-14.444451 -120.69769 49.258224
-14.259503 -120.47693 49.269375
-14.083081 -120.26606 49.28018
-13.908498 -120.063034 49.287403
-13.544988 -119.8344 49.18318
-13.43027 -119.65921 49.213608
-13.389489 -119.497696 49.285408
-13.243178 -119.3259 49.292496
-13.023362 -119.15377 49.250305
-12.956992 -118.99915 49.300667
-12.842462 -118.84452 49.318626
-15.403188 -121.72644 49.23661
-15.174703 -121.45291 49.251755
-14.913482 -121.17999 49.244617
-14.6894045 -120.92977 49.248386
-14.485471 -120.69501 49.256126
-14.3037 -120.47463 49.26986
-14.125247 -120.26284 49.280537
-13.948625 -120.058975 49.28757
-13.54659 -119.8236 49.16315
-13.452359 -119.65183 49.2056
-13.418328 -119.49093 49.281662
-13.28025 -119.31973 49.294437
-13.039639 -119.145645 49.240395
-12.990006 -118.991844 49.301678
-12.868474 -118.83658 49.315765
-15.46024 -121.72929 49.23574
-15.224507 -121.4528 49.248802
-14.957696 -121.1778 49.240284
-14.735024 -120.927666 49.24583
-14.539466 -120.69471 49.258854
-14.35217 -120.47237 49.270844
-14.169923 -120.25922 49.28055
-13.987775 -120.05381 49.285564
-13.553973 -119.813065 49.145023
-13.4665 -119.64252 49.191574
-13.446134 -119.48326 49.275795
-13.316308 -119.31269 49.29422
-13.044637 -119.13599 49.222145
-13.027055 -118.984055 49.303745
-12.896787 -118.82806 49.31296
-15.509553 -121.73035 49.23282
-15.266564 -121.45104 49.243702
-14.964543 -121.165054 49.219685
-14.781644 -120.92669 49.24512
-14.575347 -120.69045 49.253788
-14.394727 -120.469444 49.270073
-14.205228 -120.25431 49.276886
-14.027974 -120.04957 49.285416
-13.53642 -119.79907 49.11442
-13.474769 -119.63305 49.175556
-13.490439 -119.47826 49.280872
-13.344907 -119.30551 49.290737
-13.0574465 -119.12756 49.21006
-13.048291 -118.97599 49.297035
-12.931222 -118.82022 49.315308
-15.563245 -121.731705 49.229958
-15.274592 -121.437004 49.221287
-14.980844 -121.154205 49.201965
-14.829099 -120.92485 49.243034
-14.622479 -120.6881 49.252632
-14.43633 -120.4653 49.2671
-14.246505 -120.24974 49.274723
-14.061982 -120.04323 49.280273
-13.507281 -119.78249 49.076202
-13.475017 -119.62171 49.153618
-13.530309 -119.471886 49.281757
-13.384437 -119.29864 49.292286
-13.050408 -119.117035 49.1845
-13.037961 -118.9657 49.269154
-12.961251 -118.8116 49.313343
-15.616147 -121.73374 49.22817
-15.290452 -121.42659 49.204067
-15.006785 -121.14727 49.190304
-14.877561 -120.92414 49.24279
-14.668893 -120.68636 49.25245
-14.477216 -120.46177 49.265106
-14.292312 -120.24687 49.276237
-14.100507 -120.03847 49.278885
-13.505052 -119.77124 49.05442
-13.490079 -119.61323 49.141487
-13.545451 -119.46319 49.269535
-13.41307 -119.29131 49.28856
-13.054589 -119.10799 49.167202
-13.038775 -118.95661 49.24968
-12.987309 -118.803406 49.310047
-15.669953 -121.73484 49.22486
-15.301831 -121.41367 49.18319
-15.024751 -121.13689 49.173275
-14.921609 -120.921104 49.23864
-14.71787 -120.684235 49.251762
-14.524129 -120.45865 49.264446
-14.333665 -120.242096 49.273724
-14.141517 -120.03327 49.277176
-13.510343 -119.76052 49.035465
-13.505765 -119.604095 49.128304
-13.53708 -119.451 49.242348
-13.452664 -119.28427 49.289803
-13.067868 -119.09896 49.154118
-13.046929 -118.94727 49.233486
-13.022431 -118.79476 49.31106
-15.735215 -121.740845 49.227955
-15.236985 -121.37732 49.129875
-15.040128 -121.12672 49.1566
-14.971917 -120.92065 49.238846
-14.762628 -120.68183 49.250347
-14.56684 -120.45532 49.262993
-14.374322 -120.23792 49.27217
-14.192311 -120.030594 49.281944
-13.499261 -119.747894 49.008995
-13.515563 -119.59484 49.11317
-13.557298 -119.44288 49.23305
-13.484767 -119.277115 49.28785
-13.083919 -119.09074 49.144
-13.047612 -118.93821 49.21403
-13.029912 -118.786064 49.295807
-15.791802 -121.74369 49.227013
-15.236783 -121.36191 49.105698
-15.060723 -121.11808 49.142296
-15.022283 -120.920074 49.238853
-14.814446 -120.68109 49.25216
-14.618352 -120.45391 49.265747
-14.4150095 -120.23366 49.27046
-14.229199 -120.02523 49.27915
-13.526387 -119.74147 49.003334
-13.511426 -119.58367 49.0903
-13.58096 -119.43512 49.22565
-13.518613 -119.27005 49.286777
-13.081098 -119.081215 49.122555
-13.055043 -118.92945 49.19877
-13.027181 -118.77716 49.27416
-15.838773 -121.74199 49.220013
-15.240798 -121.346855 49.08185
-15.066247 -121.10399 49.119495
-15.073485 -120.918625 49.23743
-14.854789 -120.67641 49.24663
-14.628541 -120.44207 49.246212
-14.4003725 -120.217125 49.23883
-14.263326 -120.018456 49.273254
-13.533233 -119.73103 48.985294
-13.50089 -119.57095 49.062626
-13.605268 -119.426674 49.21714
-13.558301 -119.26273 49.28756
-13.090814 -119.07192 49.107334
-13.064736 -118.92017 49.183582
-13.055505 -118.76824 49.270657
-15.846253 -121.72793 49.197754
-15.212255 -121.32259 49.045376
-15.083234 -121.09427 49.103493
-15.125718 -120.91829 49.23785
-14.90319 -120.67456 49.24636
-14.608037 -120.42421 49.213078
-14.411206 -120.206696 49.221783
-14.319522 -120.016396 49.28021
-13.532388 -119.72012 48.96452
-13.510495 -119.56172 49.0475
-13.627179 -119.418625 49.208588
-13.573201 -119.25384 49.275234
-13.117063 -119.06431 49.103218
-13.078906 -118.91169 49.172432
-13.112115 -118.760315 49.285934
-15.913503 -121.73401 49.200714
-15.141248 -121.28516 48.990643
-15.096654 -121.0835 49.085857
-15.155084 -120.91167 49.22745
-14.953401 -120.673035 49.24674
-14.626122 -120.4151 49.199055
-14.416717 -120.19519 49.202053
-14.36527 -120.01232 49.28148
-13.531465 -119.70923 48.943764
-13.527028 -119.5534 49.03616
-13.635182 -119.40901 49.19217
-13.558667 -119.242386 49.245975
-13.11234 -119.0547 49.08076
-13.094758 -118.903244 49.16227
-13.172219 -118.75229 49.303078
-15.948201 -121.727875 49.188026
-15.167783 -121.27746 48.976986
-15.105493 -121.07042 49.064587
-15.165795 -120.899025 49.206768
-14.999135 -120.669334 49.243187
-14.600823 -120.39544 49.162323
-14.431672 -120.184746 49.18559
-14.383672 -120.00247 49.266956
-13.536355 -119.69855 48.924805
-13.535434 -119.54328 49.01901
-13.661172 -119.40063 49.1844
-13.572364 -119.2327 49.23161
-13.104684 -119.04432 49.05537
-13.099183 -118.89373 49.143898
-13.22281 -118.74338 49.312702
-15.866366 -121.682915 49.12678
-15.183694 -121.26642 48.958675
-15.101878 -121.05377 49.03782
-15.187049 -120.88919 49.19091
-15.055509 -120.6681 49.244434
-14.628329 -120.38755 49.151382
-14.4536295 -120.175674 49.17259
-14.37037 -119.987045 49.236168
-13.542928 -119.688126 48.906765
-13.550778 -119.53406 49.005615
-13.666247 -119.38996 49.164944
-13.566939 -119.221405 49.206367
-13.131446 -119.036026 49.050137
-13.1069765 -118.88434 49.12757
-13.254703 -118.73411 49.310635
-15.861978 -121.66394 49.09805
-15.169456 -121.246086 48.92749
-15.099923 -121.03767 49.01187
-15.211804 -120.88025 49.176582
-15.094247 -120.66246 49.237167
-14.608073 -120.36916 49.11737
-14.464967 -120.164474 49.15427
-14.383363 -119.97626 49.218906
-13.545926 -119.677185 48.886883
-13.567838 -119.52503 48.99311
-13.676488 -119.37985 49.148373
-13.577048 -119.211426 49.190002
-13.127095 -119.02588 49.026783
-13.128467 -118.87542 49.119392
-13.281484 -118.72471 49.305313
-15.865499 -121.64874 49.074333
-15.166726 -121.23038 48.90289
-15.111297 -121.02638 48.993393
-15.228669 -120.87018 49.160217
-15.079059 -120.644775 49.20628
-14.563931 -120.346596 49.07363
-14.473771 -120.15364 49.136196
-14.369142 -119.96162 49.18936
-13.551749 -119.667404 48.869846
-13.577224 -119.515724 48.977825
-13.684291 -119.37019 49.13185
-13.570821 -119.20082 49.16584
-13.125529 -119.01655 49.00642
-13.106315 -118.86564 49.086685
-13.319642 -118.71597 49.30812
-15.852979 -121.62834 49.04413
-15.176326 -121.21849 48.88355
-15.126166 -121.01608 48.976433
-15.240163 -120.858696 49.141415
-15.102792 -120.63643 49.19351
-14.5585985 -120.33256 49.048653
-14.471898 -120.14075 49.11291
-14.376002 -119.95064 49.170563
-13.569848 -119.65944 48.859173
-13.584807 -119.506195 48.961582
-13.695542 -119.36089 49.117226
-13.522695 -119.18697 49.118374
-13.120423 -119.00704 48.984097
-13.1081705 -118.85669 49.06827
-13.349265 -118.70708 49.305614
-15.849206 -121.610886 49.017593
-15.1805315 -121.20497 48.86196
-15.133874 -121.00378 48.956352
-15.281831 -120.85501 49.136044
-15.09451 -120.6205 49.165974
-14.547841 -120.31742 49.021202
-14.487664 -120.13127 49.098274
-14.3916445 -119.94115 49.156174
-13.58616 -119.65118 48.847534
-13.590581 -119.49644 48.944397
-13.708501 -119.351746 49.10351
-13.427266 -119.16966 49.04498
-13.118707 -118.99776 48.963795
-13.108235 -118.8477 49.048862
-13.382331 -118.698135 49.30505
-15.840802 -121.590904 48.98762
-15.190747 -121.19231 48.84135
-15.152944 -120.993675 48.93961
-15.290448 -120.841774 49.114277
-15.090417 -120.604675 49.13889
-14.544778 -120.303116 48.996006
-14.50586 -120.12138 49.08329
-14.351241 -119.92148 49.112434
-13.601291 -119.64201 48.833916
-13.598672 -119.48626 48.92711
-13.676431 -119.33745 49.064163
-13.298909 -119.14952 48.952713
-13.122708 -118.988174 48.945515
-13.10016 -118.8379 49.023487
-13.422891 -118.68853 49.30744
-15.831281 -121.56958 48.95567
-15.212329 -121.18207 48.82388
-15.162011 -120.97981 48.917
-15.2979555 -120.82729 49.090454
-15.108342 -120.593094 49.120296
-14.608193 -120.30195 49.00041
-14.524701 -120.110756 49.067093
-14.323724 -119.90331 49.073917
-13.62938 -119.63394 48.8255
-13.617894 -119.476715 48.914288
-13.6571 -119.32382 49.03054
-13.296643 -119.13845 48.929276
-13.128953 -118.97809 48.927258
-13.108138 -118.82796 49.006214
-13.457208 -118.67817 49.304565
-15.821025 -121.551346 48.928505
-15.226289 -121.1725 48.80788
-15.177712 -120.97071 48.90188
-15.292413 -120.81246 49.065735
-15.043689 -120.56526 49.069225
-14.623252 -120.29314 48.986553
-14.537883 -120.10158 49.0526
-14.318898 -119.89139 49.05114
-13.639688 -119.62547 48.81202
-13.652921 -119.47112 48.913635
-13.653384 -119.31386 49.00949
-13.243493 -119.125694 48.88203
-13.138661 -118.97004 48.9148
-13.121293 -118.81996 48.99579
-13.455272 -118.669556 49.28429
-15.825728 -121.53688 48.90568
-15.246308 -121.163734 48.792774
-15.188748 -120.95934 48.883213
-15.273221 -120.79328 49.033596
-15.020627 -120.546265 49.035603
-14.608613 -120.277306 48.9575
-14.535666 -120.088715 49.0293
-14.300424 -119.876495 49.020332
-13.641694 -119.61512 48.79303
-13.665593 -119.46213 48.899967
-13.634347 -119.301796 48.979053
-13.208261 -119.11372 48.843582
-13.154138 -118.96163 48.904274
-13.166232 -118.8121 49.002216
-13.448686 -118.66033 49.26
-15.815045 -121.51651 48.875248
-15.292077 -121.161514 48.78646
-15.205827 -120.948654 48.865513
-15.24388 -120.77073 48.99568
-14.99455 -120.525795 48.99929
-14.596322 -120.261185 48.92819
-14.510831 -120.07092 48.993942
-14.284257 -119.861275 48.98937
-13.649566 -119.60487 48.775677
-13.67529 -119.45208 48.88341
-13.633428 -119.290794 48.956974
-13.222611 -119.104675 48.83091
-13.1649065 -118.952354 48.889824
-13.187453 -118.80299 48.993656
-13.456426 -118.650505 49.242794
-15.827497 -121.50351 48.853905
-15.294866 -121.14663 48.76272
-15.24796 -120.94471 48.85815
-15.226911 -120.75139 48.9633
-14.975476 -120.50703 48.96629
-14.589278 -120.24621 48.9014
-14.501925 -120.05614 48.966255
-14.266175 -119.84583 48.957645
-13.657378 -119.59463 48.75831
-13.681386 -119.44161 48.865025
-13.637727 -119.2803 48.93769
-13.252759 -119.09667 48.826687
-13.18263 -118.94338 48.879196
-13.198213 -118.79361 48.979107
-13.471028 -118.640656 49.229588
-15.857802 -121.496086 48.839413
-15.276036 -121.12552 48.730427
-15.254199 -120.931046 48.83585
-15.208001 -120.731674 48.93026
-14.954461 -120.487946 48.93262
-14.571366 -120.22911 48.869812
-14.480374 -120.039154 48.932808
-14.247956 -119.83047 48.926033
-13.677602 -119.58605 48.747063
-13.692742 -119.43174 48.849323
-13.65434 -119.2709 48.924843
-13.284675 -119.08871 48.823277
-13.20033 -118.93437 48.868507
-13.228103 -118.78459 48.975304
-13.475194 -118.63082 49.21034
-15.85604 -121.48078 48.815845
-15.28616 -121.11484 48.712822
-15.267907 -120.921326 48.819725
-15.185718 -120.71314 48.89907
-14.9337015 -120.47083 48.90228
-14.56994 -120.2171 48.84871
-14.45378 -120.023026 48.900124
-14.228326 -119.81654 48.896755
-13.693049 -119.57823 48.736065
-13.695754 -119.422356 48.832092
-13.621913 -119.25857 48.889282
-13.267861 -119.07881 48.796425
-13.215137 -118.92645 48.85874
-13.281318 -118.777145 48.986996
-13.481605 -118.62223 49.195114
-15.861112 -121.465515 48.79167
-15.324651 -121.11032 48.703266
-15.281209 -120.90956 48.800316
-15.162923 -120.69271 48.864746
-14.944783 -120.45903 48.88286
-14.544597 -120.1987 48.81408
-14.446298 -120.008736 48.873524
-14.240289 -119.80599 48.879757
-13.706079 -119.56864 48.721207
-13.71057 -119.41285 48.818127
-13.608243 -119.2466 48.86094
-13.267949 -119.06877 48.776093
-13.246842 -118.91794 48.855545
-13.319997 -118.76809 48.98775
-13.483912 -118.61242 49.17487
-15.862493 -121.44915 48.766144
-15.350541 -121.10213 48.68864
-15.290843 -120.896835 48.779415
-15.138169 -120.671936 48.829807
-14.899951 -120.43503 48.83941
-14.502898 -120.17721 48.772423
-14.424329 -119.99198 48.840424
-14.198403 -119.787254 48.83744
-13.713698 -119.558334 48.70371
-13.716434 -119.402374 48.79968
-13.589131 -119.23424 48.829964
-13.276807 -119.05929 48.76042
-13.255685 -118.90847 48.839893
-13.509227 -118.76121 49.07154
-13.494845 -118.60255 49.15957
-15.864827 -121.43418 48.74265
-15.359456 -121.09007 48.668907
-15.301503 -120.885345 48.760475
-15.116166 -120.65288 48.79774
-14.879487 -120.41738 48.80818
-14.510816 -120.16639 48.75434
-14.406976 -119.976944 48.81104
-14.170064 -119.7715 48.803158
-13.717095 -119.54821 48.685516
-13.73593 -119.39404 48.789326
-13.57643 -119.22317 48.803734
-13.293916 -119.050934 48.750328
-13.241021 -118.89875 48.812927
-13.516053 -118.75194 49.055275
-13.473805 -118.59359 49.127567
-15.864215 -121.417305 48.716488
-15.37082 -121.077736 48.64858
-15.311004 -120.872604 48.73953
-15.094716 -120.63314 48.764557
-14.855948 -120.3983 48.77433
-14.522927 -120.155556 48.73667
-14.418963 -119.9662 48.793602
-14.151181 -119.7565 48.77209
-13.728181 -119.53836 48.66971
-13.7399 -119.383354 48.769955
-13.578441 -119.212685 48.78375
-13.325734 -119.04276 48.746544
-13.242673 -118.889046 48.793526
-13.512864 -118.741905 49.032223
-13.477624 -118.58382 49.108364
-15.858405 -121.40102 48.691708
-15.373483 -121.06493 48.62801
-15.322652 -120.86234 48.722523
-15.071755 -120.615 48.733963
-14.836356 -120.38194 48.745296
-14.546353 -120.14854 48.726776
-14.3665 -119.94615 48.750134
-14.147149 -119.74531 48.750816
-13.700368 -119.52506 48.638054
-13.746228 -119.37433 48.75442
-13.556073 -119.201614 48.754185
-13.336942 -119.03463 48.734535
-13.239648 -118.88044 48.77422
-13.517251 -118.73325 49.01602
-13.476766 -118.57534 49.08925
-15.861211 -121.38528 48.66693
-15.382903 -121.052086 48.606956
-15.332023 -120.84958 48.701527
-15.064509 -120.59881 48.706894
-14.816152 -120.36379 48.71321
-14.587319 -120.14314 48.721504
-14.367463 -119.933655 48.72796
-14.167684 -119.7362 48.73811
-13.705918 -119.51458 48.61973
-13.744695 -119.36311 48.732433
-13.579339 -119.192856 48.74497
-13.333207 -119.02437 48.71231
-13.23232 -118.870476 48.750195
-13.513909 -118.72327 48.99302
-13.476956 -118.56563 49.068115
-15.862111 -121.36902 48.641514
-15.359624 -121.03023 48.573624
-15.324998 -120.83267 48.67416
-15.078919 -120.587715 48.68864
-14.842946 -120.35562 48.700832
-14.597514 -120.13186 48.702854
-14.381003 -119.92327 48.711395
-14.1611185 -119.72315 48.712994
-13.698804 -119.502556 48.59549
-13.7143755 -119.349075 48.696625
-13.534663 -119.17885 48.70197
-13.341844 -119.01482 48.69647
-13.281575 -118.86231 48.755898
-13.521054 -118.71339 48.97573
-13.477071 -118.55594 49.047005
-18.408447 -122.36314 49.376476
-15.8611 -121.35224 48.61546
-15.34345 -121.010445 48.543133
-15.27064 -120.8039 48.62862
-15.049684 -120.56657 48.652935
-14.811627 -120.3353 48.664375
-14.576814 -120.11482 48.671047
-14.351033 -119.90573 48.67571
-14.127347 -119.70629 48.675667
-13.686189 -119.48993 48.568787
-13.707252 -119.33742 48.672176
-13.52559 -119.16767 48.67685
-13.353997 -119.00543 48.682415
-13.313151 -118.8535 48.75215
-13.510499 -118.7034 48.949005
-13.475356 -118.546295 49.02495
-15.864713 -121.33791 48.592724
-15.331914 -120.993 48.516026
-15.259017 -120.787 48.601345
-15.068725 -120.55749 48.63809
-14.828572 -120.32595 48.649403
-14.608014 -120.1083 48.6628
-14.385564 -119.899605 48.669792
-14.123574 -119.69454 48.65345
-13.671105 -119.477776 48.542362
-13.686885 -119.325226 48.642822
-13.51229 -119.1569 48.65105
-13.344161 -118.99555 48.658524
-13.324674 -118.844666 48.739155
-13.511659 -118.69414 48.929935
-13.474774 -118.53726 49.004894
-15.865327 -121.32171 48.56736
-15.324578 -120.97581 48.48906
-15.238851 -120.76712 48.56942
-15.133908 -120.55795 48.639866
-14.878882 -120.322556 48.6465
-14.654378 -120.10365 48.659374
-14.429791 -119.89416 48.66653
-14.109439 -119.68064 48.625313
-13.660079 -119.46546 48.51665
-13.679559 -119.31367 48.61851
-13.511991 -119.14646 48.630436
-13.349057 -118.98582 48.640865
-13.336686 -118.835205 48.72513
-13.509759 -118.68426 48.90799
-13.4764185 -118.52759 48.9848
-15.866952 -121.30688 48.544003
-15.303712 -120.95601 48.458767
-15.247043 -120.75529 48.54989
-15.169335 -120.552444 48.6312
-14.937699 -120.321625 48.648273
-14.711074 -120.1016 48.661488
-14.47889 -119.89018 48.66658
-14.011178 -119.656006 48.561317
-13.655641 -119.45467 48.495358
-13.667981 -119.302444 48.593594
-13.507485 -119.136406 48.609116
-13.367677 -118.97737 48.631317
-13.34279 -118.8262 48.709324
-13.512555 -118.675026 48.88988
-13.470418 -118.5187 48.961933
-15.86303 -121.29048 48.51875
-15.288186 -120.93774 48.43057
-15.211375 -120.732704 48.5139
-15.186517 -120.54277 48.615307
-14.985629 -120.318344 48.645412
-14.760537 -120.09809 48.660343
-14.531669 -119.88666 48.66798
-13.881742 -119.62746 48.48416
-13.656556 -119.44453 48.476566
-13.658116 -119.291435 48.56959
-13.508302 -119.126755 48.590427
-13.375531 -118.96839 48.61638
-13.375579 -118.81783 48.707108
-13.509973 -118.6658 48.869003
-13.473149 -118.50964 48.94384
-15.86336 -121.27434 48.493458
-15.300588 -120.92604 48.411037
-15.165227 -120.7068 48.472767
-15.207963 -120.53312 48.599514
-15.048848 -120.31712 48.646954
-14.81796 -120.09503 48.660805
-14.585105 -119.88229 48.668
-13.859746 -119.613045 48.45357
-13.668826 -119.434975 48.461666
-13.655929 -119.28048 48.547977
-13.51138 -119.116615 48.5716
-13.385652 -118.95888 48.60131
-13.483846 -118.81043 48.74166
-13.502522 -118.65598 48.84436
-13.469289 -118.500145 48.920967
-15.822724 -121.24756 48.45573
-15.312276 -120.91509 48.39274
-15.152993 -120.69023 48.445965
-15.228723 -120.52419 48.5849
-15.09686 -120.31359 48.64366
-14.863856 -120.09063 48.657734
-14.612447 -119.87456 48.658173
-13.851632 -119.601295 48.430504
-13.675069 -119.42544 48.44532
-13.658555 -119.27067 48.529938
-13.499448 -119.106155 48.546932
-13.38444 -118.94949 48.58194
-13.502454 -118.801506 48.73182
-13.506894 -118.6468 48.82722
-13.478953 -118.49094 48.906647
-19.640148 -122.59693 49.56159
-15.744201 -121.2092 48.403793
-15.324563 -120.90336 48.37314
-15.15228 -120.67558 48.422024
-15.248265 -120.51405 48.568253
-15.134561 -120.30703 48.634605
-14.877479 -120.07962 48.63989
-14.249555 -119.806244 48.483166
-13.843976 -119.58893 48.406433
-13.687245 -119.41586 48.430355
-13.639909 -119.25834 48.50088
-13.489743 -119.09524 48.52218
-13.389064 -118.93974 48.564213
-13.480424 -118.79113 48.700325
-13.4974985 -118.63705 48.801746
-18.285645 -122.41897 48.940426
-13.478486 -118.48138 48.885677
-19.749779 -122.60858 49.56397
-15.695836 -121.18067 48.364082
-15.336139 -120.89238 48.354767
-15.064656 -120.64115 48.367954
-15.2671175 -120.504654 48.5528
-15.107472 -120.28862 48.601597
-14.87395 -120.06647 48.61656
-14.188661 -119.78563 48.437435
-13.826562 -119.57607 48.37955
-13.700667 -119.4071 48.4172
-13.627875 -119.24734 48.476273
-13.443284 -119.0827 48.481514
-13.385919 -118.930305 48.544003
-13.482823 -118.7819 48.68243
-13.499957 -118.62789 48.783722
-13.479196 -118.472404 48.86668
-19.843067 -122.61498 49.560585
-15.302779 -121.05565 48.209038
-15.347661 -120.88139 48.33637
-15.059365 -120.62656 48.344173
-15.276757 -120.49324 48.53384
-15.149972 -120.2838 48.595768
-14.908835 -120.05996 48.6087
-14.167825 -119.77124 48.40867
-13.803563 -119.56258 48.350426
-13.699479 -119.39677 48.397575
-13.613931 -119.23622 48.450912
-13.387609 -119.069756 48.436855
-13.389913 -118.92118 48.527287
-13.474406 -118.77249 48.65922
-13.498792 -118.618774 48.76389
-13.470981 -118.46371 48.84307
-15.794635 -121.374695 48.230804
-15.2928 -121.03786 48.182125
-15.357932 -120.86914 48.31603
-15.04725 -120.60951 48.316566
-15.314544 -120.48694 48.523846
-15.185773 -120.276695 48.585686
-14.936994 -120.05138 48.59656
-14.160256 -119.75815 48.38418
-13.673066 -119.534874 48.274597
-13.722455 -119.38829 48.38731
-13.600406 -119.22453 48.424603
-13.395642 -119.06018 48.420895
-13.3871355 -118.91118 48.506123
-13.478978 -118.762695 48.641224
-13.51592 -118.60891 48.752075
-13.477387 -118.453995 48.825863
-15.858502 -121.37774 48.226334
-15.282708 -121.02012 48.155285
-15.353425 -120.85313 48.29061
-15.049741 -120.59596 48.294277
-15.302644 -120.47002 48.495358
-15.159028 -120.25762 48.55156
-14.926541 -120.03624 48.569057
-14.167268 -119.74725 48.365738
-13.648385 -119.52083 48.244156
-13.730802 -119.378265 48.3706
-13.5885935 -119.21305 48.399193
-13.387296 -119.049644 48.397385
-13.389699 -118.90139 48.487556
-13.476296 -118.75281 48.619717
-13.515145 -118.599174 48.731224
-13.474854 -118.44456 48.804058
-15.850829 -121.35935 48.19909
-15.292731 -121.007996 48.13513
-15.345136 -120.83621 48.26399
-15.074258 -120.58755 48.279804
-15.305364 -120.456245 48.47234
-15.189221 -120.249405 48.53923
-14.910455 -120.02022 48.539463
-14.082368 -119.72304 48.310055
-13.636403 -119.508446 48.21922
-13.706185 -119.3649 48.33967
-13.57668 -119.20162 48.373856
-13.389756 -119.039764 48.378925
-13.394006 -118.89168 48.469852
-13.469941 -118.742905 48.596493
-13.508924 -118.589516 48.707714
-13.472241 -118.43515 48.782288
-15.85407 -121.34427 48.17534
-15.313735 -120.998886 48.118534
-15.290654 -120.80774 48.221874
-15.115342 -120.58289 48.271057
-15.343049 -120.44979 48.46207
-15.55866 -120.304504 48.654476
-14.88688 -120.00306 48.507095
-13.980634 -119.6967 48.248135
-13.646344 -119.498795 48.203506
-13.705232 -119.354 48.319077
-13.571967 -119.1908 48.35182
-13.384881 -119.029495 48.357162
-13.387391 -118.88161 48.447056
-13.470702 -118.73311 48.576794
-13.509782 -118.57981 48.68781
-13.498046 -118.42476 48.775066
-15.861436 -121.33245 48.155983
-15.267945 -120.789276 48.193676
-15.1533785 -120.57925 48.26398
-15.333322 -120.43526 48.437542
-15.604545 -120.30034 48.649933
-14.850926 -119.985634 48.472996
-13.982495 -119.68688 48.230816
-13.64972 -119.48973 48.187553
-13.725183 -119.346535 48.30995
-13.571656 -119.18169 48.33428
-13.382596 -119.02066 48.339077
-13.394216 -118.87325 48.433056
-13.468608 -118.72454 48.558266
-13.531106 -118.57106 48.680573
-13.505017 -118.41621 48.760754
-15.8553095 -121.3147 48.12941
-15.250035 -120.77028 48.164303
-15.177846 -120.57063 48.249153
-15.326585 -120.419586 48.411186
-15.701623 -120.30363 48.661083
-14.852914 -119.97285 48.45084
-14.068288 -119.68739 48.244278
-13.657723 -119.47984 48.171043
-13.707601 -119.33404 48.28236
-13.533872 -119.168465 48.297943
-13.390321 -119.01111 48.323116
-13.380197 -118.86301 48.40696
-13.478263 -118.71484 48.5429
-13.508513 -118.5617 48.6492
-13.50401 -118.406746 48.739876
-15.866872 -121.30314 48.109833
-15.253583 -120.7576 48.143604
-15.185029 -120.558975 48.22978
-15.317285 -120.40436 48.385494
-15.748242 -120.29837 48.65473
-14.835763 -119.95783 48.42285
-14.12415 -119.68425 48.24681
-13.676227 -119.47187 48.160046
-13.685735 -119.32189 48.254368
-13.530229 -119.15853 48.277905
-13.313615 -118.99787 48.27064
-13.387391 -118.85406 48.391975
-13.481961 -118.70571 48.52595
-13.539239 -118.552155 48.645252
-13.502439 -118.39792 48.720043
-15.241597 -120.7393 48.11495
-15.208161 -120.54911 48.21292
-15.714667 -120.27667 48.615715
-14.797439 -119.9379 48.38415
-14.097983 -119.66822 48.21435
-13.695691 -119.46261 48.146908
-13.670255 -119.309074 48.226715
-13.518315 -119.14673 48.251915
-13.310655 -118.98729 48.248997
-13.38458 -118.84359 48.369984
-13.484759 -118.69535 48.506115
-13.642941 -118.539986 48.67398
-13.503558 -118.3878 48.69908
-15.225764 -120.54066 48.19849
-15.491878 -120.41192 48.400574
-15.656781 -120.25354 48.5728
-14.803546 -119.92756 48.366657
-14.068273 -119.65402 48.184605
-13.719188 -119.455826 48.139034
-13.660562 -119.29889 48.205322
-13.510367 -119.137215 48.231403
-13.311704 -118.9788 48.23276
-13.393018 -118.83529 48.35681
-13.480617 -118.68682 48.48679
-13.691274 -118.53048 48.679333
-13.524652 -118.378654 48.69184
-15.237088 -120.529015 48.178997
-15.520223 -120.40315 48.38624
-15.62964 -120.23424 48.53821
-14.782914 -119.91143 48.33637
-14.041318 -119.63885 48.153534
-13.728873 -119.44606 48.123085
-13.651761 -119.28748 48.18191
-13.5143175 -119.12726 48.213596
-13.313624 -118.96911 48.214558
-13.4333315 -118.82652 48.355602
-13.480987 -118.67709 48.46715
-13.740636 -118.519585 48.68238
-13.570001 -118.367195 48.693947
-15.265763 -120.52295 48.16816
-15.577069 -120.40177 48.38466
-15.604838 -120.21728 48.507732
-14.235803 -119.81578 48.113884
-14.020631 -119.62607 48.12762
-13.739388 -119.43776 48.109932
-13.652978 -119.27836 48.16516
-13.50991 -119.11804 48.194714
-13.30907 -118.96038 48.195942
-13.383351 -118.81682 48.316105
-13.473086 -118.66861 48.446205
-13.780021 -118.51004 48.68304
-13.60724 -118.3572 48.69441
-15.270133 -120.50887 48.144844
-15.924195 -120.45428 48.477554
-15.583596 -120.19834 48.474094
-13.657418 -119.267525 48.146065
-13.504998 -119.10689 48.172043
-13.314984 -118.95029 48.17837
-13.471553 -118.808395 48.334938
-13.506497 -118.65828 48.440624
-13.772096 -118.49961 48.657257
-13.645936 -118.34522 48.691593
-15.290021 -120.49994 48.12953
-15.864675 -120.42866 48.4337
-15.536801 -120.176895 48.43468
-13.642356 -119.25635 48.12157
-13.504605 -119.09734 48.153748
-13.329118 -118.94177 48.16671
-13.427327 -118.79831 48.297047
-13.653592 -118.64884 48.48928
-13.801103 -118.48957 48.65152
-13.678292 -118.33467 48.688087
-15.311742 -120.49137 48.11475
-15.888856 -120.41937 48.418396
-15.527108 -120.16197 48.40853
-13.51337 -119.0884 48.13929
-13.350572 -118.93353 48.158134
-13.490918 -118.79038 48.306934
-13.749934 -118.6392 48.514133
-13.806558 -118.48007 48.63466
-13.721454 -118.32352 48.689644
-15.960282 -120.41811 48.417233
-15.530963 -120.14851 48.38567
-13.507775 -119.07792 48.117714
-13.357736 -118.92407 48.14224
-13.490918 -118.78057 48.287457
-13.71927 -118.6293 48.479942
-13.830575 -118.46944 48.62514
-13.766923 -118.31152 48.690815
-15.956418 -120.40336 48.392345
-15.437039 -120.119545 48.330673
-13.364409 -118.9152 48.127316
-13.484899 -118.77129 48.266624
-13.680703 -118.62019 48.44369
-13.817788 -118.46044 48.59984
-13.766831 -118.30239 48.671417
-15.814656 -120.36183 48.320614
-14.950791 -120.024796 48.140724
-13.373319 -118.905785 48.112152
-13.479253 -118.76144 48.244816
-13.554757 -118.611275 48.36754
-13.823556 -118.450294 48.58188
-13.774371 -118.292244 48.65438
-15.789876 -120.34349 48.289387
-13.482272 -118.75234 48.22801
-13.506673 -118.602615 48.327824
-13.806703 -118.28136 48.650276
-15.740607 -120.32073 48.250404
-13.474202 -118.74312 48.20649
-13.471246 -118.59396 48.29398
-14.278249 -118.41658 48.749443
-13.826369 -118.2711 48.640125
-15.734885 -120.305214 48.22418
-13.472014 -118.73338 48.18635
-13.469111 -118.58441 48.273716
-14.328053 -118.40427 48.75007
-13.808423 -118.26234 48.61117
-15.728492 -120.290535 48.199337
-13.478539 -118.72435 48.171135
-13.46647 -118.57549 48.254494
-14.333608 -118.3941 48.732025
-13.813491 -118.2529 48.59426
-15.66562 -120.26575 48.156727
-13.488708 -118.71535 48.157444
-13.469274 -118.56651 48.23767
-14.322671 -118.38454 48.706657
-13.880229 -118.23976 48.605637
-15.65767 -120.25008 48.130188
-13.490029 -118.70566 48.138863
-13.571702 -118.55532 48.26239
-14.297498 -118.37489 48.673744
-14.201905 -118.2102 48.73152
-17.4488 -120.77923 48.52772
-13.48759 -118.69596 48.118767
-13.803056 -118.54156 48.341473
-14.27403 -118.365265 48.641777
-14.233106 -118.19796 48.724117
-17.13704 -120.700775 48.4071
-13.841432 -118.53083 48.337643
-14.252273 -118.355644 48.610737
-14.291612 -118.1839 48.72886
-17.040928 -120.666405 48.353004
-14.294137 -118.51215 48.509075
-14.235436 -118.34655 48.583336
-14.300481 -118.17359 48.712486
-17.006874 -120.64435 48.317444
-14.34908 -118.50096 48.511986
-14.24603 -118.3363 48.56789
-14.3093 -118.16328 48.69609
-14.319562 -118.490906 48.478256
-14.257035 -118.325356 48.551273
-14.324008 -118.15188 48.680935
-14.29131 -118.4816 48.446587
-14.284085 -118.31429 48.5428
-14.296174 -118.14407 48.648434
-14.274493 -118.471405 48.41847
-14.285804 -118.303734 48.52218
-14.274163 -118.13528 48.61732
-14.247424 -118.4629 48.388954
-14.299455 -118.293915 48.50927
-14.258473 -118.1274 48.591785
-14.26747 -118.451775 48.37603
-14.304742 -118.283165 48.49017
-14.232585 -118.119026 48.55932
-14.29305 -118.440445 48.365257
-14.295201 -118.27319 48.464947
-14.226754 -118.10923 48.535625
-14.294461 -118.42982 48.344753
-14.281877 -118.26346 48.43826
-14.222676 -118.09932 48.512753
-14.310672 -118.41871 48.330147
-14.272153 -118.25357 48.413166
-14.236901 -118.08801 48.497673
-14.320832 -118.40845 48.314423
-14.248963 -118.24515 48.38401
-14.2249 -118.07939 48.47288
-14.329509 -118.397545 48.296795
-14.233495 -118.23569 48.35683
-13.909448 -118.09454 48.320454
-14.313064 -118.38891 48.272038
-14.202275 -118.228516 48.326057
-13.837663 -118.091896 48.27316
-14.308972 -118.377846 48.248245
-14.233399 -118.215706 48.31642
-13.827737 -118.082466 48.24801
-14.275561 -118.36997 48.21721
-14.257705 -118.2052 48.307858
-13.794412 -118.07688 48.21709
-14.259667 -118.360146 48.190437
-14.269799 -118.19411 48.2918
-13.794995 -118.06727 48.197693
-14.237666 -118.351295 48.16278
-14.283299 -118.183556 48.27757
-13.798833 -118.05798 48.18087
-14.230935 -118.34119 48.13971
-14.289716 -118.17278 48.25926
-13.79004 -118.0492 48.157776
-14.240586 -118.33102 48.124084
-14.293813 -118.16281 48.24136
-13.773389 -118.04176 48.132862
-14.265576 -118.319466 48.112827
-14.279603 -118.15344 48.215183
-13.775552 -118.03206 48.114296
-14.274243 -118.14415 48.19377
-14.25052 -118.135544 48.16422
-14.239398 -118.12674 48.140827
-14.213235 -118.11909 48.111935
-15.384744 -121.64627 56.76121
-15.341746 -121.611 56.64646
-15.310361 -121.57668 56.540417
-15.183049 -121.473145 56.203423
-15.589309 -121.861984 56.474026
-15.664086 -121.86187 56.50857
-14.991092 -121.37439 55.84506
-15.590379 -121.815506 56.360165
-15.021642 -121.36295 55.831528
-15.553418 -121.77983 56.25524
-15.049069 -121.34925 55.81051
-15.022048 -121.321526 55.724236
-15.268462 -121.64513 55.791252
-15.05774 -121.31024 55.714
-15.322194 -121.63911 55.801678
-15.088492 -121.29754 55.69751
-15.313825 -121.61389 55.73597
-15.108073 -121.281746 55.66711
-15.532544 -121.93918 55.76509
-15.320279 -121.59619 55.695618
-15.148807 -121.27438 55.669807
-15.613465 -121.94236 55.80582
-15.357678 -121.58509 55.68606
-15.189374 -121.26424 55.665314
-15.657435 -121.934525 55.80574
-15.389512 -121.57368 55.67313
-15.193273 -121.24554 55.619164
-15.623967 -121.89818 55.707565
-15.431184 -121.56233 55.665104
-15.184182 -121.22086 55.550755
-15.648143 -121.88539 55.687866
-15.472571 -121.55504 55.6668
-15.159524 -121.196205 55.474003
-15.684812 -121.87367 55.675888
-15.51249 -121.54442 55.659794
-15.121579 -121.16571 55.37519
-15.722207 -121.86362 55.668076
-15.558267 -121.53683 55.662945
-15.138299 -121.15088 55.34606
-15.74344 -121.84688 55.63814
-15.60333 -121.52752 55.661655
-15.148999 -121.133255 55.306595
-15.782067 -121.83713 55.631622
-15.64409 -121.51829 55.65854
-15.176909 -121.12132 55.29103
-15.827672 -121.82801 55.629547
-15.687932 -121.50845 55.65547
-15.20646 -121.108505 55.274147
-15.875398 -121.82093 55.633064
-15.732604 -121.50015 55.656555
-15.248353 -121.09999 55.274982
-15.918485 -121.810844 55.62775
-15.777804 -121.4905 55.654682
-15.277852 -121.08707 55.257908
-15.966805 -121.80226 55.628147
-15.823041 -121.48077 55.65266
-15.28284 -121.068146 55.21229
-16.009453 -121.79332 55.62536
-15.865235 -121.4715 55.650352
-15.324693 -121.05946 55.21283
-16.053444 -121.7847 55.623898
-15.91137 -121.46321 55.652332
-15.353637 -121.04761 55.198307
-16.093521 -121.77481 55.617928
-15.934022 -121.44853 55.627663
-15.379945 -121.0351 55.18073
-15.981473 -121.71699 55.437824
-15.961425 -121.43234 55.601704
-15.404309 -121.0196 55.154587
-15.961137 -121.69105 55.369564
-15.968987 -121.41509 55.563625
-15.419688 -121.005775 55.127777
-15.9625635 -121.66877 55.318977
-15.9640665 -121.39189 55.505287
-15.430406 -120.9884 55.089504
-15.97001 -121.64977 55.27845
-15.965077 -121.371735 55.45715
-15.997703 -121.63522 55.25674
-15.975568 -121.352745 55.41645
-16.050377 -121.62916 55.265057
-15.990817 -121.33638 55.384396
-14.153485 -120.64686 53.524986
-16.083378 -121.61601 55.248882
-14.166276 -120.633125 53.497196
-16.115963 -121.60412 55.235416
-15.442122 -120.896866 54.864037
-16.162395 -121.594604 55.233326
-14.416207 -120.885025 53.53836
-15.474446 -120.884575 54.85076
-15.909926 -121.23389 55.098995
-15.495778 -120.8711 54.828472
-15.811053 -121.18904 54.943535
-15.403281 -120.832245 54.679623
-16.69751 -121.67499 55.64435
-15.820771 -121.17211 54.90766
-15.39321 -120.81239 54.624077
-15.0482645 -121.45123 53.724403
-16.65783 -121.641106 55.550148
-15.795316 -121.14558 54.83178
-15.412772 -120.79765 54.597794
-15.01941 -121.42534 53.65718
-16.811337 -121.66165 55.66241
-15.74722 -121.11647 54.738716
-15.391269 -120.776825 54.533527
-15.004289 -121.39994 53.59622
-16.863731 -121.65064 55.659714
-15.637946 -121.06959 54.573467
-13.971631 -120.46779 52.972893
-15.323205 -121.71777 53.714935
-17.108414 -121.990524 55.66342
-16.86715 -121.629684 55.61344
-15.676618 -121.060005 54.56942
-13.952764 -120.44951 52.91652
-15.336045 -121.70093 53.683903
-17.19165 -121.98987 55.692974
-16.880428 -121.60992 55.574135
-15.574113 -121.01677 54.416233
-13.86535 -120.41673 52.785908
-15.288518 -121.66652 53.596973
-14.867799 -121.305016 53.338722
-16.630089 -121.524155 55.271908
-14.198884 -120.68644 52.95697
-13.879968 -120.4055 52.7658
-15.323457 -121.65547 53.585167
-16.580143 -121.48765 55.16757
-14.16985 -120.662605 52.885956
-13.924428 -120.3982 52.772167
-15.210515 -121.60264 53.438892
-14.078507 -120.62816 52.759163
-13.917102 -120.38363 52.731586
-15.205483 -121.58089 53.392
-14.4213 -120.9079 52.92468
-14.098699 -120.61674 52.741833
-13.892774 -120.364 52.669006
-14.448052 -120.89956 52.917156
-14.144139 -120.61283 52.75471
-13.880914 -120.34878 52.624332
-15.480706 -121.86828 53.416473
-15.11963 -121.51742 53.232334
-14.331492 -120.8539 52.763443
-14.136403 -120.59528 52.709194
-13.915639 -120.340515 52.623028
-15.519849 -121.861244 53.41314
-15.102412 -121.4938 53.17767
-14.36057 -120.84527 52.756325
-14.114623 -120.575836 52.652267
-13.946393 -120.332375 52.619835
-15.576222 -121.85839 53.422882
-14.396567 -120.837204 52.753498
-14.1330805 -120.564095 52.633446
-13.979772 -120.32372 52.616882
-15.446198 -121.7953 53.261517
-14.982835 -121.41954 52.984837
-14.560086 -121.07832 52.731373
-14.380258 -120.816574 52.699734
-14.165532 -120.55528 52.62849
-14.014565 -120.315254 52.615223
-15.771283 -121.87852 53.51646
-14.996062 -121.40432 52.957493
-14.595084 -121.07002 52.72648
-14.355184 -120.79403 52.637875
-14.203631 -120.547585 52.62898
-14.052186 -120.30721 52.616253
-15.347955 -121.723976 53.09244
-14.963309 -121.37699 52.890163
-14.621654 -121.06054 52.71588
-14.382581 -120.785 52.62923
-14.239121 -120.540245 52.62905
-14.083016 -120.29882 52.612625
-15.324239 -121.69745 53.033073
-14.838105 -121.32327 52.738213
-14.592328 -121.03648 52.652767
-14.387166 -120.77064 52.598686
-14.268975 -120.531685 52.623474
-14.119487 -120.29136 52.61449
-15.214744 -121.64426 52.89706
-14.878085 -121.317375 52.738884
-14.58138 -121.017365 52.607258
-14.42163 -120.76319 52.596733
-14.313039 -120.52593 52.63159
-14.154588 -120.28358 52.614838
-15.216321 -121.62492 52.859013
-14.909299 -121.30773 52.72899
-14.6132555 -121.00823 52.599495
-14.458798 -120.75526 52.594883
-14.347018 -120.51707 52.627422
-14.193761 -120.275475 52.61675
-15.115876 -121.57545 52.73289
-14.875369 -121.28088 52.66232
-14.651078 -121.00164 52.599464
-14.497621 -120.74864 52.596752
-14.381207 -120.509155 52.62564
-14.230351 -120.267784 52.618237
-15.483911 -121.903305 52.86744
-15.131459 -121.56082 52.708076
-14.870046 -121.261086 52.61958
-14.691653 -120.99457 52.599464
-14.530538 -120.739586 52.590584
-14.415219 -120.50015 52.621235
-14.262502 -120.25833 52.612938
-15.504727 -121.89078 52.848248
-15.167573 -121.55367 52.703793
-14.888013 -121.24899 52.60035
-14.72955 -120.987816 52.599163
-14.572316 -120.73346 52.59489
-14.452321 -120.49267 52.621952
-14.299151 -120.250496 52.614178
-15.397267 -121.8348 52.71651
-15.140473 -121.52616 52.641617
-14.910129 -121.23689 52.582493
-14.771661 -120.980934 52.600204
-14.608163 -120.7249 52.591167
-14.493564 -120.4849 52.62412
-14.33133 -120.24091 52.60865
-15.430818 -121.82543 52.706318
-15.132186 -121.50449 52.59627
-14.952699 -121.230354 52.582798
-14.810903 -120.97324 52.598446
-14.649835 -120.717514 52.592678
-14.526204 -120.4754 52.617977
-14.373544 -120.23288 52.612644
-15.457086 -121.81492 52.69226
-15.1592455 -121.49467 52.58419
-14.985219 -121.22214 52.57637
-14.847447 -120.9659 52.59642
-14.681584 -120.70894 52.587185
-14.561959 -120.467415 52.616947
-14.40743 -120.22436 52.610752
-15.422505 -121.784805 52.626724
-15.198104 -121.48828 52.582233
-15.026574 -121.21623 52.57761
-14.882554 -120.95812 52.592957
-14.722085 -120.70217 52.589592
-14.599191 -120.45963 52.61715
-14.435576 -120.21486 52.603268
-15.436524 -121.76919 52.600124
-15.241269 -121.481865 52.581436
-15.067786 -121.209045 52.576187
-14.918946 -120.94949 52.588173
-14.762414 -120.69423 52.589344
-14.639138 -120.45126 52.617405
-14.443269 -120.20119 52.57406
-15.472798 -121.76066 52.59221
-15.281507 -121.474495 52.57795
-15.064656 -121.19006 52.53597
-14.964189 -120.94288 52.591106
-14.80132 -120.68589 52.58762
-14.676209 -120.44228 52.614822
-14.460973 -120.18908 52.554394
-15.483838 -121.74538 52.565556
-15.324931 -121.469154 52.57937
-15.085282 -121.17853 52.51888
-15.005277 -120.93627 52.59248
-14.837548 -120.677956 52.58563
-14.710622 -120.43374 52.611946
-14.462916 -120.17551 52.52224
-15.524728 -121.73946 52.563698
-15.363931 -121.46244 52.57685
-15.074649 -121.15887 52.47482
-15.04345 -120.928894 52.591106
-14.875272 -120.67025 52.58483
-14.714334 -120.41965 52.580837
-14.479268 -120.16415 52.503677
-15.569985 -121.73356 52.562878
-15.395291 -121.45226 52.565384
-15.087426 -121.14422 52.448795
-15.087363 -120.92165 52.59227
